0.06154735 -0.40515670 0.00070813
0.11464796 -0.17108390 0.05760778
0.03985848 0.39568073 0.48003143
0.02596506 -0.37721822 -0.03452650
-0.11109017 -0.65939492 0.05205686
0.10747757 0.41455719 -0.15252350
0.09025029 0.49116021 -0.26372772
-0.05094313 -0.65859705 0.04185767
0.12329087 -0.72926003 0.05678020
-0.06893041 -0.64925718 -0.66593093
-0.07237483 -0.06152885 -0.15092188
0.02768774 0.09171355 0.29181719
0.04632569 -0.55744493 -0.68032908
-0.18482533 0.16892657 0.10425596
0.19500421 0.09902990 -0.21382183
-0.17374770 0.07584998 -0.54291940
-0.15134960 -0.75072253 0.13304603
-0.05479084 -0.48302215 0.00023275
-0.01018715 -0.01363770 -0.57908881
-0.10193294 -0.69520104 -0.61401707
-0.10212468 0.14145380 -0.60836083
-0.06331237 -0.26457506 -0.70078057
-0.12938139 -0.75245547 -0.65616816
0.07658891 -0.23276532 -0.63477510
-0.17989101 -0.74687517 -0.54908586
0.18013310 0.05896201 -0.10819677
-0.07556865 0.62484884 0.42492872
0.00870686 -0.44577092 -0.03669751
-0.17366248 0.19047783 0.00378281
0.13020782 0.03328702 0.11960268
0.05436456 0.30523506 0.38911277
-0.15007390 0.04303537 -0.58509314
0.04686274 0.10496889 0.27767637
-0.17434171 0.27750888 -0.06686792
-0.14049169 0.30348268 0.08942077
0.09516124 0.33753935 -0.44027880
-0.04806217 -0.16388640 0.05150532
-0.19406183 0.11026099 -0.04712272
-0.01116444 0.50348151 0.67242652
0.01428874 0.60134441 0.60294539
-0.06777310 -0.39831221 0.01763810
-0.07668082 -0.39878508 0.00471085
-0.06257643 -0.26132882 -0.00914387
0.10417944 -0.04312255 -0.13981137
0.16480517 0.24681345 -0.45293990
-0.16498785 0.00760454 0.05459113
0.05600668 -0.11990596 -0.52081120
0.03670640 -0.19874552 -0.60292244
0.03421120 -0.23837493 -0.63373333
-0.03120862 -0.01884167 -0.57843882
-0.16570854 0.08661620 -0.34330842
0.04060446 0.19627692 0.39784586
0.11242145 0.33925536 -0.37603608
-0.16793066 0.21170905 -0.54085737
0.03362176 -0.10244420 0.03257514
-0.03049351 0.20292175 -0.61034411
0.05828448 -0.43683770 -0.69489545
0.05899985 0.43037084 -0.07199007
0.13558160 0.24799368 -0.52677792
-0.04197567 0.54784983 -0.19484720
0.01643759 0.60242212 0.57742310
0.07724266 -0.75456882 -0.58522648
0.09159616 -0.70028096 -0.65702641
0.10589685 0.38093236 -0.09142736
0.05557540 -0.04818153 -0.20770182
0.04189211 -0.26096916 -0.02049273
-0.03428784 0.06781170 -0.51372880
-0.17667350 0.30212504 -0.28279555
-0.00532891 -0.06522805 -0.20057179
-0.05674452 -0.02203704 -0.30707735
0.00983928 -0.07268772 -0.57692254
0.00388170 0.36522153 0.36579776
-0.03896812 -0.01399217 -0.61037815
0.16987851 0.24667436 -0.31152543
-0.07265154 -0.57309812 -0.64800739
0.19497454 0.22528434 -0.11376265
0.18334943 0.18353665 -0.28171691
0.01291274 0.52967781 -0.30851468
0.09783112 -0.67811459 -0.66488826
-0.09390352 0.04955255 -0.61592078
-0.04282722 -0.10215297 -0.59103239
-0.11817825 -0.02804173 -0.05843244
0.01928838 0.41939807 0.01600799
-0.06013153 -0.02743401 -0.50533807
-0.20926014 0.09199528 -0.09795605
0.04233926 -0.07602736 0.01549823
0.01912934 0.02904531 -0.62110049
0.15917662 0.08612269 -0.54204875
0.06515817 -0.73022008 0.01085734
-0.01451799 0.28782019 0.50446850
-0.05068701 0.41749722 0.48698801
0.04229721 0.55285412 0.60853219
-0.15862411 0.24867916 0.04680222
-0.17633721 0.01037069 -0.43602851
0.06105590 -0.07245818 -0.63154089
-0.10621622 0.09464416 -0.61056197
-0.11133766 -0.02352742 -0.62014663
-0.10673532 0.02047158 -0.61661547
-0.04733579 0.42197466 0.00161046
0.14818385 0.24638492 -0.50692916
-0.15610355 -0.06143086 0.05656987
0.04435243 -0.14996271 -0.66347063
0.05926814 0.47128731 -0.12206159
0.08628243 0.10134766 0.21893640
0.06060696 -0.75330317 -0.57142121
-0.18683615 0.06708574 -0.48513183
-0.10459966 -0.63056880 0.01443909
-0.12436153 -0.11623653 -0.50505149
0.12172621 0.16075121 -0.58533037
0.06895402 -0.73264664 -0.57255936
-0.01180457 0.43161225 -0.04032118
-0.00670694 0.09607977 -0.69432861
0.12240677 -0.75066149 -0.65088058
-0.09078708 -0.30735716 -0.66144180
-0.04345577 0.11944434 0.33859414
-0.18221630 0.14683248 -0.37301594
-0.19645712 0.11382744 0.08044335
0.05572997 0.16543779 -0.63317639
0.16719371 0.16208045 -0.41061181
0.10334198 -0.13390824 -0.61300528
0.02428164 0.01528455 -0.52198952
0.04551554 0.54321885 -0.24830918
0.08765092 0.04759976 -0.41609275
-0.15265574 0.24517143 0.13861202
0.06092899 -0.70101476 -0.60322726
0.08593158 -0.18315287 -0.02163321
-0.02164240 -0.02272456 -0.31386602
0.12707140 0.37931648 -0.20968269
-0.18097928 0.03556222 -0.46241429
-0.02400870 0.42452440 0.09026755
0.03136269 0.33322680 0.36370149
0.13937700 0.07102043 -0.32845736
-0.03007270 0.06951188 -0.61103249
0.12591548 0.31934053 -0.34426901
-0.17741992 0.06786326 -0.02034756
0.12184259 -0.09323728 -0.50074196
-0.09902619 -0.75071257 -0.55620873
-0.18773690 0.08200349 0.08388814
0.03999875 -0.43108416 -0.71811765
-0.06747750 -0.52311552 -0.00929392
0.01465762 -0.02008538 0.16952597
0.04852329 0.17760545 -0.61702734
-0.06065807 0.37717146 0.39525440
0.05188489 0.15850528 0.33512154
-0.05344423 -0.33691669 -0.73481315
-0.04594613 -0.29933989 -0.67189533
0.03228066 0.43008250 -0.36555490
-0.05327848 -0.12147322 0.06791321
0.08731095 0.18133847 -0.59707147
-0.00717668 0.55623704 -0.26021072
-0.05484005 -0.32815030 0.03007413
-0.03161436 -0.36781603 -0.01770969
0.12988640 -0.76169455 -0.53391403
0.13423949 0.31242311 -0.39659280
0.05121170 -0.43749985 0.00224152
0.04343818 0.12064712 0.30543664
-0.17410995 0.27026710 -0.34908897
0.06512377 -0.65441144 -0.61541533
-0.06883764 0.27345768 0.24584424
-0.06786892 -0.44305328 -0.70240951
-0.14450772 0.02158104 -0.29379457
0.02419795 -0.19273482 -0.63210547
0.17839992 0.12560734 0.05161419
0.05600245 -0.07647371 0.01094484
-0.08205523 0.59282160 0.34540132
-0.08149882 -0.05449297 -0.10706079
0.03042467 0.53172058 0.60464007
-0.09444953 -0.05544347 -0.07609061
0.10471498 -0.03255507 0.12388524
-0.08970620 0.47819591 -0.29559478
-0.04512480 0.38455847 -0.42430389
-0.19408348 0.15484439 -0.46662363
0.17302199 0.29582801 -0.21088527
-0.11594658 -0.63953376 -0.62595063
-0.09207393 0.32607898 0.16020007
0.03304390 0.08288136 -0.47502628
0.05953094 0.52954376 -0.23909117
-0.08510018 0.36568564 0.10207036
0.05127719 0.29055321 -0.56339628
0.05112386 -0.67755336 0.01352946
-0.07117262 -0.06650649 -0.13580370
0.05629654 -0.56007123 0.00645068
-0.06088519 0.00647435 -0.34955490
-0.05082335 0.06503809 -0.48852485
-0.01978377 -0.00041049 -0.34397408
-0.16588064 0.28468177 -0.04814836
-0.19936213 0.08449613 -0.26522049
0.12426429 -0.00636898 -0.42931706
0.06929418 -0.04559555 0.13139065
0.15518203 -0.05577241 -0.51347047
0.01512885 0.47433227 0.36100981
0.13847953 0.07349448 -0.40917462
0.08029438 0.47140783 -0.29729837
0.03681294 -0.10107315 0.01770922
-0.14033264 0.00117955 -0.26678005
0.00989889 -0.36851984 -0.68907422
0.06737173 0.00704137 -0.44105291
-0.06805985 -0.25603735 0.05160936
-0.06711288 -0.42164105 -0.70602298
0.16298263 0.04044820 0.06137642
0.06795999 0.36882564 -0.40351406
-0.16692893 0.21408004 -0.52855283
0.04874009 0.60111606 0.52315342
0.14549609 -0.76403171 -0.57191408
-0.08416413 0.55425072 0.42143458
0.16815178 0.13036773 -0.52697504
-0.11670903 -0.00221035 -0.61299622
0.14580379 -0.75325042 0.09966050
-0.18864556 0.30041975 -0.13500789
-0.15992610 0.31248993 -0.34179670
0.17785679 0.15950939 -0.41558847
0.11234171 -0.13855469 0.07951556
0.03219489 0.38933280 -0.41460457
-0.18929458 0.12883078 -0.47534862
-0.01804643 0.04030458 -0.66308492
-0.10660097 -0.11630812 -0.63638020
0.12916420 0.01190504 -0.27116191
0.13167606 0.00557626 0.01613637
-0.11322898 -0.66089702 -0.61380160
0.04404798 -0.26545632 -0.62937510
0.09107926 -0.75412762 -0.54594690
-0.16438310 0.34503025 -0.20791334
0.01763133 0.11357859 -0.61071789
-0.06024322 -0.60958058 -0.65208906
0.10871814 0.08850004 0.19703691
0.19968624 0.09886369 -0.17078593
0.15220149 0.01382427 -0.22699966
-0.15450346 0.26621157 0.12136205
0.02933958 0.52371186 -0.17056814
0.05331351 -0.43524510 -0.67645091
-0.12006990 -0.74154216 -0.55269498
-0.13811386 0.35278544 -0.10662917
0.02637165 -0.06343987 0.02462596
-0.01985993 0.51666647 -0.12201259
-0.07734178 0.39128727 0.07323696
0.07009770 0.17851914 -0.60311759
0.02155959 -0.50119340 0.01076116
-0.03011272 0.47555876 -0.08723731
0.02358631 -0.31366205 -0.74323922
-0.05268288 0.57966828 0.57789320
0.12714176 -0.11127368 -0.56641620
0.06928057 -0.05037034 -0.00446971
-0.08177617 0.18998189 -0.61713833
-0.03413400 -0.01236941 -0.55202448
0.05082111 0.39451382 0.43789399
-0.12037541 0.33228901 0.05834349
0.06968395 -0.24152227 -0.01158841
0.15464932 0.17556375 0.13521475
0.03772614 0.32286867 0.48869169
-0.12603925 0.03241761 0.15488912
-0.15568189 -0.10369675 -0.51057500
-0.15595847 0.16947441 0.17125590
-0.12858208 0.35595003 -0.33985248
0.06844639 -0.11316574 -0.50773764
0.01200853 0.28008211 0.25258034
-0.18552597 0.23561069 -0.40480301
-0.06200582 -0.37212008 -0.72978818
-0.18195635 0.28299677 -0.28499445
-0.07856229 0.60377765 0.46042529
-0.06854302 -0.34120142 -0.66093659
-0.00384042 0.11035523 0.33377361
0.14062098 -0.75341302 0.11929463
-0.10553804 -0.18476914 -0.62680048
-0.08354103 0.41941378 -0.34498587
0.00467889 0.00760200 0.19742134
-0.05934883 0.26883644 0.28305331
-0.17684141 0.25835481 -0.36197969
-0.00255490 -0.29584932 -0.69284368
-0.06399889 -0.62485164 -0.64794642
0.05794763 -0.20935664 -0.01608197
0.17270713 0.04028489 -0.15044415
-0.17667711 0.26511899 -0.31144258
-0.08549625 -0.14839269 -0.01573088
0.02715780 -0.28483286 -0.69753134
0.08377140 0.00277385 -0.32932261
-0.07232038 0.23852742 -0.59110093
0.10028472 -0.00264511 0.14308921
0.05036228 -0.03415170 -0.26094717
-0.01116488 -0.43836197 -0.02283464
0.12199961 -0.13586156 0.05536038
0.08922283 0.36349228 0.06050319
-0.18164165 0.12193501 -0.38579777
-0.08258501 -0.44953057 -0.68386132
-0.06286886 0.53325462 0.58571976
0.05892991 -0.72733557 -0.61164314
0.12446232 -0.10385938 -0.51563382
-0.07069863 -0.39978459 -0.67312169
0.01006672 0.13207549 0.36462042
-0.17892718 0.14730324 -0.54382843
0.16579635 0.10962184 -0.30680656
0.04045815 -0.05562102 -0.20735328
-0.16398785 0.27482978 -0.03466143
-0.20119710 0.16427368 -0.41169381
-0.15559463 0.13320449 0.15886424
-0.01266571 0.60011202 0.33583969
-0.01976344 0.44599739 -0.05464984
0.00088135 -0.02777810 -0.29746610
0.14128838 0.18506426 0.15503785
-0.04722386 -0.49213192 -0.01655937
0.16841413 0.26080018 -0.07703167
0.14745389 0.16761886 -0.55762881
0.16803832 0.07057237 -0.04701117
0.08936897 -0.71699899 -0.64985144
-0.06869213 0.40027288 0.45284569
-0.00721903 0.39170966 -0.42101640
0.03182046 -0.33458883 -0.02111095
-0.09377210 0.51962101 -0.22692156
0.02283026 0.52514088 0.64673734
0.14808913 0.11387527 -0.37666744
-0.04097548 0.35128576 0.17317070
0.13314696 0.07882863 -0.39474902
-0.12241163 0.32714567 0.11103812
0.05199355 0.62259382 0.46441400
-0.12230686 0.34212688 0.03907326
-0.09468520 0.61006129 0.36506462
-0.21081622 0.23592523 -0.23847143
0.01420187 0.50939381 0.33515057
-0.16287974 0.36138615 -0.25112361
-0.22088030 0.19481856 -0.11890113
-0.08146277 -0.08073829 -0.48626849
-0.02216244 0.19592330 -0.61671162
0.07912630 0.08062123 0.20831798
-0.15621129 0.07844065 -0.57426536
-0.08231036 0.24224648 0.36814982
0.15456140 -0.03056599 -0.56236613
-0.16019271 0.33476540 -0.12738481
0.09671561 0.01933817 -0.42473719
-0.18261096 0.06825089 -0.27558413
0.07237542 0.42564878 -0.10738362
0.03659112 0.22519922 -0.61203158
0.03794613 -0.14912763 0.06219126
-0.02260954 -0.46488762 -0.01549692
-0.10347780 -0.75197846 0.01797765
0.13499138 0.22451425 0.17640206
-0.06661321 -0.05514272 -0.17182554
-0.11604384 0.42396232 -0.29602560
0.00097261 0.47362727 0.36152527
0.07555869 -0.17936613 -0.01176128
-0.02878520 0.49015886 0.49617875
0.16006511 0.20334527 0.11709967
-0.06031135 0.30341756 0.34511763
-0.13308243 -0.19168472 0.04252802
-0.15632498 -0.08425298 -0.49842975
-0.18217419 0.08864558 -0.01638622
0.08880329 -0.08013782 -0.62700933
0.12839191 -0.04753509 -0.58889735
0.07679278 0.35621884 -0.41451174
-0.04462509 -0.31606111 0.02111850
0.00513057 -0.03538200 -0.00801283
0.02984395 -0.36877239 -0.67725223
-0.08864173 0.01619962 -0.44382790
0.07463285 -0.04904582 -0.08191931
0.14596324 -0.04242048 -0.47855809
0.00715735 0.25414562 0.48393732
0.02092191 0.20894897 -0.61881644
0.02696535 0.05128565 -0.51531518
0.06551819 -0.52324855 -0.67973959
-0.13898486 -0.12896201 -0.59574783
0.10094720 -0.74218547 0.02134024
0.00580381 0.27823746 -0.60225827
-0.06882589 -0.66380709 -0.62952256
-0.18470928 0.19843654 -0.01617106
-0.15426181 0.03044271 -0.29415435
0.07938818 0.10207599 -0.62218469
0.00845427 0.39288241 0.49846035
-0.04138198 0.52601868 0.63866001
-0.18250212 0.04597329 0.01178956
-0.17936964 0.22346938 -0.02148450
-0.10283518 -0.74837708 -0.51395130
-0.11067061 0.17870903 0.24078399
0.03650454 0.17982368 0.40474895
0.12216169 0.40906370 -0.25488144
0.12918724 0.24034327 0.18072808
-0.00720447 0.38672686 -0.44825330
0.13888015 0.30876121 -0.42435795
0.07181085 0.46130246 -0.12572289
0.00407366 0.53582352 0.34770560
0.01729729 0.45734894 -0.35416585
-0.06094483 -0.05592175 -0.01669531
0.12113945 -0.73686862 -0.65027070
-0.01214688 -0.38957569 -0.70549041
-0.18033092 0.02155971 -0.45878896
0.05929112 -0.03708337 -0.25387365
0.04428937 -0.49788353 -0.01108739
-0.14607529 -0.04460996 -0.60331100
0.08042476 -0.08215280 -0.48986349
-0.06250306 -0.50071359 -0.68456250
-0.11470207 0.32879487 -0.45821634
0.04362410 0.22963500 0.42827874
0.02514016 -0.17043692 -0.61838406
0.04609680 -0.19943760 0.07183937
0.07461648 -0.65739471 -0.01255646
-0.07621632 -0.34830022 -0.70500857
0.06777100 -0.62251347 -0.63389283
-0.05620391 -0.08544947 0.07847970
0.00618442 0.48862302 0.61202312
-0.10044149 -0.74125743 0.14413293
-0.07525221 -0.70610112 -0.64860582
0.16325837 0.09642841 -0.30455101
-0.17359792 -0.75041157 0.10807455
0.01148044 0.46072477 -0.08198260
0.00283419 -0.43025404 0.00843676
0.00870912 -0.34916931 0.01293676
0.13700199 0.26756954 0.12258899
0.14043297 -0.75979257 -0.60341412
-0.12651905 0.25391048 0.19349667
0.13971980 -0.01059730 0.07261387
-0.16051157 0.27028027 -0.02424618
0.19719346 0.25094444 -0.17217967
0.05892824 -0.06689958 0.00161032
0.06859840 0.54608762 0.48371655
0.04417547 -0.51691765 -0.01826680
-0.04480911 -0.37822536 -0.73725313
-0.12533492 -0.70352155 -0.64875495
0.09401070 -0.16984147 -0.01280052
-0.09883263 0.56549615 0.42996356
-0.04551978 -0.42124009 -0.72984046
0.02083700 -0.35747528 -0.73298568
-0.14167035 -0.15762892 0.02516546
0.11704253 -0.00809606 -0.04511933
-0.15852068 0.00911951 -0.06468592
0.02643036 0.38546607 0.37041926
-0.06726683 -0.50623685 0.00783916
-0.03684196 0.52619237 -0.29982281
-0.07916363 0.62335837 0.43798277
0.03087252 -0.51177484 -0.66485381
-0.18511732 0.06124716 0.06508631
-0.06903708 -0.20691086 -0.01469003
-0.17878243 0.13565747 0.11900954
0.02936680 0.41808510 0.03638992
-0.09596691 -0.76611936 0.06701463
-0.06401552 0.27937087 0.33629349
-0.02877963 0.41973203 -0.37363717
0.02110846 0.21932378 0.46201926
0.16310111 0.19756036 0.05728000
0.01101016 0.43519545 0.49107409
0.17804009 0.15116380 -0.28286141
-0.00680418 0.56348413 0.34463200
-0.01099534 -0.06100052 -0.61267316
0.04321767 -0.60718417 0.03289972
0.07810352 0.49158531 -0.28240326
0.02218630 0.54967874 -0.18804228
0.07687597 -0.02671652 -0.23535749
-0.18818167 0.07619944 0.04202638
-0.16063611 -0.74105465 -0.60559136
-0.13058066 0.36366534 -0.31012467
0.08476099 -0.63617784 -0.68220025
0.06430362 0.38724220 0.05837285
0.02665588 -0.59032768 0.02097769
-0.13182522 -0.73178238 -0.64157069
0.06718127 0.57591563 0.45954326
0.01491506 0.03291013 -0.60797632
-0.02775967 0.49035519 0.62847567
-0.01338539 -0.33141550 -0.69401067
-0.17898525 0.04524198 -0.04772753
0.12232336 -0.09599828 0.01769178
0.00879087 0.62535352 0.35900807
0.11585793 -0.09110893 -0.60649574
0.04916952 0.56935632 0.54179311
-0.11546814 0.29772875 0.17829663
-0.12040202 -0.67114592 0.05097003
0.06108096 -0.13163483 -0.52709651
-0.13026775 -0.70490932 -0.63348031
-0.06138661 0.15831380 0.36916423
0.19245401 0.26344484 -0.15130016
0.06255428 0.54023051 0.40928534
0.06938996 -0.69702369 -0.62920433
-0.13367879 0.32690954 0.04665214
-0.05064176 -0.62853396 0.03300371
-0.22940879 0.16133872 -0.13796559
0.09034810 -0.75288361 -0.65767020
-0.00376876 0.19241413 -0.60827196
-0.12209190 -0.15652406 0.08579960
-0.06176323 -0.73790467 0.09264893
-0.06937247 -0.15123001 0.07963424
0.05992429 0.37820557 0.10605018
0.17514321 0.04207838 -0.12752998
0.11612365 0.02479151 -0.31552026
-0.15321961 -0.00756783 -0.19597249
0.02934731 0.57621318 0.35276431
0.14400698 0.35530609 -0.19788404
0.12224124 -0.14597057 0.03105061
-0.11393736 0.26823431 -0.54916406
-0.00929329 -0.01711169 -0.66289473
0.16231279 0.00220001 -0.49240705
-0.18153335 0.12193349 -0.54502374
0.07232758 -0.68261284 -0.66527569
0.08347673 -0.68719482 -0.60073411
0.11162199 0.31961948 -0.47059575
-0.00903350 0.49902701 0.61862582
0.06077783 0.58907747 0.50464743
-0.04967111 -0.00062970 0.17080006
-0.02994792 -0.04946537 0.09495414
-0.06787636 -0.22416131 -0.67157716
0.07535040 -0.01311345 -0.44459772
-0.02832379 0.56098515 0.34883940
0.00973423 0.56218839 -0.25687915
-0.03925667 -0.09879704 -0.62721038
0.03111478 -0.23503809 -0.68795890
0.04448282 0.32940701 0.37522191
0.00450190 -0.33510026 -0.00939033
-0.16599122 0.22799778 0.14397350
-0.02181409 0.49264526 0.35026267
-0.08964196 -0.56570363 -0.66470444
-0.01539878 0.27087069 -0.60874403
-0.09761751 0.11815886 0.23343062
-0.08148745 0.58479077 0.47475696
0.01262713 -0.34427413 -0.66244847
-0.01021299 0.44213232 -0.04961085
-0.13916731 0.33376133 -0.33824804
0.04266976 0.61352819 0.38833344
0.16619816 0.02023996 -0.52929497
0.12093446 0.02385110 0.13982831
-0.09635654 -0.01882156 -0.61985648
0.00726983 0.19130774 0.43277115
-0.04611310 -0.07281756 -0.63165033
0.16707711 0.10011515 -0.52762514
0.03735674 -0.08841361 -0.53630692
-0.14723602 0.01722919 -0.01734295
0.09428931 0.02508014 -0.33444208
0.03112827 -0.21135043 0.05324971
0.13636605 -0.05306914 -0.58169293
0.13041241 0.12785947 0.20375112
-0.05490699 0.29011384 0.32553878
-0.12491840 -0.75369722 0.03030242
-0.00796703 -0.03997087 0.12152584
0.05740891 0.51631767 0.49250931
0.16033521 0.14948317 0.00218956
-0.05699407 -0.56632626 0.02369191
0.03166961 -0.07132448 0.09881511
0.03131019 -0.15559143 0.04580772
-0.10974320 0.36314875 -0.03451215
0.14417681 -0.76000625 -0.58862901
-0.15452082 -0.11060339 -0.57152766
0.14227451 0.33462495 -0.27700782
0.16915683 0.15317281 0.10373716
-0.00476036 -0.33808610 -0.67110735
-0.07987033 -0.33434272 -0.66108590
0.12063073 -0.02786456 -0.14842865
-0.01495763 0.07213369 -0.57048589
0.03563157 0.60570025 0.52126765
-0.14847893 -0.05569027 0.04099528
0.11221529 0.09990984 0.20612843
0.05357063 -0.72040069 0.04708156
0.05281088 -0.32079929 0.02810230
0.15576233 -0.03676801 -0.50799990
-0.05607894 -0.01858512 0.14567851
0.06644753 0.43409634 -0.33439922
0.12874953 -0.04414298 0.05698442
-0.11761290 0.03705742 -0.60830468
0.11502486 0.35844764 -0.30562893
0.07057221 0.55760288 0.45069033
0.01264048 0.06068902 0.25433478
-0.14301865 0.28379816 0.01092146
0.06853575 0.04221152 0.19298689
-0.10878797 0.47042269 -0.19320989
0.14599892 0.11977129 0.14817353
0.00389544 0.02616080 0.21385148
0.02875054 -0.23971806 -0.67464119
-0.05862944 -0.18059948 0.01737118
-0.17219512 0.02762260 -0.25359523
-0.13811268 -0.71771842 -0.58879417
0.09003174 -0.22739175 0.05462585
-0.03502800 -0.02334430 -0.63973123
-0.09501623 -0.08711447 -0.64107347
0.00955646 0.27212453 0.26263133
-0.03511187 -0.42875326 0.02565116
-0.07818669 0.48368353 -0.30867565
-0.09934349 0.50569499 -0.22751696
0.03471777 0.14072476 -0.61858261
-0.03930117 -0.62325919 0.01653942
0.07938670 -0.22123651 -0.60055274
-0.04425451 -0.34404889 -0.67543906
-0.11423210 -0.70648026 -0.61821419
-0.12144544 0.39163277 -0.11339149
-0.00129610 -0.39968702 -0.72560233
-0.14918095 0.00852140 0.10526389
-0.08424295 0.15900271 0.28060794
0.07122022 0.27958441 0.21689801
-0.06291673 0.53147429 0.39436567
0.01210259 -0.12033157 -0.60901350
-0.07102221 0.50601697 -0.29732910
0.09580205 -0.75026965 0.01316885
0.03073198 -0.29451922 -0.66330224
-0.00716462 0.15738279 -0.60296845
-0.13390298 -0.05895426 0.02421198
0.05402531 0.27862778 0.43710294
-0.22686094 0.15963049 -0.15081942
0.01657362 -0.03150737 0.15425704
0.19716372 0.12433060 -0.09365591
-0.14444403 0.40020138 -0.22252032
-0.07978328 -0.10942185 -0.50519931
-0.16133289 -0.01062942 -0.58516043
0.15806323 -0.01704134 -0.53902489
-0.22315340 0.17491080 -0.13954303
0.04004632 -0.26092184 0.04839000
-0.14947276 0.30869672 -0.03274064
-0.17568038 0.02753942 -0.22500475
0.04150138 0.61827248 0.45218751
-0.03407302 0.16487297 -0.62790585
0.17410064 0.21021113 -0.29545778
0.13069899 -0.05396222 -0.47021586
0.10390525 0.45244169 -0.21487549
0.13879871 0.23292172 0.14165738
-0.02890842 0.50150120 0.61129504
-0.08343142 0.00824112 -0.33654696
-0.00296677 0.10977413 -0.57303065
-0.03937132 -0.05816867 -0.55209035
-0.11640574 0.32018912 -0.48487496
0.00756445 0.39246061 0.14307916
-0.08253423 -0.75436050 -0.62926334
0.17761327 0.09331490 0.03831159
0.07005781 0.17697912 0.31391907
0.02018258 0.14367171 0.37943164
-0.15081561 0.01413380 0.00305893
-0.17139326 0.06082763 -0.29833403
-0.05917067 0.50207263 0.37946150
-0.09920296 0.34286439 -0.45747307
-0.07100124 0.57845145 0.52500570
-0.15968159 0.16486491 0.15514761
0.15724322 0.14746100 0.13237493
0.04887979 0.47585630 0.40878719
0.12977362 0.27837270 0.05911011
-0.01978833 0.31420606 0.33862454
-0.05025038 0.62054127 0.51614958
-0.08642534 -0.27680743 0.04272157
-0.08793575 0.51573581 0.46674955
-0.08831949 -0.73459023 -0.61219203
0.04190062 -0.21312127 0.01069638
0.06538755 -0.28020042 -0.00840395
-0.10885280 0.31078660 0.17121096
-0.00255255 0.52631283 -0.31284055
-0.00772785 0.27840534 0.28831014
-0.03093517 -0.03039906 -0.31687257
-0.07287068 0.54570496 0.40112996
-0.09267113 0.07657272 -0.61648351
0.04295447 0.42056829 0.39590955
0.01849700 0.42744058 0.07997841
0.06331366 -0.71702522 0.03075365
-0.12110014 -0.03259269 -0.02277607
-0.19308540 0.13976036 -0.45352721
0.04773060 0.35006019 0.38730159
-0.15260842 -0.00088184 0.09246372
-0.13226415 -0.73635161 -0.65313560
-0.08166727 -0.68534499 0.00621495
-0.16543674 -0.73536676 -0.59031606
-0.13951541 0.11210252 -0.58444238
-0.01365830 0.01379900 -0.67576903
0.00677691 0.32419226 0.20830344
0.06966655 0.37871030 0.02235794
-0.02033111 0.08267023 0.30121469
-0.05488538 -0.05816393 -0.07980381
0.01553839 0.59575576 0.62225699
-0.05906737 0.30685559 0.47885287
-0.02815749 -0.05314130 -0.12677205
-0.05829386 0.28158382 0.22625872
-0.17120168 0.08070281 0.11296524
0.00201277 0.44721457 -0.06366555
-0.15053691 -0.75077009 -0.60322976
-0.18079750 0.12806055 -0.37105626
0.01755337 0.47966909 -0.08679269
-0.15931229 0.12017168 0.14380153
-0.04567916 -0.09281644 -0.55755717
-0.13895305 0.37349519 -0.14519393
-0.09426921 0.05993699 -0.39384013
0.11387432 0.19235744 0.21766746
0.13457771 -0.04918358 0.07267440
0.06234913 -0.16319102 -0.65993303
-0.00234194 -0.06148243 -0.11941142
-0.03020854 -0.06382680 0.06587612
-0.05009109 -0.04028511 -0.53344297
-0.18531300 0.16881377 0.06657586
-0.13086650 0.38975003 -0.13470528
0.17066155 0.07054310 -0.48881230
-0.01813671 0.45658845 0.49304068
0.11668447 0.38638914 -0.13068686
-0.08855803 0.29675668 0.20578411
0.04458475 -0.07348965 -0.63776386
0.03491066 0.57160401 0.59524196
-0.01946858 -0.33001590 -0.66392767
0.03580180 0.29964304 0.49028599
0.20116945 0.20821956 -0.22471045
0.15438968 -0.75502366 -0.59395248
-0.06370388 -0.04147993 -0.25721490
0.10676016 -0.05938759 -0.45982957
0.02265049 0.47311395 0.48715937
-0.08642592 -0.31787148 0.01521265
-0.00502217 0.48458618 0.67478603
0.14996259 0.06379420 0.11871657
0.16440174 0.05416611 -0.25707835
-0.00647698 -0.00180722 -0.59882081
0.01777759 -0.43186420 -0.69270575
0.04123153 0.53040951 0.37319311
0.04781292 -0.08293162 -0.51816779
0.05665600 -0.05346419 -0.17536859
-0.06480133 -0.60986251 -0.67559749
0.13906695 0.15557832 0.16788273
0.02888573 0.31053066 0.20196936
0.03572945 -0.56702405 -0.67192787
-0.07786340 -0.04069693 0.12658240
0.03503245 -0.68222851 0.04618076
0.07496624 -0.76470488 -0.56953108
-0.12913610 0.38120028 -0.11757229
-0.04063607 0.29005837 0.32206902
-0.06050690 0.41349131 -0.02428575
0.16879787 0.04742794 -0.48102626
-0.00930576 -0.05094371 -0.09773799
-0.05086788 0.26302350 0.45928964
-0.00312880 -0.04618399 0.11090025
-0.12813836 -0.68306988 -0.64697450
-0.09598917 0.36978605 0.08249774
-0.06017529 -0.12355155 -0.54226536
-0.06558769 0.45901048 0.38540679
0.04451161 0.57387561 0.57958901
0.02459051 0.64089084 0.40205449
-0.07224638 -0.01713287 -0.62972957
0.06631321 0.14017440 0.29182982
-0.03995701 0.29108331 0.47844625
0.01468173 -0.09928350 -0.58992815
-0.07209128 -0.32543153 -0.72535127
0.06488115 -0.32388580 0.00116722
0.09764721 -0.60545254 -0.67696100
-0.05007286 -0.47983816 -0.67209619
-0.06162839 -0.14903980 0.03106322
-0.16934876 -0.01375128 -0.45561725
-0.06913193 -0.37869579 0.00099850
-0.04081070 0.63777137 0.44282362
-0.21647860 0.13567397 -0.10597108
-0.09677591 -0.04964430 -0.05553457
-0.01890284 0.25590116 0.48418933
0.13651584 -0.00794516 -0.11924426
0.03297857 0.49059504 -0.10672498
-0.17714137 -0.01472377 -0.48710394
-0.04230484 0.48613167 0.49241912
-0.02507941 0.62373537 0.53570127
-0.08759096 0.52166039 -0.27589613
-0.05619208 0.03787346 -0.62276870
-0.00615643 0.04816499 0.22909623
0.15384121 0.17795604 -0.53931504
0.07551695 -0.04032124 -0.18764973
0.17559937 0.06293604 0.07738364
0.08631741 -0.65109885 -0.61582142
0.11500760 0.39903009 -0.27352381
-0.10579402 -0.22148566 -0.59737372
0.03663572 -0.69511092 0.02818595
0.00946594 0.27046636 0.48532265
-0.17933467 -0.01836439 -0.50199467
0.05674580 0.41008931 -0.04249955
0.17793293 0.21591505 -0.43323401
0.10133077 0.34011340 0.02399624
-0.01269247 0.08782497 0.31626451
0.08016425 -0.16073124 -0.64924490
0.04829579 0.49112034 0.44493178
0.13957693 0.32594618 -0.29694802
-0.06184680 -0.44800097 -0.00308801
0.03704947 -0.20926335 0.06766854
-0.12356609 0.37717739 -0.09585608
0.03035543 -0.13181785 0.03520008
0.12927157 -0.75824779 -0.63223177
-0.03847689 0.41352940 0.09275540
0.02134612 -0.31909996 0.00601057
0.04753454 0.44933149 0.43969393
-0.08777117 0.18203554 0.29444218
0.15836874 -0.74295890 -0.57438314
0.00270714 -0.00822015 -0.32862553
-0.13905311 0.03224423 0.15306638
0.01209025 0.54671705 -0.20609550
0.03753804 -0.67184144 0.02020080
0.06299533 -0.64827883 -0.67917961
-0.06966918 -0.18673162 -0.57787371
-0.10958443 -0.13498646 0.10156071
0.13426453 0.27664599 0.08438095
0.20299333 0.13277932 -0.15643743
-0.03142900 -0.33765924 -0.74317425
-0.20778127 0.14116219 -0.07904267
0.18976314 0.26564720 -0.13023162
0.08554705 -0.75362098 -0.56382948
-0.03529480 -0.32772547 -0.67036581
-0.11244045 -0.67859906 -0.60646790
0.05809601 0.17719372 0.35519898
-0.09251725 -0.67905247 -0.66367388
0.03766792 -0.37922964 -0.73517990
-0.11934359 0.05880443 -0.61076146
-0.09214728 -0.26251805 -0.63227856
-0.16149125 0.01640738 0.01877164
-0.09969896 -0.26241821 0.00929286
-0.06298439 -0.43445808 -0.73161638
-0.19821964 0.06825528 -0.22406444
0.05134303 0.39353049 0.41706920
0.20708442 0.21028790 -0.13406840
-0.14121185 -0.03110247 -0.14492360
-0.06045339 0.32096642 0.45588037
0.14633669 0.32482344 -0.14922827
0.02331500 0.64546269 0.47505420
0.02657925 -0.20144829 -0.61655951
-0.20399174 0.22210699 -0.26350054
0.04701172 0.39758724 -0.37416941
-0.16624600 -0.06015866 -0.52847499
0.16427466 0.19377671 -0.31797817
-0.00094799 -0.39684573 0.03168340
-0.08005146 0.59756631 0.41060278
0.08622988 0.02411415 -0.61575294
-0.13109276 -0.12767479 0.00738439
0.02452817 -0.28126240 -0.70785862
0.13696589 0.29154477 -0.04235525
-0.07382885 -0.72085667 0.09951392
-0.17309248 0.17325976 -0.32387069
-0.17526613 0.03350706 -0.43062830
-0.05886061 -0.17661965 -0.66588515
0.00759067 -0.37766069 -0.73369533
-0.17578050 0.25031963 -0.46949291
0.06181269 0.09245847 -0.62714130
0.12642334 0.16147035 0.21566193
0.18982504 0.08255304 -0.18423250
0.18104802 0.09688181 0.05078833
0.10453358 0.29013059 0.16605970
0.13506883 -0.01778922 -0.18473396
0.09145004 -0.21187234 -0.00237120
-0.21743028 0.18676278 -0.10132042
-0.10927818 0.17479470 -0.59543729
0.12056716 0.12957707 0.21374992
0.00613067 -0.34306529 -0.67298102
0.17505191 0.22490817 -0.41459927
-0.00639398 0.47735059 -0.08957170
0.15305242 0.20489630 -0.00759163
-0.18738078 0.17602937 -0.32170090
-0.18315902 0.16078125 -0.53165650
-0.03338944 0.12937203 0.34582120
-0.16233261 0.04344328 0.10037303
-0.13054927 -0.70769829 -0.60599726
-0.07392774 -0.34099218 -0.71510422
-0.09880712 -0.04008789 -0.02409898
-0.17294006 0.12824184 -0.36036414
-0.09122244 0.22843626 0.25151214
-0.01441248 -0.39099640 0.01386387
0.18213071 0.12359406 -0.27632675
0.04201505 0.41510990 0.01607956
0.14480667 0.19484097 0.16992016
-0.00049588 0.20444915 -0.62131983
-0.08580726 0.37726071 0.06724948
0.12764452 -0.00317607 0.10288610
-0.06124343 0.27962801 0.30713674
-0.03355005 0.34081355 -0.52904242
0.16109277 0.26534590 -0.41228384
0.13872658 0.27030095 -0.00875211
-0.09569860 0.36514682 -0.39071485
0.14535241 0.20150438 -0.54014659
-0.01793879 0.03547483 -0.59372216
-0.04769707 -0.17372060 -0.62988234
-0.04862947 -0.20336498 -0.64276272
-0.03524684 -0.09153034 -0.63445258
-0.19486830 0.06922187 -0.24763681
0.03927043 -0.04379068 -0.28026146
0.14571388 0.31973350 -0.30627298
-0.12175880 -0.75009567 -0.53973585
-0.16697949 0.09773244 -0.32793215
-0.03897904 0.61737305 0.34681487
0.12776180 0.17550276 -0.57033551
0.06614178 -0.74997610 0.10818897
0.19164316 0.13485108 -0.05905709
0.04745322 -0.00537367 -0.61540729
0.05658216 -0.03842760 -0.62363100
-0.06152500 0.49412000 0.39981428
-0.10951248 0.47462398 -0.28044233
-0.08193635 -0.24404369 -0.62002254
0.05130353 -0.17083272 -0.56286871
-0.09112500 0.19737020 0.28746107
-0.15312287 0.05446415 -0.31277204
-0.09786647 -0.05961670 -0.46349934
0.11560620 0.32834637 -0.02407025
0.04188245 -0.42569804 -0.69552505
0.10049617 0.04012335 -0.34174237
-0.01971774 0.43962499 -0.36908999
-0.04774538 0.31505805 -0.55402935
-0.09513097 -0.75276428 0.11269896
-0.06948758 -0.75103647 0.02973242
0.02254473 -0.40712309 -0.04461687
-0.15326352 -0.75227451 0.11585882
-0.05118585 -0.19206768 -0.64111745
0.05717441 -0.22701308 -0.01575850
-0.10684029 0.32128826 0.14680672
0.08066937 -0.14711320 -0.52612311
0.06184491 -0.02099236 -0.28728932
-0.03718901 -0.07506494 -0.56409097
-0.08712510 0.53168279 0.45271698
-0.12526469 -0.04190246 -0.60813183
-0.07228357 0.18702157 0.36538523
-0.15217531 0.31119391 -0.07566487
0.02672589 0.08721168 -0.45250922
-0.03347801 -0.36327919 -0.73458833
-0.03924141 0.25603893 -0.60969198
0.19751927 0.08310091 -0.15986271
-0.09788989 0.60260761 0.34116057
-0.00164673 -0.02095722 0.17290401
-0.14585111 0.17252371 -0.56854910
0.02602887 -0.67274916 0.05082332
0.04882928 -0.71161485 0.08074506
-0.05171402 -0.07030253 0.10544151
0.10942633 0.04482532 -0.35673103
0.05625552 -0.75031281 0.09318645
0.06005918 0.62194258 0.48344654
0.16435440 0.09027892 -0.44500625
0.16577171 0.03966008 -0.23371790
0.02501237 0.45324439 0.47925174
0.05960372 0.50134236 -0.15660195
-0.01487551 0.43291083 0.07361101
0.01818956 0.44266349 -0.35824591
0.08234029 0.17251745 -0.61186796
0.15471317 0.29463321 -0.32742020
-0.04797228 -0.20248912 0.02446555
-0.11851296 -0.75020003 -0.55922318
0.17730339 0.25739202 -0.09088212
-0.00441021 0.52568930 -0.13669924
0.04310117 -0.44937143 -0.01672478
0.17579629 0.04812496 -0.10582966
-0.05915273 0.32463217 0.47926408
-0.11438169 -0.05796295 -0.61906415
-0.04272017 0.41770038 -0.38189054
0.13002361 -0.10219793 -0.49808595
0.03925348 -0.04747782 -0.21656407
-0.19685960 0.27960944 -0.22255009
-0.06225711 0.53993583 0.62575966
0.05351467 0.50788295 0.46294948
-0.16470790 0.10050562 -0.57374424
-0.08656435 0.40205887 -0.04410318
-0.09813158 -0.26715446 -0.00928535
-0.18160251 0.24958760 -0.43103203
-0.10591547 0.36769974 -0.34531838
0.15529582 0.21589750 0.00294688
-0.18926805 0.10794163 -0.29057220
-0.00709461 0.33644119 0.20544520
0.09338918 -0.75007153 0.07777775
-0.17074469 0.13029020 -0.54885221
-0.14976147 0.22258699 0.19117497
0.01376095 0.50696492 0.63769561
0.11965148 0.04790801 -0.34369013
-0.09524688 -0.19533786 0.07497362
-0.08356404 -0.61873412 -0.62352383
-0.03038466 0.28237972 0.27210069
-0.19392554 0.04530722 -0.08824823
0.00669306 0.47086632 0.49937779
0.03004259 -0.41940677 -0.72141469
0.15078123 0.32075474 -0.21736957
0.20582807 0.18073858 -0.22981773
-0.00569565 -0.37173161 -0.73906898
0.15653396 -0.75682396 -0.54644132
0.07064587 0.20374987 0.33460876
0.12463280 0.05983729 -0.60107613
-0.08897721 0.20889613 0.29263672
0.01194804 0.50506663 -0.10671067
0.08606353 -0.21248181 -0.63534015
0.13647634 0.10084775 -0.36665058
-0.05608778 -0.75095081 0.06459621
0.15600730 0.04996929 -0.55582488
0.13755989 0.01747262 0.10138357
0.05140196 -0.01706607 -0.48198774
0.08106154 -0.05169796 -0.14114547
0.09890555 -0.63582009 -0.67983359
-0.02676487 0.42437503 0.01396694
-0.06340614 0.34618747 0.18138781
0.07646476 -0.70448577 0.02035420
0.04100559 -0.13445282 0.08564677
0.04432416 -0.27133769 0.05714738
0.19083698 0.23903424 -0.09982838
-0.17935842 0.03465335 0.03552599
-0.03652680 -0.38910145 -0.03087872
-0.00894200 0.10821268 -0.51410687
-0.06493857 -0.09543741 0.09178409
-0.06424455 0.49353510 0.41324407
-0.11973277 -0.06577401 -0.45574448
-0.02626229 0.64095491 0.38229275
0.13417979 -0.01036237 0.03183864
-0.01410355 0.19677982 0.44729099
-0.02664109 0.52163815 0.65542799
0.04483220 -0.56283277 -0.00711447
-0.00798308 0.63049513 0.37797979
-0.14285718 -0.02089346 -0.17802235
-0.17335871 0.27436107 -0.05645699
0.16918811 -0.76445919 -0.53402299
0.04822556 -0.62840754 -0.63093311
-0.00488056 0.01836651 -0.66115081
-0.10378698 -0.04905974 -0.00723985
0.06724514 -0.70755768 -0.61168015
0.18504512 0.26827240 -0.11607058
-0.05437193 0.51960617 -0.29578468
0.06858759 -0.64106655 0.03578283
-0.17584564 0.26542112 -0.38398489
-0.13972108 -0.03142541 -0.18369761
0.03098579 0.63742131 0.41730985
0.03273729 0.19515553 -0.62351006
-0.05868426 0.62581521 0.39004004
0.04953540 -0.04275283 -0.05616581
0.08438552 -0.23113111 0.00698311
-0.10829888 0.48356318 -0.21063308
0.20492776 0.16819251 -0.24984615
-0.09835488 0.31069669 0.17907417
-0.06465027 0.09160075 -0.61730486
0.08861925 -0.26123691 0.02877432
0.11557769 -0.71651620 -0.65277487
-0.14895287 0.13641419 0.17017686
0.14115155 0.26133680 0.02824853
-0.14676625 -0.72818244 -0.62344867
-0.06206376 -0.37158957 0.02241327
-0.17969805 0.18508764 0.05093680
0.20568264 0.18900438 -0.18146399
0.04274104 -0.08339991 0.02817173
-0.01659139 -0.31162912 -0.69392878
0.04379932 -0.61683232 -0.62831771
-0.04856580 -0.02206777 -0.52199417
0.16687599 0.04403561 -0.08016544
-0.08301262 0.23953649 0.26035976
-0.11576439 -0.01599014 -0.43485197
-0.12217458 -0.04477779 0.01346236
-0.05345361 -0.61692148 -0.66100270
-0.13144711 0.17527831 -0.58265781
0.17366256 0.15619275 0.04672211
0.04708225 -0.22615510 0.06793618
-0.04775781 -0.03651824 -0.61408073
-0.09196788 -0.59591901 0.00981017
0.07066840 -0.25223440 -0.64797240
-0.06030805 -0.70145810 0.02361475
-0.14643885 0.33975023 -0.09322933
0.01608377 0.53073287 -0.16140401
0.13672633 0.26932454 -0.50222015
0.08237325 0.50693500 -0.25620586
-0.03102594 -0.46591932 -0.02308876
-0.14049841 0.34271273 -0.30952844
-0.05453637 0.45772791 -0.07516826
-0.10416214 0.06053766 -0.40755337
0.00707869 -0.34919694 -0.01519336
-0.21216090 0.15241499 -0.07088113
0.19128543 0.10608564 -0.07833905
-0.07696326 -0.72248012 0.00590747
0.11255911 -0.66103053 -0.66740298
-0.08364952 0.39492539 0.05629065
-0.07359132 -0.56204981 -0.65559512
-0.05174303 0.09774350 -0.45674634
0.03823503 -0.34674537 -0.73624945
-0.01743149 0.50385666 0.34423056
-0.14258507 -0.00196030 -0.02195447
0.02449626 0.22366950 -0.60646409
-0.06494939 -0.05410343 -0.10569288
0.05842711 -0.25564533 0.04858463
0.09484762 0.31431445 0.13676728
0.04799829 -0.56014633 -0.01902679
0.17794108 0.21795762 -0.04298573
0.02599802 0.10588966 -0.63054621
0.03675945 0.00217406 -0.33493415
-0.04226592 0.23887947 -0.61016709
0.04591204 -0.06053426 -0.14116916
-0.13461217 -0.16704001 -0.58813441
-0.05802945 -0.15808693 -0.64522845
0.18578535 0.11106880 -0.05924451
0.04588325 -0.03427525 -0.29142135
0.05662302 -0.15680023 -0.00645600
-0.13752219 -0.14081606 -0.54143298
-0.07898651 -0.30153477 -0.64732313
-0.04586254 0.36317083 -0.48752895
-0.05976031 0.51866621 0.58270174
0.00566920 -0.41172844 -0.70764595
0.05477436 0.63408065 0.47955614
-0.12169574 0.44527563 -0.21458533
-0.03105609 0.14889045 -0.62388736
-0.06233077 -0.18194723 0.07276542
0.09909230 -0.17970534 -0.57515776
0.17626314 0.11311239 0.03577013
0.00558128 -0.06499758 -0.19927879
0.02806929 0.50337893 0.35366696
0.13561974 -0.07893053 -0.48568836
0.05097008 -0.13203967 -0.54054910
0.12379009 -0.73580068 -0.57553285
0.08982141 -0.16219020 -0.55257457
-0.17076384 0.27548882 -0.46931353
0.19686161 0.14680815 -0.07052858
-0.13754733 0.36630630 -0.30083284
-0.18916853 0.08326049 -0.51082087
-0.12703864 -0.03692620 -0.13997479
-0.16663720 0.14691238 0.14499129
-0.17558186 -0.02491854 -0.52558428
0.07666372 -0.72541511 0.11323860
-0.08870933 -0.76196414 -0.58875895
-0.04435005 0.08845018 -0.47980958
-0.10642224 0.20980042 -0.58563900
-0.13802744 0.16970812 0.21579117
0.00041999 0.44074586 0.49824077
-0.07713916 -0.07825730 -0.00158580
0.00526996 -0.32178923 -0.66955251
0.17824163 0.28785723 -0.20528539
-0.18485342 0.06929973 -0.01107930
-0.20239586 0.12102002 -0.05218978
0.04276415 -0.34813023 0.02993330
0.05890840 -0.74670404 0.12947196
0.03256873 -0.16816905 -0.58613431
0.12302042 -0.00775862 -0.41835076
0.13410296 0.04059117 -0.42448232
0.19878073 0.09801657 -0.19387785
0.03911462 0.39660361 0.11046323
0.15242288 0.32346502 -0.18657380
0.09801313 -0.00232997 -0.42665121
-0.20975836 0.09510946 -0.07194541
0.13302690 0.28970522 -0.47853094
0.00548701 0.17396601 -0.62281036
-0.18340096 0.01604701 -0.48015305
-0.16362752 -0.00651379 -0.17731476
-0.02801868 0.43072507 -0.04914792
-0.17172091 0.13782169 -0.33024821
0.03626022 -0.14796826 -0.57418197
0.08156543 0.06787616 0.20409438
0.04779197 0.06301492 0.23128751
0.05566211 -0.04711385 0.11500330
0.07685719 0.18869954 -0.60391504
-0.11918534 -0.02898843 0.12206410
-0.06652261 0.27032831 0.30520731
-0.13200562 0.02665332 0.14541551
-0.03383733 0.34386298 0.19623680
-0.08059298 -0.30226663 -0.67580998
0.01482017 -0.05703407 0.08769497
0.03565148 -0.18067890 0.07569069
-0.06753983 0.02771880 -0.62323570
0.02869352 0.24583402 0.46092331
0.09401030 0.38405019 -0.09779761
-0.11223362 -0.09302709 -0.00140051
-0.22357090 0.19556366 -0.18469617
0.17784925 0.12041178 -0.44477874
-0.11975092 0.46180159 -0.22207788
-0.05309379 -0.27314645 -0.71237385
0.02358558 0.37588644 0.48676729
-0.01668308 0.03485752 -0.37880707
-0.15126263 0.29107365 -0.02520707
0.14376996 -0.01523634 -0.57127374
-0.11601362 0.30801034 0.16105586
0.09922995 0.22601989 0.21872228
-0.02702324 0.44487721 0.35901535
-0.01773405 -0.38021857 -0.69073439
0.04486638 -0.36200601 -0.73170716
-0.00794275 0.29530033 0.50002319
-0.03375850 -0.31572720 -0.73619473
0.10534894 -0.11686388 -0.50188291
-0.17720722 0.02254725 -0.44773725
0.02031282 0.36587086 0.50109309
0.03466049 0.45752376 -0.09049527
-0.07442887 -0.19453351 -0.67748898
-0.11835814 -0.12690508 -0.57213634
0.19205102 0.13900357 -0.26269478
-0.12264374 -0.03522892 -0.09210093
0.17206585 0.24480247 -0.07302006
-0.07576155 -0.21515270 -0.67757845
-0.17258258 0.15690938 0.13016106
-0.13379414 0.30981457 -0.47279778
0.13223207 -0.05120515 0.03931943
-0.06289873 -0.56028861 -0.00645756
-0.06191263 -0.68611795 0.05364665
0.05155754 -0.03820273 -0.06602364
-0.02160702 0.46997267 0.34811825
0.01316417 0.00218726 0.18249054
-0.07775474 -0.32549277 -0.71575707
-0.07023878 0.05023618 0.20778522
0.04431466 -0.31218773 -0.73477453
0.12105776 -0.66654652 -0.64312899
0.16591309 0.06391229 -0.27477300
0.00343122 -0.34724760 -0.71852195
0.06221454 0.37042677 0.11549564
0.11921760 0.30047527 0.07440747
0.08655626 -0.67237836 0.00684446
-0.06431510 0.13919100 0.31903994
-0.11285575 0.24945185 0.21045230
-0.02776873 -0.58098203 0.00386097
-0.05550610 0.48304302 -0.10572955
0.17259020 0.08363825 0.02588396
-0.05616958 -0.04846922 -0.27479184
0.06524058 0.36245847 -0.43709666
-0.05473578 -0.05944320 -0.20816153
0.02914444 0.50401747 0.49895620
-0.14125741 0.01003702 -0.28773177
0.05763691 -0.61197096 -0.63644367
-0.06360050 0.44651055 0.42567167
-0.04105531 -0.34295070 -0.00402818
0.04447892 -0.29094473 0.04902147
0.00950531 -0.03729802 -0.01773939
-0.08624986 0.23736089 0.29358920
-0.00896390 0.37585917 0.36912403
-0.09373535 -0.35095999 -0.67047346
0.09426432 0.35146189 -0.03293839
0.05743406 -0.68129545 -0.59961647
-0.19468662 0.26380935 -0.09227129
0.05595762 0.29015854 0.37536648
-0.07223260 -0.11657558 -0.65344614
0.03069282 0.27535531 0.47594798
0.13814639 -0.75727695 0.09252534
0.09176752 0.36101481 0.03640384
-0.17993489 0.01941101 -0.51237881
0.05028748 0.28888297 0.35467544
0.16821115 0.03536764 -0.10361926
-0.11200668 0.36310905 -0.05113399
0.15821964 0.27505240 -0.38117114
0.03261440 -0.08670710 -0.63530940
0.15277809 0.30894610 -0.14007592
0.16742074 0.09303221 -0.42677099
0.07687084 -0.59171349 -0.68441957
-0.03961410 0.42888945 0.06832656
0.05143356 0.31087825 0.44027829
0.02252971 0.50702137 0.61874664
-0.18820873 0.23225150 -0.38334209
0.03391387 0.35405818 0.36149266
0.03039808 -0.26656151 0.00139156
0.16516216 0.28971696 -0.26766646
0.05238968 0.61195803 0.36845267
-0.11615285 0.46183670 -0.26631778
-0.07691076 0.02499699 -0.36234763
-0.15194438 -0.73674762 -0.59049582
-0.06650708 0.08074537 0.22632754
0.04081449 0.27404475 0.45923996
-0.04332486 0.54736400 -0.27329257
0.01780063 0.63993460 0.44324166
-0.04969289 -0.02326406 -0.63462257
-0.20668022 0.25420117 -0.21519642
0.12590946 0.17302679 0.21796036
0.10377317 0.33400375 -0.42166394
-0.20080079 0.09416489 -0.25242996
-0.18183784 0.23743147 -0.33763710
-0.08405622 0.39211985 -0.02435334
-0.00510642 0.54151183 -0.29283994
-0.07668967 -0.24643815 -0.64593935
0.19634794 0.21750432 -0.23533164
0.16744889 0.04604046 -0.46249256
-0.13173574 0.34696379 -0.34910497
0.01736891 0.01748126 -0.55033857
-0.08144547 -0.16466427 -0.55560321
0.04932771 0.53558522 -0.20073883
0.05499630 0.50188744 0.41858342
0.03881820 -0.22629879 0.00383307
0.07932499 0.28823358 0.19627038
0.02903747 -0.62574804 0.03057607
0.00857631 -0.31926975 -0.69929951
-0.03377810 0.39745343 0.13582917
-0.03099027 -0.00858397 -0.33170000
0.15832749 0.12395990 0.00122764
-0.07940418 0.60721064 0.33456719
0.05105181 -0.73586833 0.07279323
-0.13640642 -0.07941270 0.08901297
-0.12431902 -0.17248082 -0.57643050
-0.13604014 0.15710507 -0.57879055
-0.02786096 0.35922125 0.35964566
0.17477317 0.13964440 0.03620466
-0.11208099 0.00222430 0.14318916
0.02437547 0.60390615 0.34390539
-0.17629898 0.18226883 -0.53636950
-0.10563682 0.36617568 -0.37329757
0.06199681 0.31630254 0.17906283
0.04531038 -0.75164282 0.08522456
-0.13429040 -0.01103178 -0.04234885
0.03092897 -0.30856606 -0.01851723
0.03392560 -0.49019420 -0.01255445
-0.07386604 0.03808848 -0.38317063
-0.12822688 -0.16500962 -0.59944212
-0.18235987 0.15828906 -0.35475755
-0.06392180 0.28029665 0.32379192
-0.19334860 0.12229280 -0.03902799
0.10307330 -0.09190715 0.00733704
-0.12906313 0.18925707 0.22455680
-0.14941242 0.14478211 -0.57674855
0.14569214 0.29132760 -0.37372741
-0.03038567 0.59624314 0.63889384
0.01523522 0.01271269 -0.60961407
0.03433610 -0.53862345 -0.66978508
-0.11576921 0.39430100 -0.31188244
-0.20532766 0.13869554 -0.05552525
-0.20968118 0.17926937 -0.06573142
0.08638800 -0.04020477 -0.15029582
-0.12971073 -0.08338742 -0.48104095
-0.10510164 -0.18022263 -0.55542839
-0.06172151 -0.21839960 -0.60408044
0.05549396 -0.39444229 -0.01496028
0.00658112 0.22151145 0.46498555
0.14514975 0.11755940 -0.34054285
-0.14136399 0.20956582 -0.55932695
0.03214770 0.36940584 0.36976120
0.14717251 0.00636460 -0.09240564
-0.17699756 0.15939438 -0.32146046
0.19796118 0.10104465 -0.15113452
-0.21736550 0.08242580 -0.18368636
-0.00461841 0.64274949 0.50291562
0.02136077 0.01278210 -0.54086709
-0.14970513 -0.06604082 -0.47752431
0.07072993 0.38292474 0.08052763
0.00034898 -0.38375902 0.01451380
0.07941139 -0.00790020 -0.28636849
0.00459027 -0.45076469 0.01187962
-0.16703659 0.06101794 0.11178219
-0.10305336 0.24202675 0.23185930
-0.03028241 -0.36248910 -0.68190122
-0.07111648 -0.10068792 -0.50303388
0.05098485 0.04457977 -0.62543201
0.08658133 0.12774114 0.23420841
0.20014738 0.19382390 -0.08918801
-0.16224374 -0.75115746 0.13520430
-0.11082861 -0.07019782 -0.62283337
-0.09893204 -0.21275251 -0.58662993
0.07452064 -0.01446433 0.15314578
-0.00139992 -0.04560912 -0.27813715
-0.11821304 -0.10930780 0.00118161
-0.08641798 0.12796061 0.25766039
-0.02884019 0.04087991 -0.38074833
0.17435923 0.28837499 -0.16748841
0.10230334 -0.06021193 0.00591647
-0.15902215 0.26183444 0.08376094
-0.15405090 -0.00440033 -0.10964474
0.02922077 -0.33054906 -0.01136339
0.01496104 -0.01078244 -0.60876358
0.08162521 -0.69364285 0.02570751
0.08036391 -0.03539096 -0.06807521
-0.11830649 0.44925553 -0.15930863
-0.01764810 -0.34656948 -0.70073533
0.15946499 0.01605061 -0.14657348
0.08598372 0.46771848 -0.15762202
-0.00191244 0.45689785 0.49728179
-0.20138323 0.06203519 -0.14162099
-0.03819936 -0.31368044 -0.71654713
-0.05903464 0.46047366 -0.33841863
-0.02876642 -0.09060433 -0.62144333
0.04904559 0.49392366 -0.13010249
0.05504873 0.08085093 -0.43803662
-0.10813776 0.08112451 -0.61778849
-0.18521458 0.07967010 -0.03229958
-0.03417468 0.38473663 0.36492950
0.02046190 -0.09437437 -0.62072712
0.05618084 0.02840823 -0.45920968
0.04528349 0.03369755 0.20057026
-0.08975141 0.00469737 0.15823559
0.05587643 -0.41066304 -0.72450620
0.16650623 0.17127827 -0.37479454
-0.05275555 -0.31658781 -0.72907537
0.07923821 -0.05166228 -0.10477871
0.02195683 0.28637689 -0.58986026
-0.06299370 0.35383728 -0.49262077
-0.08082730 -0.63717240 -0.61405021
0.08602186 -0.66999006 -0.60268170
0.01509921 -0.06353979 -0.57147658
-0.06625275 0.14262837 0.32940590
0.03207286 0.22495094 0.44276926
0.03346653 -0.22104758 -0.62554342
-0.06306437 0.07163787 -0.43929577
-0.11332113 0.46958458 -0.20418803
-0.19440086 0.15970314 -0.44398272
-0.12910733 0.33620700 -0.40892562
-0.14502588 -0.74061745 0.11320004
0.16241066 0.10543562 -0.41631216
0.04469392 -0.01704979 -0.49892050
0.03850004 0.45193255 0.38435823
0.16039003 0.27540621 -0.31651300
0.09635228 -0.02075764 0.13085103
-0.01480688 -0.45454729 0.00784668
-0.04815561 -0.24792668 -0.65488738
-0.21766402 0.15542743 -0.09345577
-0.22072859 0.19568205 -0.13401827
0.03714001 0.17065398 -0.62000728
0.08550643 -0.75583011 -0.50036538
0.03868974 0.52979243 0.57985288
0.00034046 0.23828900 0.48145944
0.10735342 -0.75816435 -0.57451493
0.07323083 0.25075552 0.23774517
0.02750091 0.39072615 0.49171847
-0.08169166 -0.23136793 -0.02284992
-0.10939308 0.42194495 -0.13054346
0.05823889 -0.32007578 -0.01714678
-0.18873645 0.05097494 0.06813409
-0.00003283 0.30064881 0.32437217
0.05202137 -0.47492710 -0.69923246
0.04335307 -0.73843163 0.08104527
0.10741630 -0.09065370 -0.61837554
0.12763636 -0.01885766 -0.22136925
-0.09791902 0.02011366 -0.43101659
-0.09291518 0.50764257 -0.25851074
-0.12877066 -0.15388623 0.01615600
-0.16628441 0.34410948 -0.25692460
-0.03341048 0.10384500 -0.47235504
-0.05734827 -0.73718876 0.03653448
0.08502055 -0.72710860 -0.65065992
0.10837273 -0.75503361 0.07197081
0.00278402 -0.04005768 0.12165530
0.01635541 -0.28714147 -0.68655032
-0.06514850 0.41830778 0.45538929
0.17801978 0.17746133 -0.04282531
0.13218431 0.29596680 -0.00978506
-0.14714600 0.12386151 0.18690565
0.02142134 -0.50773406 -0.02335893
-0.05488735 0.57723093 0.53783882
-0.07099470 -0.45838088 -0.69774103
