0.70121342 -0.22579920 -0.09623870
0.19359782 0.11289669 0.06987704
-0.03644913 0.15266788 -0.22838715
-0.62549525 0.01462559 0.13221312
0.37278858 -0.11386339 -0.41989526
-0.63147515 -0.22177321 0.37298033
0.32063138 -0.10603261 -0.63739789
0.07857794 0.10676271 0.09267749
-0.38329500 -0.19543003 -0.59567863
-0.12248467 -0.14398064 -0.46694568
0.36820370 -0.03441552 -0.34561333
0.17453596 0.07762201 0.01255432
0.02896317 0.11441674 -0.27332547
-0.44265792 0.07362559 -0.36173445
0.78136450 -0.18234010 -0.47003651
0.61510563 0.00926296 -0.14952961
-0.64167029 0.01108101 0.07622135
0.19896688 0.07452177 -0.04391622
-0.14493330 0.18223810 0.22880329
0.48971960 -0.07426971 0.40851942
0.53494787 0.06126755 -0.16957586
-0.03856064 -0.15175194 -0.50069541
-0.42280480 0.10467651 -0.17730083
0.44963628 0.06844400 -0.13357504
0.17010103 -0.10810030 0.31814712
-0.36687130 0.26438981 0.00839767
0.82960922 -0.17872813 -0.43831635
0.69311529 -0.12091552 -0.11649412
-0.01892368 0.07510868 -0.26160482
0.59431261 -0.17204912 0.39627928
0.05329784 0.15374295 -0.13138467
-0.12784152 -0.20525366 0.67027420
-0.62742805 -0.01603276 -0.13280000
-0.37861723 -0.03884793 -0.44710979
-0.13230576 0.10463716 -0.46201229
0.69425750 -0.11969265 0.12040265
0.68918115 -0.10080023 0.24636936
0.32688311 0.06515786 -0.03114381
0.44588518 -0.01437265 -0.50205284
0.61932421 -0.22391695 0.55206335
-0.45180872 -0.21434623 0.33919612
0.29088864 -0.05698170 0.28585204
0.00389382 -0.22036615 0.50758821
-0.34451342 -0.02151467 -0.42216900
0.40596119 -0.06108757 -0.63818818
-0.37479398 0.23644312 0.03191124
0.25570893 -0.16314271 0.63099384
-0.17666349 0.09421043 -0.43985203
-0.27126884 0.22625749 -0.14862110
-0.60394299 -0.13157101 -0.09565239
-0.24724865 -0.21447513 0.44496596
-0.48863894 0.08243683 -0.17645633
-0.52609617 -0.18904825 0.56409883
-0.28407717 0.10664900 -0.45141819
-0.15434077 0.12701035 0.24391192
0.02686559 0.11735617 0.33131123
0.82874471 -0.15175721 0.25598150
0.17022671 0.08634427 0.09539676
-0.10786644 0.07336710 0.43745705
-0.34708628 -0.13779943 -0.47217205
0.63678551 -0.00869254 -0.31988969
-0.08299247 0.06668027 0.45143214
-0.22902179 0.08034849 -0.31238168
0.17944454 -0.21105260 -0.53783369
0.17839052 -0.13643159 0.33526021
0.33941433 0.01225147 -0.31585643
-0.42708933 -0.18344627 0.55515146
-0.79253411 -0.15403324 0.08913902
0.68445861 -0.16476913 -0.24893349
0.39848164 0.06899201 0.26941603
0.54844290 0.09164424 0.13623664
-0.61874563 -0.11861007 0.13552490
-0.02295987 0.24535847 0.12623489
0.30120742 -0.22273511 -0.44567129
0.09962010 -0.15470092 0.44417635
-0.30570853 -0.05068909 -0.47426778
0.04680000 0.09485658 0.43333012
-0.16577907 0.09981144 -0.27827632
-0.60612351 0.05856387 -0.05497826
0.36942518 0.10122743 -0.16673820
0.04665411 0.05228049 0.43895561
-0.01079053 0.06727986 -0.30034488
0.69536114 -0.17667980 -0.00902841
-0.36531207 0.27326840 0.01991084
0.12122177 0.07546054 -0.01625670
-0.05733570 0.07064846 -0.19739735
0.63478351 0.01876841 -0.22070046
0.10305315 0.07010623 -0.21493007
0.28165567 -0.13792652 -0.63163865
0.69619578 -0.21180847 -0.20729727
-0.24422440 0.06563336 0.41682199
-0.45512196 -0.15557548 -0.53916663
0.80310833 -0.22287488 0.09807360
0.14113471 0.11149642 -0.02782983
-0.34201631 -0.21519899 0.46450031
-0.65209007 0.03290552 -0.01726027
0.55810893 -0.14478822 -0.46790478
-0.45953473 0.08084654 0.30673605
-0.60250360 -0.14825696 0.32663995
0.57261068 -0.13964097 0.42387065
-0.63018215 -0.02681623 -0.11022669
-0.44177848 0.07158899 -0.22314262
-0.07159849 0.28892854 0.16221724
0.48524114 -0.20610136 0.45085937
-0.30577222 0.11147607 0.20462720
0.03841138 0.26045728 0.12323526
-0.17308661 0.06961261 0.29806340
-0.66080070 -0.19591528 0.23616983
-0.59803843 -0.22864014 -0.48155093
0.44006377 -0.15028517 0.49788657
-0.57551813 -0.14298223 0.27377215
0.76032001 -0.21615374 -0.00715979
0.09024522 -0.08629473 -0.43248692
-0.60109496 0.04123075 0.06633735
0.80731016 -0.21370143 -0.21999764
-0.30981782 -0.08149143 -0.45469132
-0.02825753 0.26118302 0.22220473
0.23470934 0.00884304 0.29049158
0.35184240 0.06851046 -0.18601251
-0.19603887 -0.09733164 -0.49261874
-0.07782611 0.11134614 -0.41209638
0.50063491 0.01514064 0.28668547
0.66308719 -0.23163110 0.44350046
0.50996518 -0.16097452 0.56872094
0.16386551 -0.15762085 0.45084137
0.29388213 -0.10224935 -0.45617908
0.04986631 -0.21791992 -0.63118029
-0.25312874 -0.21871123 -0.49081820
-0.32285613 -0.03983992 -0.47493643
0.46554375 0.09416002 -0.15931593
0.08763270 0.03116246 -0.38617024
0.03095082 0.13784331 -0.24249354
0.70056915 -0.21144462 0.07719076
-0.24245244 0.02987691 0.45113677
-0.46609554 -0.15825389 0.49647111
-0.39373118 0.07378843 0.11972077
-0.69805598 -0.14622556 0.03490108
0.12794185 0.10959751 -0.25645944
0.10544153 -0.15939058 0.51809168
-0.00351615 -0.22146890 -0.51218146
-0.56896305 0.11414500 -0.10592593
-0.36856577 -0.22095063 -0.59130388
-0.32993180 -0.21262363 -0.53250170
-0.03926495 0.08505408 0.30043402
0.30218127 0.06817424 -0.31902361
-0.52051365 -0.06659613 0.30840468
0.72759998 -0.14621827 0.31343117
0.78348583 -0.21889809 0.10511768
0.51198971 0.02306481 0.29283887
0.24465895 -0.21998927 -0.44064236
0.48109657 -0.15435120 0.53254038
-0.43277502 -0.21569341 0.53800052
-0.60902292 -0.08478224 -0.19343877
0.19535051 -0.09910657 0.34658960
0.85426837 -0.18422058 0.00894294
0.63757902 -0.00284987 -0.33229056
0.16551824 0.12421389 -0.13620813
0.55935907 -0.13570827 0.44606030
0.64478219 -0.01917164 0.09300087
-0.06460337 0.17107651 0.15472881
-0.72290277 -0.14913693 -0.08117546
0.25570184 0.18982597 0.19339286
-0.49375618 0.09417424 0.07420859
-0.12261640 0.07106724 -0.34357429
-0.65323496 -0.06580390 -0.02667798
-0.64606249 -0.10700208 0.07957593
-0.68011761 -0.15234022 0.14824256
0.51839906 0.10813212 0.05728903
-0.61011791 -0.20508447 0.06715858
-0.43030196 -0.14894378 0.42525887
0.22820479 0.08394045 0.05796446
0.08711314 -0.00395349 -0.40120995
-0.57969624 0.07019535 0.08168565
0.43175119 0.08003983 0.23237127
0.82818234 -0.21965083 0.30810824
-0.34090582 0.08620122 -0.37279668
0.35018066 0.07526400 0.05083796
-0.40362906 0.06615248 0.09227405
0.56506336 -0.14745156 -0.36651331
0.18198729 0.00305109 0.36296275
-0.48655194 0.09962106 -0.18486701
-0.41550711 -0.21924409 0.58818579
-0.57617795 -0.09484226 -0.24904934
0.39119506 0.07660675 -0.05096065
0.71248716 -0.07287116 0.11308863
-0.28637588 -0.14635897 0.47712204
0.03369714 0.29297704 0.04723399
0.21078779 -0.02598104 0.29636660
0.03243940 0.02328069 0.43292212
-0.36883974 0.15248704 -0.04315623
-0.44726124 -0.21455380 -0.57550377
-0.73667037 -0.21501297 0.18250309
0.51400173 -0.10031849 0.31447229
-0.06417789 0.08694053 -0.15981708
0.75177312 -0.15218794 -0.32496807
-0.35439029 0.07310478 0.19783282
0.40418717 0.11216062 0.13158619
-0.10303739 -0.15168521 -0.59933639
0.04262040 0.10659494 0.40677121
-0.52750307 0.11652340 -0.03970900
0.58312327 0.08976310 0.17634475
-0.34461451 -0.18124130 0.56756461
0.15572916 0.25313598 -0.16972212
0.37995619 0.07611468 0.01451107
-0.75297970 -0.22127298 -0.10550404
-0.40702444 0.11133000 0.02050597
-0.59696949 -0.17549175 0.09249531
0.47045463 -0.01358360 -0.29648837
-0.65280688 -0.21129206 0.19206274
-0.42955169 -0.04745155 0.40385726
-0.18737444 -0.15460454 0.54405195
0.69636792 -0.14438441 -0.32355937
-0.12466997 -0.11214305 -0.49379098
0.24351493 -0.00830146 -0.33181825
-0.34090364 0.28400552 -0.13942435
0.54240954 -0.20437989 0.45609188
-0.20280237 0.10803280 -0.42052808
-0.05479425 0.12584618 -0.24157965
-0.69849277 -0.22525650 -0.38714293
0.40565723 -0.10206588 0.48765293
-0.28641668 0.06803434 -0.15357985
0.18291728 0.10417425 -0.25472531
0.02906815 -0.13865228 -0.41889444
0.06662330 0.07174481 0.24248882
0.36892882 -0.12669505 0.45789567
-0.08355786 0.13262251 0.23192300
0.45103475 -0.01913933 -0.42704540
0.71460593 -0.17339340 -0.41358545
-0.57171750 -0.14868183 0.37026849
-0.39688930 0.11231273 -0.36247820
-0.46746987 0.07945862 -0.31946582
-0.07277395 -0.21617475 0.58266652
0.54656452 0.05288886 0.11513335
-0.14340819 -0.22002903 -0.58288252
0.66662401 -0.01629928 0.04731777
0.70230043 -0.08107717 0.24179137
0.59350270 -0.07566516 -0.38437292
0.09098309 0.26881224 -0.16428255
-0.07364924 0.07357583 0.10865901
-0.70634341 -0.22199854 -0.13392253
0.57084453 -0.19764645 0.44799173
0.67625856 -0.03626726 0.06611888
-0.48737574 0.10651284 0.23078117
0.04625021 0.24342301 -0.08430394
-0.62883973 -0.22000590 0.41724625
-0.53299463 -0.12989442 0.30230293
0.12338586 -0.07460554 -0.38804257
-0.39997336 -0.18759045 0.51533508
-0.08855134 -0.22314194 -0.61155939
-0.76393968 -0.20438537 -0.24841234
0.26851904 -0.14176653 -0.39623177
0.37509230 0.11901947 0.18897949
0.80538487 -0.20473939 -0.44756162
-0.20499387 0.07242601 -0.30359352
-0.37664506 0.05673411 0.07544765
-0.38694119 0.07183391 0.12625544
0.22583531 0.05600350 0.28212294
-0.68349618 -0.20564279 -0.19354957
0.74924558 -0.21668592 0.34360141
0.65884006 -0.22705865 0.41331294
0.20230295 -0.21904543 -0.37068242
0.24913271 -0.15812746 -0.42494446
0.14820102 -0.19383471 -0.52901995
0.16233574 -0.15451197 0.47895190
-0.06462382 -0.22116163 -0.54063827
0.56531799 -0.19862416 0.46362171
0.22194950 -0.22434893 -0.31860572
-0.51004487 -0.01397346 -0.30816051
-0.58767366 -0.14549269 -0.35418478
-0.14870559 0.07184468 -0.43097278
0.24376640 0.07951456 -0.00265532
0.14915183 0.08241560 0.00956718
-0.07401498 -0.03106327 -0.45821363
0.21565135 -0.15249880 0.37335396
0.20518772 -0.14202332 0.34494063
-0.07030178 0.05958505 -0.50468451
-0.63397431 -0.12881751 0.14515768
0.42808086 -0.02778237 -0.28207755
-0.29666403 0.07217017 -0.15142883
-0.23731551 -0.22497758 0.53113866
0.04656927 0.09213920 0.31978866
0.17905544 0.03891025 0.35815802
-0.58730304 -0.01041878 0.15961732
0.04229659 0.22037552 -0.11594819
0.14131252 -0.15017577 0.51011765
-0.65734893 -0.15261912 0.38766715
0.74330521 -0.21468937 -0.01248966
0.14315636 0.10390758 -0.27421510
-0.47325632 0.08575621 -0.32200038
-0.21688141 -0.11188225 0.43990031
-0.08260315 -0.15446268 0.52771080
-0.51215971 0.11881972 0.18295527
-0.57900709 -0.17164330 -0.16796251
0.14653674 -0.20706692 0.51670021
-0.00884472 0.21917236 0.11124028
-0.51851261 0.11670986 -0.18165579
0.52587932 -0.11157051 0.47567371
0.73569405 -0.16946954 -0.41353217
0.44244003 -0.15905872 0.54695976
-0.19859214 -0.08203654 -0.46672508
-0.62705910 -0.21660286 -0.36712861
-0.41778049 -0.12820040 -0.42386678
-0.00743353 0.04919671 -0.47515291
0.74862134 -0.21270567 -0.50036544
-0.20673597 0.25932831 -0.20733184
-0.46889150 -0.09690799 -0.38101959
-0.37851033 -0.15263148 0.45879453
-0.11041103 0.08475935 -0.25824982
0.19205073 0.09867732 -0.33392146
-0.27381444 0.13618654 0.13377737
0.11747638 -0.21385559 0.48298040
0.78078544 -0.15079702 -0.05417042
0.05288209 0.06097080 0.42982060
-0.55942661 -0.12892608 0.21741390
0.41360009 0.07598516 0.09330383
-0.61197186 0.03999624 -0.00538597
-0.77017450 -0.21782100 -0.29263186
0.45263717 -0.08411977 -0.60489631
0.57407993 0.05066126 0.03850219
0.71771741 -0.20264138 -0.58220190
-0.62967706 -0.06257319 -0.02902661
0.00301996 0.08090168 -0.11148766
0.08199698 -0.21810046 0.44055405
0.49092084 0.10753603 -0.00282076
0.14207403 -0.15464160 -0.35401446
-0.67245895 -0.15711644 0.13083871
0.03841496 -0.05868055 -0.43144733
0.83646846 -0.15821989 0.35644349
0.64842552 -0.21998891 -0.53768945
0.65818870 -0.22084925 -0.53452039
-0.45291510 0.07197541 0.26656878
0.11218905 0.11596580 0.30128434
0.55883884 -0.04935469 -0.56396145
0.62904853 0.01261929 -0.08853950
0.48620224 -0.15648437 0.52531666
-0.50104719 -0.21697533 -0.39731058
-0.32613257 0.15384631 0.06355219
0.49406144 0.06076149 0.27954519
0.03011154 0.27011120 -0.04202927
0.26586419 -0.14954166 -0.43653336
0.43117326 0.07365507 0.13151389
0.41398984 -0.09981097 -0.55801189
-0.37850061 -0.21581218 0.48927397
-0.37051076 -0.14065266 -0.41825858
-0.44774893 -0.15441327 0.48261228
-0.10694198 -0.20814660 0.68787819
0.46490619 0.08354837 0.16246620
0.12357476 0.06947548 0.00850190
0.12246238 -0.05319180 -0.41727203
-0.19216421 0.14885405 -0.19396187
-0.79169756 -0.21864405 -0.20086765
0.52255625 0.05689556 -0.16634673
-0.39141235 -0.19622537 -0.51830900
0.03010675 0.26690748 0.01704806
-0.31354740 0.07320426 -0.35111073
0.11233351 0.08215771 -0.09004793
-0.00985020 0.01060333 -0.48295701
0.76174206 -0.21676144 -0.41672790
-0.28441942 -0.14937492 -0.49551725
-0.23271856 0.25525719 -0.18553945
-0.66020924 -0.15172371 -0.36574641
-0.33033121 -0.18757552 0.53963470
-0.03283623 0.30011013 -0.16278768
-0.69795442 -0.21412194 0.36587489
0.06082098 -0.10041597 -0.45074743
0.68612546 -0.12830831 -0.32930085
0.07807373 -0.21802258 -0.40851563
0.41076678 -0.21739548 0.46251696
0.64124572 -0.10530548 -0.33178693
0.69969869 -0.21324250 0.11363375
0.43641311 0.10925370 -0.09855403
0.31983951 -0.21201092 -0.31337160
-0.56710243 0.00550460 0.27309340
0.21245858 -0.15095645 -0.47858387
-0.23565003 0.03006610 0.47871572
0.18458194 0.00244364 0.30368662
-0.41761491 -0.16129735 0.48825502
-0.31512421 0.05355448 0.44767720
0.11116321 -0.00853034 -0.38152087
-0.05833024 0.21880271 -0.23019534
-0.22666954 0.25507885 -0.17952956
0.02464144 -0.19555165 0.41505519
0.52878302 0.09145846 0.19800296
0.48091951 0.06608709 -0.01990720
-0.07395995 -0.15017514 0.59302545
-0.28172037 0.10377575 -0.21807836
0.20144662 -0.02593780 -0.34581530
-0.12939048 0.06920573 -0.29044011
0.57774842 -0.02793214 0.28387678
-0.75112861 -0.22378108 -0.00664786
0.37473217 0.07377405 0.22287922
0.12923767 -0.21721229 -0.62479836
-0.16106211 -0.15402246 -0.60000873
-0.22609867 0.07535899 0.30362031
-0.39936471 0.07341592 0.16906770
-0.46806309 -0.02054995 0.38691789
0.73189741 -0.18669139 0.42085624
-0.48593342 -0.01533350 0.31704113
0.05135114 0.22991373 -0.10859801
0.77565217 -0.14743266 0.04736729
0.14755377 0.17544816 0.22900243
0.69449949 -0.17839880 -0.61014521
0.32881832 -0.14945132 0.39049062
-0.27688804 -0.14858162 0.58549595
-0.05582073 0.05998617 0.44097084
-0.20092268 -0.22168589 0.65182376
-0.36027372 -0.15957670 0.48393762
0.35181239 -0.01146329 -0.31055948
0.55760276 -0.04274751 0.32774729
-0.26012379 0.09222570 -0.27070341
-0.42753059 -0.13805974 0.36751333
-0.28721455 -0.07573973 -0.46526212
-0.14178172 -0.18883018 -0.45720297
-0.11696009 -0.03456446 0.48630512
-0.49461079 0.10603116 0.20644887
-0.26209715 -0.17545912 -0.63903421
0.28031251 -0.13581382 -0.52082503
0.63626349 -0.15389255 0.56498545
-0.61260527 -0.09501527 0.05008875
0.56129700 -0.13173360 0.49374649
0.55892789 0.04607543 -0.04273147
0.53480524 -0.11023328 -0.56120908
-0.41496703 -0.06378921 -0.43212605
-0.34867260 0.21814363 0.04722186
0.27566576 -0.20172636 0.28586334
0.61440319 -0.03465464 -0.32932362
0.68121189 -0.16532971 0.57478458
-0.50438869 -0.07397532 0.35260808
-0.15455920 -0.05647401 0.44998553
-0.51476622 0.11220110 -0.07323480
0.55961043 -0.13931397 -0.52213055
-0.48577178 0.07268144 0.03205333
-0.52471513 -0.02661833 0.32097238
-0.29880902 0.11806753 -0.34451672
0.48879665 0.00351850 0.28530449
-0.16318953 0.21952900 0.22802535
0.45729604 0.07678831 0.10154410
-0.49983740 -0.14571933 0.30769745
-0.31300643 -0.17728575 0.41417629
-0.64906156 -0.15224323 -0.34435207
-0.15643509 -0.22022548 -0.48296160
-0.44319496 -0.15000726 0.56917721
-0.52434748 -0.04388111 0.31261858
0.54765165 -0.12764664 -0.34330064
-0.35107386 0.00648924 0.44906276
-0.38451305 0.04744994 0.43642673
-0.28486162 0.21548450 -0.18736462
0.02061646 0.21473195 -0.06446753
-0.03047825 -0.15338947 0.52343464
-0.65364373 -0.11675067 -0.00383318
-0.35163501 0.28883350 0.02410617
0.07723440 0.06210919 -0.41787618
0.83948106 -0.16438219 0.43654105
-0.28543833 -0.05394933 0.47255552
0.20262095 0.07507906 -0.07005849
0.00946641 -0.22520778 0.42708510
0.27912715 -0.12765306 -0.51192898
0.26108652 -0.10776831 -0.29623616
-0.51165712 -0.16125450 -0.43577731
-0.64297742 -0.21338451 -0.27748901
-0.14065486 0.07458647 -0.23155427
0.56375992 0.07247040 0.16157821
0.19538164 0.07507131 -0.09843574
-0.63860416 -0.15187918 0.17076962
0.03819761 -0.21312499 0.61792713
0.80826825 -0.21842232 -0.23535237
0.26100796 -0.11280616 0.30668372
-0.61673039 -0.05499052 -0.01976116
0.69223517 -0.20790118 0.44827437
-0.28237617 -0.04755516 0.48356569
0.56084645 -0.22441930 0.46632305
0.52992576 -0.08532587 0.39029372
0.72046304 -0.16477501 0.38066497
0.63172388 0.00097932 0.14668855
-0.21380460 -0.15198527 0.53092724
-0.15037626 0.12681898 0.22456491
-0.47442916 -0.07788713 -0.34487194
-0.16319267 0.16697612 -0.22764787
0.03938321 0.06535635 -0.38067237
0.19082090 0.12253115 -0.24532932
-0.35400587 0.15734279 -0.11008836
-0.45088357 -0.21960789 0.53663599
0.63765943 -0.09782299 0.29108730
0.06832956 0.18939506 -0.02747190
-0.31184977 -0.21921480 -0.51565272
-0.75719863 -0.21608481 0.06369430
-0.31858245 0.19580139 0.15158416
0.66837192 -0.03278018 -0.15365115
0.58883905 0.08406374 0.10613327
0.40499800 0.07480223 0.21198769
0.62461013 0.01530042 0.10010002
-0.14106762 0.02472482 0.45636171
0.49826786 -0.20935571 0.60726386
0.40767059 -0.08983141 -0.63264501
-0.39364049 0.03478169 0.38945296
-0.16232288 -0.22584689 0.59374022
-0.77107936 -0.18388268 -0.28253594
0.72310072 -0.09872074 0.23407359
0.30966586 0.07353246 0.07591316
-0.34662068 0.07614232 -0.38644677
-0.37632081 0.27904391 -0.02492747
0.00006803 0.15071467 -0.10101157
0.12429245 0.17188507 -0.14973719
0.74541259 -0.21401787 0.21018697
0.43692154 0.04611969 -0.30514917
0.80535120 -0.22190258 -0.22029087
0.55546963 -0.12467076 -0.38731703
0.74790418 -0.14635621 0.03371500
0.21566583 -0.16946459 0.38580742
0.01956308 0.16515315 0.00314463
0.79072928 -0.18419808 0.55182946
-0.20690538 -0.05143526 0.45175245
-0.39346322 0.03959465 -0.38228402
0.35939983 -0.02300587 -0.34071502
-0.60565054 -0.11729981 0.08641399
-0.02099816 -0.02430463 -0.44569823
-0.42016613 0.07128917 0.38571021
0.10129195 -0.17236170 0.57307035
0.73547143 -0.14193363 -0.18025300
-0.34286016 0.29736170 0.06556363
-0.44944742 0.07565669 -0.18043861
0.31359762 -0.22820318 -0.38502371
-0.56006062 -0.16325831 0.48428637
-0.27331430 0.18527840 -0.14306463
0.66932225 0.00852524 0.29018116
-0.28009117 0.18158050 -0.17123166
-0.35135573 0.24116775 0.09912778
-0.16983698 0.08894456 -0.47929674
0.28535295 0.10568443 0.26633042
-0.20558298 0.29497606 0.17456345
-0.06213493 -0.21316242 -0.47349018
0.65434808 -0.14648521 -0.35878360
0.31926075 -0.21481249 0.39987227
-0.72139078 -0.15714103 -0.37820727
0.63283390 0.01742132 0.22749670
0.71183372 -0.05874877 -0.18658571
-0.12078123 0.24601923 -0.22260943
-0.64817089 -0.15522265 0.16559263
-0.04750663 0.11819131 -0.38885355
0.29709166 0.03341031 -0.32139131
0.25137442 -0.15700500 -0.28726983
0.23881862 0.17537598 0.22014871
0.16867714 -0.15025267 0.49918878
0.39563912 0.06325307 0.13640177
-0.68045276 -0.21898162 -0.40634298
0.58140373 -0.05275580 -0.36515450
0.69238532 -0.16023995 0.01028525
0.56441879 -0.15219319 0.45490846
-0.62532932 -0.01132214 -0.03421539
0.42628562 0.07120913 -0.11776234
0.17556128 0.07624353 0.04944437
0.33577719 0.08408612 0.13599245
0.50975740 -0.02546443 -0.39913377
0.09739033 -0.05489839 -0.42519748
0.01111642 0.07363957 0.15044300
0.44240001 -0.15068302 0.46002117
-0.11563993 0.06472258 -0.49786341
0.71754158 -0.09004304 0.25048107
0.63423347 0.01711050 0.11193886
0.59939188 -0.21467626 0.44440940
-0.25828481 0.18381792 -0.17317928
-0.34359735 0.00576846 0.41214228
0.62857902 0.00887177 0.17430973
-0.64515996 -0.18120323 -0.23015878
0.70194513 -0.13466209 -0.27122009
-0.49381554 -0.11726035 0.35452694
0.04885131 0.22752000 -0.01542898
-0.43630800 -0.14957428 -0.38376018
-0.16282584 0.08155051 -0.45930272
-0.58658648 -0.21604460 0.46988919
0.66558146 -0.02321545 0.01029114
0.19519819 -0.05036734 0.33218473
0.73124039 -0.16146323 -0.41589022
-0.26636752 0.11345686 0.37866858
0.38216138 0.09829153 0.05257114
-0.65060842 -0.21811941 -0.02653965
0.13440812 -0.08002242 0.35436544
-0.47744220 0.05375867 0.36779538
0.18623169 -0.13026890 0.30868471
0.29401270 -0.21968567 0.53359532
0.30546445 -0.15257844 0.49866962
-0.59635842 0.00709159 -0.11236262
0.12322091 -0.09253290 -0.37933990
0.75553888 -0.16189966 -0.00565274
0.69772136 -0.15222594 0.16836414
-0.34555173 0.07496835 -0.09694478
0.22862515 0.06617054 0.23020369
-0.47612569 0.10442363 -0.34093252
0.10061290 -0.18626039 -0.64576346
-0.41353548 -0.21925312 -0.59684908
0.42125100 0.07562473 0.21264574
0.11372156 0.10136290 -0.29949299
0.23416851 0.07243174 0.28188619
-0.61247128 0.07843236 0.08351166
0.74295974 -0.22166246 -0.48914832
-0.16898417 -0.21991163 -0.58475643
0.57586372 0.03669057 0.25602546
0.37752488 0.00642578 -0.29803440
0.70335436 -0.19217163 0.56694293
0.21861626 0.09057161 0.02339618
-0.46368700 -0.05195952 0.32950816
0.35367036 -0.04491549 -0.60353774
0.69715321 -0.18699487 -0.17216596
-0.39374262 -0.21970886 0.43013316
-0.34937835 0.07081769 -0.43477473
0.55373973 -0.12598623 -0.45709622
-0.28858283 0.11043964 -0.25164318
0.54982889 -0.22010648 0.51465350
0.53710723 0.02946440 -0.28455254
0.68688172 -0.17841735 -0.62563485
-0.63946217 -0.13509522 -0.06929270
-0.26636085 0.09900320 -0.45957485
-0.22599319 0.04870192 -0.45610896
-0.57358927 -0.14303282 -0.29263219
0.23929408 0.07902212 0.24702179
0.49678046 -0.09767491 -0.42404634
-0.45238608 -0.04837204 0.34408244
0.21192165 -0.21747091 0.38046694
0.65333432 -0.15896651 0.38748485
-0.08157592 -0.06249568 -0.49522841
0.29467723 -0.04150444 -0.29839796
-0.61714280 -0.21906105 0.36030605
-0.12767066 -0.22034669 0.61097032
0.42269361 -0.02721212 -0.62827826
0.46125242 -0.01405949 -0.47516134
-0.32452703 -0.06669117 0.44917849
0.07278918 -0.09913810 -0.40956485
-0.18010305 -0.15194197 0.62306356
0.06742339 0.13134982 -0.13467655
0.13809255 0.07465883 0.27344549
-0.63950765 -0.12161399 0.07874317
-0.67524838 -0.15190351 -0.05734420
-0.31771687 -0.21502316 0.56485718
0.73044395 -0.13645482 0.13790555
0.00037485 0.09463871 -0.27344826
-0.25822291 0.07313739 -0.29818669
0.45633525 -0.21156496 0.60043383
-0.17670965 -0.15489765 -0.59014124
0.53652835 -0.22408494 0.49237716
-0.28932327 -0.21765253 0.59009027
-0.64213896 -0.02425340 -0.00566261
0.13652687 0.24812248 0.22418980
0.48514485 0.08982806 -0.20584328
-0.01473747 0.30337769 -0.21030588
-0.08063757 0.08912607 0.32412028
-0.58948177 0.00799334 0.20685846
0.15283564 0.14408097 0.22709563
0.18703118 -0.22011566 -0.47234744
0.52697647 0.09146929 0.05441011
0.61094892 0.02040372 -0.33592227
-0.46815905 -0.20683151 -0.60247105
0.50453693 0.07737640 -0.06318601
0.79009670 -0.15445982 -0.41114137
-0.05577495 0.09217520 -0.47524142
-0.60424334 -0.22075111 -0.13807510
0.62301075 -0.22691351 0.49377674
0.46906376 -0.03762087 -0.64526260
-0.75469536 -0.15754339 0.18769839
-0.55356580 -0.14997061 -0.37482291
0.58750987 -0.01116171 0.28241819
-0.04478278 -0.06474402 -0.45979229
0.04526177 0.23990239 0.22632867
-0.56876516 -0.01054205 0.27569705
-0.04231561 -0.17176399 -0.63306361
0.42297253 0.07843103 0.27443790
0.82565928 -0.15976129 0.06677236
0.35638559 0.04375812 -0.33346102
-0.23337260 -0.21790212 -0.59242052
-0.74159563 -0.22262555 0.02116426
0.19807339 -0.15550965 -0.54409218
0.31415260 0.02605092 -0.33943418
0.49589053 -0.03702888 -0.64041013
0.27222687 0.11386884 -0.12238927
-0.74236989 -0.20853126 -0.26611131
0.09437811 0.07101835 -0.26480955
-0.38890001 -0.01433129 -0.44762284
0.45210186 -0.09573083 -0.41800711
0.77334517 -0.16859585 -0.43549228
0.63533449 0.00543785 0.06058370
-0.37133083 -0.02511092 -0.44102353
-0.17213924 0.07243878 0.47682023
-0.06196155 -0.17244728 -0.63551116
-0.18305576 0.15039551 -0.23132858
-0.54397774 0.07935882 0.11583379
0.04649213 0.23588108 -0.13537122
-0.50384414 -0.15537822 0.40726462
0.50192666 0.06840317 0.24338974
0.68572390 -0.14480719 -0.28315264
0.30162707 -0.09179224 -0.38048661
0.01167094 0.07465722 0.25972858
0.05540077 0.29876861 0.20153570
0.04126996 0.02789999 -0.45520481
-0.06679073 0.11242603 -0.35856253
-0.15431623 0.20557785 0.21581696
0.63974500 -0.15112716 0.42167783
-0.18590716 0.08618040 0.17422540
0.50431049 -0.09547892 -0.47851509
-0.36998737 0.02552920 0.44338590
-0.01685715 0.08259103 0.24697861
0.01730843 0.22121529 0.06930533
0.16594487 -0.20914879 0.51980257
0.43679094 0.07110287 0.11092257
0.20466839 0.18877122 -0.15342836
0.41662696 0.08556272 0.29193649
0.65832329 -0.15316051 0.46692875
0.24119969 -0.14871567 0.34557503
0.18005368 -0.21875212 -0.44471258
0.30012989 0.15668657 0.16597414
0.59968650 0.02277390 0.09022344
0.13360435 -0.16937980 -0.64003175
-0.65216941 -0.11800958 0.03678333
0.03247840 0.21124366 -0.01521363
-0.29229456 0.09645879 0.36306882
-0.58187753 -0.15274765 0.35515475
0.61618501 0.00245100 -0.33521944
0.56578571 -0.21527299 0.49056819
0.12213095 0.07865411 -0.28298447
0.37099308 -0.10192405 -0.30208758
0.67355567 -0.13694148 0.28585950
-0.45450383 0.05884463 -0.39306235
-0.22001143 0.26879030 0.16814880
0.69117624 -0.21535650 0.56835735
-0.71472448 -0.15463383 0.33362201
-0.36712286 0.04654042 -0.41833529
-0.28524837 0.11679289 0.20866379
-0.54883587 -0.15715130 -0.55023402
-0.13816084 -0.22245225 0.55977368
-0.57354385 -0.22409731 -0.27496850
-0.51367962 0.01026824 0.28346634
0.50531107 -0.06239665 -0.63742328
0.24286997 -0.07970338 -0.30131209
-0.31147432 0.25474122 -0.09425851
0.30036306 0.06961769 0.22531353
0.31970695 0.03032810 -0.33237651
0.58784020 -0.15289797 0.56880742
-0.46284473 0.03494182 -0.35114625
-0.64212608 -0.08982818 -0.06326073
-0.71047974 -0.21475029 0.05191886
-0.59900337 0.01594697 -0.14433451
-0.40498897 0.06954718 -0.07745773
0.73359829 -0.13247329 0.19751380
0.00188695 0.07242307 -0.10566251
0.57060701 0.06443097 0.29452929
0.30229491 -0.14704041 0.48035786
0.00679802 0.11705199 -0.27009490
0.07288775 0.07032561 0.26526278
0.02914729 -0.17701037 -0.64709818
0.09661382 0.07050874 -0.04774831
-0.37306702 -0.14585310 0.44478238
0.30420512 0.07136145 -0.25805762
0.57219827 -0.14539820 -0.56416869
-0.54645681 0.04056534 0.30942965
-0.57110214 -0.16098443 -0.33885923
0.68251300 -0.15788950 0.40789089
0.46029076 -0.15113012 0.51543391
0.15655927 -0.19826858 0.63302159
0.14044008 0.12297977 0.29260147
0.83537120 -0.20848992 -0.08378314
0.56182957 0.06863046 0.10462999
-0.34471786 0.23083982 -0.02137046
0.20134652 -0.19644766 -0.31990635
-0.36563829 -0.21347341 0.41912335
-0.34823188 -0.20415071 -0.53105903
-0.66634136 -0.18937419 -0.44163769
0.13746735 0.06543477 0.23869891
-0.70750421 -0.16172890 -0.39594993
0.77604395 -0.16734031 0.47717035
-0.07814892 0.06261483 0.43038714
0.33099750 -0.06923829 0.28143197
-0.77697402 -0.15371297 -0.19751488
0.75835699 -0.20991844 -0.51123768
-0.00895060 0.29971847 0.21304408
0.08135238 0.10136952 -0.39064476
0.18825093 -0.13945720 0.35284927
0.69659001 -0.22270304 0.53431046
-0.27045894 0.07260322 0.28515998
0.51872766 -0.10762343 -0.53843242
-0.32871953 0.18670030 -0.13803844
-0.16578455 -0.22636259 -0.51715052
-0.57455182 0.02607902 0.18861951
-0.27681965 -0.10694398 -0.48491001
0.23531839 -0.22435868 -0.60534132
0.35260805 -0.05489400 -0.59022731
-0.27458319 0.10609390 -0.21213701
-0.34985229 0.11590276 -0.16894126
0.66533476 -0.22289538 0.40881890
0.30920666 0.08900006 0.29695019
0.29375905 -0.22145477 0.43741578
-0.41282225 -0.22302863 -0.44329548
0.69626486 -0.20759484 0.01478187
0.39766473 -0.03078911 -0.49065399
0.52603561 -0.09951608 -0.61725795
-0.52136719 -0.11997451 -0.27530566
-0.58739555 0.10836463 0.16556410
0.12181456 0.06714633 -0.23593563
0.52068615 0.06590075 0.00024626
0.12527290 -0.18098237 0.64298445
0.68404347 -0.04764594 -0.23622009
-0.64802027 -0.16262266 0.18716308
-0.50118673 -0.22258994 -0.46263319
-0.45976990 -0.20476350 -0.59862041
0.02634295 0.07895923 0.01583910
0.62086850 0.00385143 0.18719201
-0.01268117 0.28654414 -0.12857823
0.66511196 -0.02007713 0.21493854
0.29536507 0.07191719 0.27365771
0.09431975 -0.12270960 -0.40035945
0.26963913 0.09480047 -0.30082664
-0.27755159 0.10871229 -0.26899868
-0.33589780 0.28657639 -0.12011522
0.83011359 -0.15277278 -0.18782431
-0.55805016 -0.21595755 0.25080848
-0.37813160 0.10163975 0.37635741
0.02782104 0.18077907 0.02729115
0.76691741 -0.22083467 0.51509416
0.31602204 0.08113197 -0.30565321
-0.27172470 -0.14979087 0.44113401
-0.45687509 -0.16794841 0.33800885
0.15547565 -0.14168942 0.37670308
0.66868722 -0.03727951 -0.03602952
0.56925547 -0.08413243 -0.29246506
-0.51943022 -0.22711256 -0.48592907
0.66454268 -0.04140087 -0.05990236
-0.34730271 -0.12080425 -0.42382041
-0.26719189 0.17899470 0.15094998
0.04084171 0.07411753 0.26947936
0.20109986 0.10556787 0.27044821
0.52936810 -0.07106066 -0.63458049
-0.60120893 0.03313805 0.14204088
0.64251912 0.00557709 0.22719498
-0.62080514 -0.09934539 0.12119668
0.70355058 -0.22450837 0.12200018
0.83275431 -0.21763575 -0.24005833
-0.64859754 0.02329773 0.03546115
-0.04630814 0.05033321 -0.49324584
0.22505008 0.06818265 0.01001179
0.76588809 -0.20823464 -0.51675957
-0.33203679 -0.09309922 0.44596913
0.63149434 0.00785895 0.24559948
0.12562993 0.22316848 -0.15827976
0.30599266 0.13746561 -0.15617913
0.40347269 -0.10677037 0.48141947
0.59954911 0.07164198 0.19764692
0.32563043 -0.19479381 -0.50688952
-0.54648209 0.02782353 -0.31079113
-0.13577370 0.07734720 0.26201278
0.16749191 -0.19499062 0.61199003
-0.31098154 -0.16012600 -0.53526878
0.03993075 0.06625242 0.27373579
-0.46219954 -0.21441427 -0.40735352
-0.72791058 -0.21559891 -0.27557403
0.39574116 -0.08762048 0.43066463
0.38861540 -0.07242619 0.32444209
0.84753162 -0.17951275 0.44691238
0.11207135 0.19690016 0.15751512
0.21291050 -0.06399509 -0.35391665
0.42692173 0.07524551 0.00889081
-0.43072802 0.07123800 0.28990039
0.21770397 0.00640493 0.30561426
0.05671234 0.28533340 -0.17806354
-0.23878095 0.07017870 0.37535903
-0.31675994 0.26085365 -0.11317946
0.02882240 0.24320599 -0.03700288
-0.06314676 -0.15301038 -0.45785323
0.65316266 -0.01206573 -0.01869109
0.32118854 0.07559730 0.15677717
0.02602189 0.26179895 0.22779945
-0.45959106 -0.10267471 0.33998674
-0.39387637 -0.18744442 0.63038778
0.26203257 -0.12084180 -0.29031128
0.76900065 -0.22598800 -0.31680498
0.05292363 0.18330178 -0.07440804
-0.65923250 -0.21330252 -0.21648781
0.05917336 0.18098564 -0.13488366
0.15058506 -0.21626717 -0.61455476
-0.30065671 0.03964177 0.41486314
0.00181638 0.07583965 -0.17099543
0.66375083 -0.16580518 0.28360692
0.76118070 -0.21927363 -0.06180270
0.42630303 0.08686308 0.06582673
-0.41269401 -0.20918757 -0.58900440
0.69826603 -0.16418165 -0.17939855
-0.04995038 -0.08791025 0.48398376
-0.43788218 0.10710468 0.07383765
0.53678316 -0.11259878 -0.59262520
0.32762909 -0.18970741 0.39163575
-0.39279318 -0.22153309 -0.44570827
0.01952445 0.26463252 0.07769370
0.77538115 -0.17681707 -0.43214291
0.65100414 -0.02420139 -0.08910649
0.59439218 -0.13320661 0.31100354
-0.05942818 -0.21053821 0.44326004
0.70547444 -0.21944410 -0.35242447
0.02757737 0.21683209 -0.12228851
-0.15345271 0.05623056 0.44779378
0.04934791 -0.17227714 -0.64074111
-0.24907014 0.09922628 0.41303003
0.63591683 -0.00462912 0.00466744
0.47430798 -0.08263704 0.36736605
0.13850379 -0.17896302 0.52056515
-0.67433935 -0.22495747 -0.20724325
-0.13059314 0.00418472 0.46183875
-0.26023358 -0.02236280 0.44152200
-0.76990455 -0.22011867 0.05540903
-0.60136634 -0.14870054 0.40067530
-0.40830109 0.06937253 -0.06185707
0.68404335 -0.15609612 -0.56603444
-0.58464801 0.06225199 0.18089972
0.52943802 0.03784509 0.28616738
0.64650923 -0.22181579 -0.32035300
-0.44584307 0.10010405 -0.26656240
0.08011425 0.29144356 0.22630270
-0.04591609 -0.13364208 -0.46941429
-0.61201715 -0.01883940 0.20304221
-0.09894858 -0.03193697 -0.49865550
0.61786807 0.01978554 0.01368964
0.00035301 0.30243126 0.18331063
-0.30029112 0.06046421 -0.43248504
0.15125674 -0.15278602 0.48027182
-0.61071885 -0.06200561 0.02142875
-0.35989231 0.14136595 0.10742013
0.67588711 -0.04981701 0.01280622
0.69287384 -0.14562742 0.25231910
0.32365698 -0.15428784 0.53772086
0.19966428 0.06396897 -0.27312014
-0.17889313 -0.14827193 -0.51305538
0.39520097 0.07415804 0.03432009
-0.01666974 0.13299780 -0.24472761
0.02901097 -0.21266651 -0.62944049
-0.11577874 0.27353281 -0.21211897
0.65667713 -0.01540538 -0.01145495
-0.44977358 -0.21941403 0.50768554
0.78468937 -0.15511677 0.12364351
-0.10734241 0.27301288 0.18336289
0.69628668 -0.09936672 -0.32147080
0.58216256 -0.16788284 -0.47454536
0.69258291 -0.11098413 0.09778393
-0.41349328 0.07528821 0.19211736
-0.29828992 0.04223306 -0.43530381
-0.45211634 0.10750449 0.35141298
-0.28691202 0.04998461 0.42074743
-0.16384806 -0.04901027 0.45802340
0.58899456 0.04961552 -0.06022511
-0.75655168 -0.20213476 0.25389755
0.03710248 -0.20295292 0.41843712
-0.64782667 -0.21936524 -0.27446240
-0.45557964 0.01625839 0.39789253
0.12799969 0.26298302 0.14956208
-0.03525024 0.25759846 0.14372501
0.24734655 -0.22134557 -0.41255695
0.79229981 -0.21798381 0.16854599
0.39065534 0.09615747 0.01356166
0.05288422 0.07377497 0.17920457
0.03563271 0.26331845 -0.08623428
-0.32663694 0.07377070 -0.42252168
-0.28533310 0.08284858 0.38106179
-0.35007861 0.20882493 -0.04934202
0.27924043 -0.22415984 -0.41964677
0.19957098 -0.16567557 -0.63673848
-0.14685582 0.08596854 -0.42024118
0.54362297 0.05589279 0.02392733
0.72062784 -0.10253334 0.07717912
0.29483083 -0.01958662 -0.29358506
0.79636091 -0.22293907 -0.40762424
-0.00486854 0.24752441 0.10118328
0.38944340 0.06973815 -0.12820096
-0.37673017 0.07967776 0.03044704
0.58773464 -0.06661235 -0.51744479
0.62238467 0.01441627 0.28107303
-0.28296480 0.12486917 -0.13279851
0.81151205 -0.20980391 -0.06467661
0.33643436 -0.16930059 -0.36345235
0.39976531 -0.15515022 0.58920336
0.11418581 -0.13490662 -0.45492828
-0.40787524 0.07099728 -0.21218964
0.24885052 0.05325657 0.31522912
0.83994830 -0.21365502 0.18122587
0.78059506 -0.22776675 -0.19509126
0.34371859 -0.04771498 -0.28980693
0.56301147 0.08413452 -0.26104340
-0.18716705 0.20851932 -0.21407662
0.13279906 0.07629123 -0.37154469
0.79864401 -0.22516373 -0.26236391
0.16497730 0.00935790 0.32848617
0.84417731 -0.17617632 -0.39527035
-0.66472089 -0.21242279 0.35960856
-0.18108445 0.17933138 -0.23171023
0.60281277 0.03320237 -0.21167476
0.59349436 0.07700034 -0.01090355
0.01014582 0.19969283 -0.08183660
-0.64875436 -0.09284291 0.01342502
0.02149380 -0.23012522 -0.62293398
0.60961622 -0.16058135 -0.63642442
0.07748552 0.16278392 -0.15283044
0.26342180 -0.11099790 -0.34298307
0.78382850 -0.22645271 0.11003828
0.20215461 0.06974366 -0.00107618
0.08143936 0.01352593 -0.42283359
0.20662345 0.07972473 -0.24901280
-0.18353078 -0.21749473 0.61834073
-0.46135947 -0.14982620 0.44840184
0.54047871 0.06925056 0.12797759
0.55024457 0.00449907 -0.33154061
0.15203242 0.22982705 0.14548078
0.77742708 -0.22340980 0.04628222
0.11893130 0.19981734 0.21565907
0.51242316 -0.09946162 -0.48526853
0.32977495 0.00465623 -0.34606710
-0.28692189 -0.17177819 0.43233827
0.42178860 0.09378552 -0.20873512
-0.36609143 0.06877334 0.01403840
-0.17607355 0.06980757 -0.44687885
0.35272977 -0.06378808 -0.64198250
-0.58973402 -0.05471930 0.16795945
0.36405793 0.08966923 -0.31140050
-0.27157784 0.15777168 0.16962005
-0.58928823 -0.01928794 -0.22974887
-0.36791834 -0.21999595 0.49815631
-0.18392633 0.05536436 0.44662836
-0.23585537 -0.14416504 0.59094697
0.22559179 -0.22240999 0.44246149
0.76442695 -0.20678991 -0.46334597
-0.26225761 -0.17740531 -0.44417647
-0.38916805 0.07472168 -0.30724475
-0.37536427 -0.13694005 0.39383435
-0.12190835 -0.22264132 -0.53895825
-0.03723612 0.11097949 -0.32070935
-0.21379837 0.06700245 0.31895342
-0.13349523 0.11659585 -0.18116359
0.22235022 0.08704261 -0.32849652
-0.71485972 -0.18136173 -0.17516646
0.17932053 0.23209080 0.14783393
0.02739714 0.23472868 0.12564790
-0.09685095 0.21438840 0.17022774
0.17403294 0.06462006 -0.15256728
0.81839472 -0.21661246 0.35276076
0.50389469 0.11365971 0.10295681
-0.62315750 -0.03747465 -0.12557699
0.52971327 0.02226619 -0.29505959
0.20531970 0.06870729 -0.19933271
0.73554158 -0.22075748 0.38244438
-0.39624912 0.07494268 -0.03724465
0.66511643 -0.06373399 0.26627624
0.36654434 0.08281989 0.03679445
0.67342955 -0.15071636 0.36433223
-0.76209927 -0.20553970 0.24189104
-0.14551859 -0.13258795 0.45223805
-0.39713189 0.07744686 -0.34498629
0.57104403 -0.15998401 0.57457471
-0.19509605 0.15713647 -0.23464987
0.60670966 -0.08014502 -0.29494700
-0.07930847 -0.13750041 -0.45086163
0.60974842 -0.22521970 0.46988815
-0.62003171 -0.14598989 0.35741016
0.65367991 -0.22020647 -0.49521363
0.70417637 -0.15414566 -0.53079671
0.60906583 0.01264819 0.07587931
0.84557974 -0.15905353 0.04561424
-0.36369997 0.24800977 -0.07585739
0.18854991 -0.12745646 0.33117411
-0.25489932 -0.21862328 0.43622485
-0.56191421 -0.18482506 0.20592795
-0.01414117 -0.12199140 0.44113451
-0.01881609 -0.21945646 -0.45851538
0.16817473 0.07473951 -0.23615310
0.16746213 -0.20979249 -0.51237035
0.09884716 0.07711788 0.25647044
-0.08364312 0.08080155 0.38739714
-0.54219103 -0.21853125 0.26904625
-0.41027793 -0.22075120 -0.51453960
0.68393451 -0.22515282 -0.36983943
0.02955456 0.29974392 -0.07917039
0.65913934 -0.04467931 0.28540051
-0.44501144 0.10660776 -0.33751452
-0.22242448 0.02911939 0.46541119
0.46826252 0.08082552 0.19508725
-0.20057072 -0.14462444 -0.51333541
0.32062468 -0.21711183 -0.42757586
-0.50719565 0.11355165 0.23524734
-0.33261660 0.16801961 0.03657057
-0.65122312 -0.22017500 -0.20415018
0.74213797 -0.14049645 -0.07000518
-0.39013061 0.06922555 -0.10521683
-0.24575290 0.07613941 0.40869072
-0.54100764 -0.09329914 0.22574984
0.08507179 0.11991686 0.04870560
0.56401479 -0.13815013 0.45372552
-0.15929830 0.10583283 0.27488279
-0.03405297 0.19172816 0.13773999
-0.22629923 0.23211172 0.16513400
-0.08069895 -0.06510148 -0.47765386
0.41624248 0.10653010 -0.02992745
0.21141852 -0.21418598 0.45193142
0.76469296 -0.14814307 -0.15495041
-0.12817095 0.06806844 0.49050266
0.20136552 -0.19817372 0.46438992
-0.34893629 -0.04745013 0.40955409
0.26449201 -0.07406192 -0.33296782
0.73288977 -0.13579027 -0.27966252
0.84838569 -0.19674961 -0.00118354
-0.33030146 0.26910162 0.04956174
-0.28044626 -0.21090406 0.43231115
0.71960545 -0.06199462 0.20373668
0.29325071 -0.22160950 0.38099927
-0.33217707 0.11891127 0.01150656
0.40960816 -0.02295245 -0.42590496
0.63494778 -0.12500772 -0.29557455
0.63772333 -0.22590727 0.43831691
-0.56682241 -0.21922693 0.38374484
-0.23894015 0.07300542 -0.37859026
0.50400174 -0.07877700 0.33257779
0.59613198 -0.20282307 -0.41221115
0.45453054 -0.08550847 -0.46556208
0.13184012 -0.19058645 0.61769277
-0.57016391 -0.21180877 -0.32130951
0.71400774 -0.21356806 0.50501823
0.34027502 -0.12834211 0.29650876
-0.17342278 0.11785182 -0.25846812
0.24267171 -0.01269649 -0.32318732
0.22627017 -0.21541968 0.34847781
0.55745792 0.04981657 0.12501524
0.35838726 0.12659329 -0.19953336
-0.43367058 0.08378603 0.04973678
0.05760190 0.06781747 -0.28482181
0.61815029 0.01489785 -0.28325820
0.77982032 -0.15589006 -0.17407161
-0.05777448 0.07591564 0.29449296
-0.51733351 0.07280217 -0.15698238
0.58016968 -0.05346481 -0.28998291
0.62655967 -0.22551227 0.33491403
-0.42268419 -0.12184261 0.37167689
0.47821227 -0.00955405 -0.38494736
0.19397947 -0.22152311 0.31318086
0.84140480 -0.18865237 -0.23165384
0.20373373 0.11945385 0.12252354
-0.23185459 0.24412644 0.20820886
-0.16393624 -0.21687767 -0.55378783
0.74755782 -0.17923802 0.49617317
-0.06380971 0.10585041 0.27093500
-0.66202354 -0.22369680 0.15738446
0.52080965 -0.10221791 -0.34835052
0.76816207 -0.21198183 0.48081222
-0.58722305 0.05920488 -0.22281393
0.07831487 -0.20465237 0.55678809
-0.61555648 0.05067126 0.15810458
0.00767076 0.28424031 -0.10866021
0.10037961 0.08179849 0.24792624
-0.41278768 -0.00597004 0.42141581
-0.62128651 0.09493996 -0.01707165
-0.27863616 0.06808497 -0.42732266
0.66179514 -0.03520539 -0.13091734
0.73938495 -0.21370554 0.25277799
0.12035096 0.24020892 0.22823325
-0.58996260 -0.08244364 0.14902000
0.70346022 -0.12517975 -0.31493455
-0.55090475 0.11316991 0.02490849
-0.39169148 -0.10473442 0.39343473
0.66772014 -0.02955285 -0.27331811
-0.18249740 0.01949891 -0.50438684
0.27354261 0.03159742 -0.32087234
-0.36687061 -0.21322331 0.60877579
-0.05404648 -0.11628099 0.48277390
-0.32191050 -0.15231276 -0.56565833
-0.60010844 0.10566045 0.02301257
0.31216192 -0.21320912 0.55338538
0.03718527 0.18253112 -0.08439783
-0.19795796 0.22288086 -0.23688239
0.56446332 -0.14361416 0.49645409
-0.62150002 -0.21534011 0.44777590
-0.04070392 -0.08487312 -0.48510855
-0.63793600 -0.04146145 -0.11739810
-0.65714341 -0.19001046 0.23189552
-0.17920460 0.11878211 -0.17838319
0.38550970 -0.08992666 0.39669162
-0.07273071 0.05764173 0.48157674
-0.01303073 -0.21676028 0.45730624
-0.31597069 -0.21649072 0.52958190
-0.14811197 -0.10686976 0.45000589
-0.11735357 0.03284700 0.49378365
0.83014524 -0.15976058 -0.35166600
-0.64992899 -0.06692547 -0.09384488
0.32678324 0.07383163 -0.09395308
0.08675227 0.06703280 -0.03860369
-0.21149130 0.08486139 -0.44136402
-0.19124994 0.20436049 0.21287155
0.09641185 0.11059549 -0.06911980
0.12430274 0.12636064 0.23832245
-0.49525177 0.01994326 0.29747099
-0.39230797 -0.20807055 0.62809747
-0.67640448 -0.21606284 -0.28043672
0.65610307 -0.23096013 0.39850125
-0.65311193 -0.15321471 -0.18018979
0.51487201 -0.08119999 0.32397068
0.09611989 -0.11675078 -0.43478563
0.39761102 0.04994418 0.28295878
-0.07717007 0.11604054 0.37137252
0.79982352 -0.15521686 -0.01417258
-0.31897378 -0.13603540 -0.47584930
0.24685188 0.09634188 0.00804956
-0.29588720 0.08657000 -0.33784086
0.61917770 -0.09094502 -0.32074249
-0.09549045 0.07561570 0.18782811
0.70752382 -0.22373891 -0.56296492
-0.60008484 -0.00829846 0.20250937
0.68663692 -0.00541865 0.04041839
0.73043567 -0.13819709 0.25924826
0.33100185 -0.21904290 0.54423070
-0.04948357 0.02824776 -0.44480741
-0.56648332 -0.21494693 0.48954341
-0.13603966 0.30083814 -0.19381976
-0.10269009 0.02600911 0.45138907
-0.72259879 -0.21058047 0.31927589
-0.14146715 0.24724540 -0.21731903
0.71795058 -0.09956035 0.29030734
-0.22631489 -0.22029564 -0.56826288
0.63026887 -0.15625277 0.36508337
-0.03253555 0.07185838 0.25838014
-0.30660734 0.23790179 0.13736302
-0.60699087 -0.06330649 -0.20344713
0.19933398 -0.15388730 -0.41547650
-0.34453744 0.21138647 -0.11627370
0.56638736 -0.01155132 -0.31278238
0.05952590 -0.21800584 -0.45085156
-0.50636280 0.06761812 -0.33010289
0.48640668 -0.16296083 0.59162492
-0.33817992 -0.22171909 -0.57903862
-0.50277013 -0.21973053 -0.48706466
0.16634457 -0.12378553 0.32664400
-0.60861701 -0.09207609 0.20008998
-0.12661591 0.25147128 0.18033016
-0.56948060 -0.13162346 -0.27434283
0.54895729 -0.05311020 -0.44072276
0.69191623 -0.17404601 -0.20518887
-0.58087176 0.10567304 0.06622624
-0.50946003 0.00158766 0.29510394
-0.51511562 0.03748175 -0.34581676
0.22208498 0.16372165 -0.15538578
-0.36241081 0.07498106 -0.20097372
-0.23546937 0.21170975 -0.17159691
0.78003126 -0.15673798 -0.02293376
0.06773210 0.07209260 0.17290732
-0.56526411 -0.21464840 -0.20142941
-0.54599142 -0.21915585 -0.28975236
-0.60732460 0.08133496 -0.15822524
0.07654447 0.03680080 -0.45538995
-0.24308515 -0.00135940 0.49086720
0.58698821 0.04303594 0.32850221
-0.58097994 0.01006861 0.15664764
0.47715235 0.07962731 -0.05449060
0.75909817 -0.15115558 0.12116740
-0.49718928 -0.15456083 0.50074625
0.58700210 0.01885010 -0.33688924
0.59168768 0.04445740 0.00503657
-0.19123319 0.10865203 -0.33192000
-0.76626480 -0.22140595 0.01887679
-0.16232376 0.08765756 -0.31366861
0.32960641 0.13668481 0.16786347
-0.29416224 0.18004303 0.17072366
-0.57492191 -0.14457956 -0.35968870
0.01529722 -0.15682785 0.61813325
-0.64492631 -0.03169434 -0.03777925
-0.42792019 0.11517555 0.12387927
-0.19356944 -0.15472755 -0.46175042
0.66560400 -0.04677346 0.17620590
0.16156545 0.04943977 -0.38753954
0.28413045 -0.12539417 -0.61068285
-0.04574896 0.24577679 0.23309690
0.07169805 0.06756561 -0.37071604
0.61081499 0.05347837 0.26102769
0.84171939 -0.15520485 -0.23827845
0.47522759 -0.09677975 0.46362582
0.10348983 -0.10424310 -0.38131270
-0.58577490 -0.14597577 -0.28101325
0.74442852 -0.14436431 0.09760184
-0.49286729 0.11115281 -0.15494898
-0.64908844 0.00595947 0.02816956
0.40544072 0.04363424 0.28385264
-0.54419065 -0.20970753 0.26635566
-0.27628511 -0.21297866 0.57857198
0.66474503 -0.03422028 0.06580621
-0.16967398 -0.16847873 0.67608416
-0.18129529 -0.15223929 0.65232784
-0.49273723 -0.12829953 0.29953122
0.50700772 -0.13594405 0.46383733
-0.32282829 -0.21248069 0.54290062
0.51527363 -0.03079715 -0.46382734
0.18433900 -0.17749284 -0.56122833
-0.31228203 0.02889137 0.43096647
-0.23886311 -0.22422171 -0.51042330
-0.01584381 0.04720053 -0.43705979
0.55287278 -0.09623691 0.33272615
0.30954772 -0.11609022 -0.64336824
0.02273138 0.25937176 0.04109748
0.38929066 0.08011319 0.02077614
-0.62598288 0.08536988 -0.03213343
-0.12282549 -0.15330786 -0.51257712
-0.09948583 -0.12328304 -0.45915544
-0.38768566 -0.15225123 0.43249816
-0.27950352 -0.03253475 0.47446743
0.49060136 0.10663205 0.09120056
-0.61101943 -0.22013089 0.31457242
0.69560516 -0.13262796 -0.16910277
0.15183161 0.11325958 -0.28606617
-0.60729432 -0.15241610 0.04444759
-0.25933781 -0.08787294 0.43396696
-0.30167264 0.11758815 0.10414910
-0.34704366 0.08318412 0.05087360
0.20223516 -0.20259999 0.63357925
0.04573850 0.07502209 -0.18635102
0.71136802 -0.16521071 -0.47887933
-0.35813800 0.21647239 0.04945918
0.09945617 0.07193698 -0.30929235
0.05592459 0.29371834 -0.16883494
-0.33895171 -0.14832306 -0.48077315
-0.59554631 -0.14247848 -0.32646415
0.66778022 -0.05100243 0.22310133
0.46415940 -0.22134855 0.49638131
-0.17793366 0.15760472 0.18058254
0.51622158 0.06948554 0.08990905
-0.42464551 -0.21384504 0.54345590
0.70027375 -0.06936525 -0.26989120
0.57730168 -0.17116214 -0.41410622
-0.20412733 -0.22281450 0.55127561
0.11096317 0.07921811 0.06263356
-0.60060424 -0.13213541 -0.11622527
0.53239775 -0.19392976 0.45223457
0.53241557 0.09660887 -0.29011855
0.41620126 -0.09513225 -0.63857597
0.04693883 0.27627283 0.22404429
-0.03980175 -0.18699534 0.43928567
0.07207584 -0.00450609 -0.41161707
0.82837063 -0.21310478 -0.14113797
0.51297581 -0.03098244 -0.43848991
0.66651428 -0.22001189 0.37216428
0.75255114 -0.15536262 0.38268700
0.17783712 0.08596337 -0.04085159
-0.33051470 -0.22329560 -0.49592757
-0.43166316 0.06692693 0.06194284
-0.60164392 -0.18281972 0.51148319
-0.32550672 0.23538554 -0.15070224
-0.13942480 0.06797289 0.49760908
0.78355032 -0.21426460 0.31685451
-0.68146729 -0.22393563 0.14005494
-0.07229909 -0.18653843 0.67453730
-0.11123088 0.09884083 -0.47683018
-0.36749366 0.07759430 -0.06433688
-0.21461517 0.08180653 -0.41288623
0.12117192 -0.06256507 -0.41923523
0.54636967 -0.09835914 0.48463330
0.16322935 -0.03642032 0.34101522
-0.07453419 0.13961491 0.22796629
-0.02425192 -0.11866796 0.44729698
-0.20279267 0.07423767 -0.23970646
0.67490143 -0.14622590 0.30471373
-0.21494481 0.26172480 -0.22334550
-0.20333385 0.19549488 -0.17770749
-0.43049967 -0.21598119 0.45615137
-0.61156344 0.09613183 0.14687388
0.10245821 -0.19737531 -0.53906286
0.42189139 -0.03134295 -0.29017130
0.02579127 0.17098022 0.00255339
-0.13011818 0.10405935 0.36223665
-0.03714390 0.28823450 0.13909510
0.37457401 0.07289181 0.23360947
-0.61642540 -0.21118635 0.47733408
-0.47295129 -0.21665120 -0.55970728
0.36446965 0.12736768 0.18039240
0.67647332 -0.17388302 0.48746544
-0.41398466 -0.21350792 -0.50689554
0.08539756 -0.20788819 0.56863558
-0.08569471 0.09980655 -0.27679121
-0.04395210 0.17903477 -0.14114809
-0.24784777 0.09818780 -0.31981719
-0.82233566 -0.16652662 0.07452395
-0.25251094 -0.15317550 0.61801237
0.47477132 0.10990580 0.10529222
-0.64046627 0.03593692 0.09784837
-0.02415798 0.14877394 0.12352179
0.07064906 0.17195535 -0.14516890
0.52673554 0.07593797 0.05120926
0.49390411 -0.01822471 -0.45867553
0.11367697 0.06669010 -0.40372986
-0.12449434 -0.21636128 0.48964643
-0.15223143 0.10279917 -0.34022483
-0.58586252 -0.22385406 0.18685630
-0.42249796 -0.15155993 0.45580238
-0.47817063 -0.14723288 -0.40021652
-0.60753000 -0.10486463 0.21687669
-0.41645741 0.06938387 -0.05270246
-0.35664800 0.07377984 0.21141940
