-0.38085926 0.04330191 0.12111090
-0.31078196 -0.20969118 -0.33950061
-0.42486960 0.65525842 0.02380248
-0.28874186 0.02721808 0.18834996
-0.46234047 0.62796545 -0.02492816
-0.31690130 -0.02589966 0.10016073
0.37742895 -0.04049803 0.21675426
-0.11828002 -0.46047640 0.26241046
-0.19928393 -0.15410049 0.39178696
0.23438588 0.10155738 -0.16123872
0.23068456 -0.17236480 -0.43263096
0.05372059 -0.20132737 -0.39223498
-0.28734082 -0.87113148 0.24771807
0.24184692 0.30172294 -0.29560137
0.10430766 0.43653485 -0.21182199
-0.37541083 -0.55989337 -0.43489933
-0.04845804 0.14408803 -0.14812146
0.24381675 0.47243327 -0.25460196
0.17969075 0.18980044 -0.27430788
-0.38049465 0.39880711 -0.13250107
-0.30306083 0.04919352 0.08410092
-0.34264714 -0.18124567 -0.24233052
-0.27758586 -0.92628324 0.20061705
-0.03599343 -0.44579902 0.27262890
0.35297981 -0.02301553 0.11906001
0.14222673 -0.24778336 -0.48026037
-0.28480107 -0.07918496 0.25439510
0.48729879 -0.38473693 0.17192706
0.05552993 0.15565959 -0.17672242
0.04462281 0.43877116 -0.21889023
-0.30167767 -0.21765877 0.45365614
-0.19722302 0.12963854 -0.13748735
-0.00874715 0.15454637 -0.20835853
0.43044886 -0.47530454 0.16751975
-0.32929069 0.15447582 -0.12341914
0.08267379 -0.44228873 0.24228230
-0.28335604 0.12654181 -0.12509504
0.19663008 0.45215303 -0.20086446
0.24252236 0.62277776 -0.21223132
-0.42626888 0.68912649 -0.02926262
0.25296906 -0.03263046 0.29902279
-0.38403043 0.61798495 -0.05737363
0.23091246 0.16870318 -0.17592347
0.11156792 -0.01853887 0.26664892
0.26866430 0.51833373 -0.24520294
-0.33311173 -0.00506436 -0.25502861
0.06938885 0.04598988 0.10745177
0.30151743 0.06437203 -0.11967973
-0.29033405 -0.90478325 0.24046594
0.14026852 -0.07335896 0.34013179
0.13393959 0.04449982 0.08537234
-0.45363560 0.83267361 0.00922149
0.23716873 0.57065976 -0.21363808
-0.12654451 -0.04691415 0.38320383
0.48997885 -0.70308244 0.07045501
0.29971924 0.04653290 0.05911887
-0.38590801 -0.29548317 -0.31881082
0.23085785 0.40008086 -0.18657196
0.17035542 0.06036225 0.07047859
0.36419910 -0.01561064 0.17736119
-0.33397800 -0.04546101 -0.27576199
-0.36936367 0.34267783 -0.06768838
-0.27553603 -0.10155915 0.34576750
0.44679159 -0.29694349 0.22651255
-0.02907249 -0.20240048 -0.36805296
0.44834906 -0.38691074 0.19100299
0.03740188 -0.06092969 0.41001433
0.46703261 -0.55218244 0.13307337
-0.32658803 -0.72064286 0.26126322
-0.37319833 0.63625860 -0.02259369
0.35900360 -0.03987873 0.28192773
0.45957416 -0.03217686 0.33310625
0.31238109 0.78817749 -0.13912725
-0.36929893 -0.41458210 -0.44049326
0.06623860 -0.18692693 -0.41511974
0.35422435 -0.00078989 0.22292385
0.39830717 -0.15798867 0.25586724
-0.43178061 0.83121568 0.00138039
0.22828414 -0.24427029 -0.46850628
0.32392263 0.06765492 0.07243817
0.35236657 0.02067690 -0.01060966
-0.35180771 0.04979219 -0.15386969
-0.27700526 0.42224896 -0.12191126
-0.31022283 -0.34719461 -0.33836088
-0.49499819 0.78678620 0.04507063
0.36962152 -0.07557356 0.32503524
-0.39476156 -0.57612419 -0.46802986
-0.39035380 -0.53676975 -0.42971033
-0.37805226 -0.45946530 -0.39203724
0.22734071 -0.03464360 -0.32851690
-0.37329435 0.22128099 -0.09676813
0.31351084 -0.35907644 -0.15937881
0.09797128 -0.10833720 0.34109709
-0.43483558 0.59875119 -0.05592364
-0.10887334 -0.02161370 0.25080431
-0.02944253 0.05109937 0.11563991
-0.30096519 0.84423375 -0.06281384
-0.30485660 -0.45217332 0.04727820
0.19497384 -0.35168216 -0.57812613
0.26043248 0.84653193 -0.11454540
0.23586234 0.61478126 -0.16399246
0.16050006 -0.50595182 -0.58274758
-0.23999164 0.04711254 0.09378994
-0.22088267 -0.45416933 0.33896455
-0.28034994 0.65346897 -0.09352605
0.29575333 -0.42921999 0.16405827
-0.29507372 0.65295082 -0.06907564
0.21028964 0.05188417 0.10617374
-0.01650651 0.12427048 -0.12261586
-0.02246813 -0.08668330 0.43665695
0.23542848 0.10945317 -0.13334291
0.30201638 -0.03068366 0.29010350
0.01660702 0.05243788 0.03714456
-0.31074560 0.01977518 -0.19704801
0.21713237 0.10639664 -0.26232255
-0.04454147 0.11138105 -0.07301249
0.40819076 -0.47350240 0.10346866
-0.05334484 0.15698612 -0.20687234
0.16485167 -0.57936645 -0.69319773
0.31802145 -0.11122549 0.30549639
0.30208942 0.65204930 -0.17162189
0.39480856 -0.15821368 0.24852157
-0.32222810 0.05113516 -0.15654016
0.16638003 -0.54418069 -0.60147226
-0.33727807 -0.34013134 -0.25064015
0.02907505 -0.00718294 0.25734663
0.17426920 0.12917665 -0.11958402
-0.13005832 0.14852467 -0.20711203
-0.32001489 -0.68198502 0.27652812
0.46201402 -0.84896612 -0.00536340
-0.23288725 -0.39650509 0.34120339
-0.07120429 -0.05436602 0.37523305
0.01227300 -0.19493169 -0.40709567
-0.32601181 -0.21646366 -0.34481236
0.13292113 -0.06851278 0.35252514
-0.16191554 -0.01935922 0.27037591
-0.33226585 -0.31282672 -0.28543797
-0.06740263 0.03817509 0.09348653
0.16885227 -0.44300702 -0.62469113
0.40601876 -0.07288823 0.32082799
-0.47475678 0.67819810 -0.00211298
-0.39505085 0.81705743 -0.01993126
-0.26841462 -0.02760693 0.36148798
-0.27690381 0.42825922 -0.13263074
0.17620097 0.15489843 -0.19821973
-0.38571498 -0.40771624 -0.36646277
-0.30153763 0.05155914 0.12733722
0.42717898 -0.58507288 0.06218804
-0.31973577 -0.67332667 0.26751369
0.39910755 -0.11661460 0.23739454
-0.07263929 0.15353158 -0.15976667
-0.33005890 -0.05541547 0.27886987
-0.07857422 -0.00820477 0.25299162
-0.38454148 0.02272143 -0.23281272
-0.25322574 -0.21472634 0.44858068
-0.37258825 -0.28412759 -0.35958484
-0.15349118 0.44800279 -0.16777438
-0.39609534 0.07519656 0.04047590
-0.36146656 0.81692952 -0.02016570
0.27478388 0.74320304 -0.19498406
0.05496833 0.17746776 -0.26578456
0.17822240 0.09740379 -0.33767432
-0.30484870 -0.22507107 -0.32907736
-0.07076959 -0.46578556 0.27407330
0.10665758 0.04339786 0.09708197
-0.27371639 0.11174795 -0.09910943
0.18771352 0.14023247 -0.13217518
-0.23143938 -0.43440434 0.31595120
-0.38822734 -0.28150272 -0.32768965
0.37991929 0.03127578 -0.00642703
-0.05823002 0.06507514 0.05943528
0.22582382 -0.08063871 0.31917009
-0.35196748 0.05485560 0.11312334
0.44373283 -0.28292620 0.14116062
-0.03428843 0.09294317 -0.00821589
-0.29361394 -0.48857543 0.16788578
-0.18876530 -0.46763751 0.30553246
0.35714537 0.07274958 -0.09085575
0.21633202 -0.27795658 -0.36539891
-0.20167777 -0.21551749 -0.31313682
0.19223811 -0.22865470 -0.42424342
0.44530815 -0.35907641 0.20417330
-0.12082192 -0.13785757 0.39074865
-0.38991344 0.52422851 -0.01473439
0.04516476 0.88343626 -0.12574527
-0.26303270 -0.50473458 0.34663591
-0.37225133 0.13151020 -0.11443233
-0.23842253 -0.27554119 0.36407909
0.41879043 -0.00721993 0.11803162
-0.35335833 0.19166313 -0.18935978
-0.27442020 0.01247206 0.17972535
-0.39332858 0.09665290 -0.15380798
0.16743456 -0.24752888 -0.51402098
-0.32064220 0.12663719 -0.11363669
0.21586169 -0.06314645 -0.33834445
0.23705629 0.01325800 0.17437190
-0.45944232 0.71525782 -0.01843352
-0.04429000 0.12753583 -0.13329902
0.27778855 0.90353370 -0.15584329
-0.27458298 -0.55118519 0.32604814
-0.09915254 -0.03794966 0.31277701
0.46074238 -0.34972024 0.12935331
0.40540525 -0.18683203 0.26287177
-0.31261837 -0.29879856 -0.31713700
0.24108452 0.64036316 -0.14839746
-0.35086733 -0.56465632 -0.43432227
-0.30802271 -0.36346924 0.38498995
0.10502960 0.01983791 0.17153415
-0.45280972 0.75506270 -0.01644967
-0.02246958 -0.07200366 0.43018508
0.36856490 -0.01960220 0.26571023
-0.34758595 0.37969783 -0.09327906
0.30989012 0.78799176 -0.14693892
-0.09918085 0.17675488 -0.24868999
0.16407569 0.12595649 -0.29422194
0.26226914 0.04819359 0.08947745
0.22881170 0.55322236 -0.16820402
0.06027814 -0.03093404 0.30232978
-0.45146084 0.66699064 0.02611300
0.43663216 -0.61140561 0.12381810
0.19250457 0.37280649 -0.23909856
-0.17869747 0.09291597 -0.03046408
-0.03690897 -0.06724444 0.37400901
-0.33568752 0.19826743 -0.11769476
0.42885274 -0.69904697 0.05303600
-0.39158416 0.60965663 0.00666442
0.21255572 0.10025784 -0.27263305
-0.03322462 0.14593829 -0.17107686
-0.27076754 -0.55055302 0.24732232
0.32105926 0.03012280 0.09258209
-0.26937741 -0.50775921 0.34049222
0.14085113 0.03263558 0.08275238
-0.19122928 0.12662721 -0.14858182
-0.30624405 -0.04966222 -0.20234028
0.37638691 -0.00948811 0.24003395
-0.26522273 0.14349115 -0.15747154
0.01643824 -0.05449876 0.35857826
0.19176196 0.16953586 -0.21460034
-0.10105123 0.16836721 -0.23609628
0.05676454 -0.04659054 0.35985741
-0.25048447 -0.04920779 0.39796442
0.41801852 -0.51930273 0.09192263
-0.35349947 -0.41584709 -0.44974449
-0.20612226 0.02082308 0.19688424
-0.23550855 -0.12313405 0.47502553
0.19649853 0.39903897 -0.24223730
-0.13821937 -0.14488821 0.39495862
-0.30520150 -0.17555639 -0.28403664
-0.40964970 0.65682739 0.02313197
-0.33030719 -0.57845855 -0.46863228
-0.31881788 -0.39474541 -0.40281373
0.18610881 -0.24006929 -0.39424708
0.14558226 0.87298453 -0.15277039
0.25866419 0.34839496 -0.27107319
0.43417737 -0.38915664 0.19484562
0.43833616 -0.60136288 0.05322775
-0.36556372 -0.17117608 -0.23381841
0.46200767 -0.11048219 0.30038124
0.27464116 0.36029497 -0.23788567
0.48482084 -0.61843896 0.11406051
0.19620423 -0.31322730 -0.46689528
-0.39308661 0.40539715 -0.04959322
0.42281780 0.02896266 0.14816700
-0.22745797 -0.09949505 0.41012526
-0.34801507 -0.35608277 -0.19618319
-0.36282986 -0.44521990 -0.46374556
-0.29048628 -0.75297379 0.28544399
0.32253301 0.13319626 -0.12986001
-0.05287348 -0.06302512 0.37589923
0.20152168 0.40404963 -0.22127229
-0.15772134 0.16637850 -0.22777012
-0.37111795 0.44534087 -0.04558268
0.39052817 -0.01028780 0.06651397
0.10835566 -0.11693221 0.35701904
-0.01771444 -0.17953019 -0.40275466
0.38989466 -0.39592546 0.17074791
-0.17751461 -0.15500496 0.39921549
-0.22266631 -0.20634393 -0.35623869
-0.29057726 -0.71146446 0.22311658
-0.40056574 0.65533042 -0.00629977
-0.12333220 0.44237706 -0.16996567
-0.35707435 -0.11687648 -0.29631758
-0.24994698 -0.57317895 0.27353343
-0.13899451 0.43599010 -0.16660139
0.45988467 -0.65547037 0.04085323
-0.42022043 0.39526829 -0.06225324
-0.36893034 0.62670571 -0.04670255
0.03020894 -0.05227637 0.34667000
0.28849977 0.04076673 -0.07199801
-0.34344894 -0.33217424 -0.17719659
0.34800157 -0.38917378 -0.07626565
0.42032993 -0.69020855 0.07155521
-0.16686168 -0.46789896 0.30609208
0.15965167 -0.03569638 -0.36161119
-0.32253519 -0.06124276 0.38014475
-0.13990399 0.02699901 0.11472462
0.16916054 -0.00886352 -0.38286641
0.22748207 0.61075991 -0.17458662
0.44375834 -0.08975184 0.31189057
-0.26581624 -0.83612704 0.26075161
-0.27406564 -0.90140998 0.19719142
-0.24444786 -0.02016589 0.27430752
0.39030895 -0.00599995 0.28494075
-0.34356454 -0.03003836 -0.26994780
0.30304652 0.07251866 -0.14026719
0.15182599 -0.24925548 -0.45426524
-0.30055121 -0.23250231 -0.29152948
-0.22300318 -0.23515074 0.40736762
-0.16955557 0.09698012 -0.00230529
-0.10622474 -0.00018335 0.22606650
0.47907332 -0.39293039 0.17398512
-0.30556026 -0.29717147 0.36527804
0.23352288 0.22606371 -0.31812692
0.21180537 -0.41384375 0.23098707
0.46886218 -0.40020677 0.10856274
-0.05246828 -0.01247038 0.26121533
-0.14905056 0.67232114 -0.12679385
0.34889126 0.00577176 0.16248398
-0.24015972 -0.30343831 0.35374516
0.15503165 -0.51872331 -0.65596944
-0.01454591 -0.43384150 0.24192926
-0.36541241 -0.03365703 -0.26188844
-0.36832300 0.15657136 -0.11767751
-0.42987502 0.54165238 -0.01210465
-0.15786822 0.43752861 -0.17215741
-0.40493324 0.39658514 -0.05904892
-0.35392892 -0.03721530 -0.26593864
0.10141235 0.14507927 -0.14593652
-0.34029338 -0.51560068 -0.40770572
0.25945255 0.18942516 -0.26150444
0.01579402 0.01084476 0.18840280
0.16521670 0.07468041 0.01618275
0.39627972 -0.42499906 0.15186733
0.32638893 0.89835000 -0.13525710
-0.27395850 -0.08948883 0.31610188
-0.41941705 0.72313708 -0.00413901
0.41899326 -0.66289395 0.06387022
0.06071430 -0.04715393 0.31447637
0.46654630 -0.08714937 0.30725026
-0.20202474 -0.12380071 0.41496676
-0.36661011 -0.45365497 -0.46790043
0.47302806 -0.21408094 0.20824754
0.23035207 0.28777286 -0.30346632
-0.36259699 -0.00386995 -0.25153178
-0.34412906 -0.05132277 0.24175742
0.28087229 0.49403164 -0.17452660
0.19558731 -0.56982541 -0.61835992
-0.27044478 0.09242609 0.00433035
-0.32560214 0.01856680 -0.16883904
0.17357674 -0.30115381 -0.44367340
-0.03691613 -0.08314470 0.45331812
0.34127852 0.00437306 0.20113844
0.21962819 0.38214421 -0.26704422
-0.32013962 -0.60236645 0.29999512
0.39174509 0.00645719 0.04707442
-0.12790594 0.87639862 -0.09853755
0.26826435 0.17580791 -0.22510441
-0.35526347 -0.00267482 0.20931327
-0.25311729 0.05444870 0.07538883
0.23865511 0.71555853 -0.19186041
0.38211197 0.04622124 0.14319211
-0.28159130 -0.51635140 0.22971225
0.19645382 0.31640059 -0.28608006
0.49287000 -0.83683074 0.04023343
-0.11940888 0.43261641 -0.17815965
0.19670951 0.24214259 -0.29859331
0.05620357 -0.43319061 0.26335555
0.25439769 0.04087209 0.12313873
0.25118083 0.08356937 -0.09814946
0.28193262 0.05045500 -0.04524133
0.38226831 -0.04562290 0.19673961
-0.35487336 -0.12122312 -0.22353789
-0.29771832 -0.24709204 0.35199097
0.18307747 0.00654121 -0.39094970
0.26897222 -0.01149291 0.24197939
-0.13077840 -0.43749085 0.27921617
-0.42258850 0.80050379 0.00503981
-0.04908158 -0.05450077 0.39921984
0.45071065 -0.13525683 0.21609274
-0.31348202 -0.47349364 0.10201555
0.29089841 -0.02235746 0.27687335
-0.30764991 0.14013243 -0.14283982
0.21372615 -0.24015614 -0.50105953
0.35650164 0.01409683 0.02333957
-0.39274815 -0.31260604 -0.32532263
0.18137924 -0.19075906 -0.39855489
-0.19703867 -0.01348173 0.26799631
-0.35786304 0.19213165 -0.10871828
0.23143929 0.10311777 -0.08568085
0.14486216 -0.11820149 0.33016449
0.36344486 -0.01224476 0.18956655
0.24335971 0.07520004 -0.34970200
-0.30420420 -0.31275091 -0.33366883
-0.31572658 -0.73725039 0.27906957
-0.04771354 -0.05958199 0.36324742
0.32077169 0.02709637 0.08576621
0.18771486 0.15209553 -0.32672125
0.43002760 -0.48734725 0.16086969
0.41937375 -0.02645779 0.17965937
0.27497491 0.05304448 -0.09508684
0.25681627 0.19608447 -0.30519503
-0.31878555 -0.67144537 0.27951136
0.17738399 0.87800372 -0.13415089
-0.30366018 -0.46749827 0.10913049
0.14829211 -0.33224303 -0.49301660
-0.38306296 -0.43482596 -0.44291499
-0.39576980 0.03909621 0.06324351
0.22221239 0.52656609 -0.21310480
0.04194492 0.06853986 0.05438337
-0.23368752 0.14533798 -0.13552329
0.20903224 -0.05471848 0.34379137
-0.25961789 -0.58854121 0.32066286
-0.34511581 0.08043721 -0.22626080
-0.13317789 0.02052260 0.16081853
0.45127392 -0.23531082 0.24985030
0.31163448 0.01218752 0.21989956
0.12906227 -0.15368541 -0.44476771
0.41478828 -0.46570715 0.16203038
0.00776278 0.16849294 -0.23326088
-0.05156463 0.17723411 -0.26321906
0.05195448 -0.01968235 0.27295244
-0.40606165 0.20060313 -0.13398008
-0.25369436 -0.79235154 0.23564786
0.05187966 0.43064710 -0.20439988
0.17965752 -0.52057940 -0.57995212
0.48560223 -0.86238295 0.01597165
-0.23204216 -0.38969380 0.36217198
-0.24747932 -0.15899497 0.39804795
-0.26609680 -0.45196483 0.37022442
-0.47721633 0.69887388 0.02247620
-0.26993388 -0.42820051 0.30006507
-0.29766038 0.00590792 0.25081334
0.45789731 -0.71139479 0.03245011
0.20435782 -0.04675385 -0.32349768
-0.13210119 0.85673344 -0.08434689
-0.06556629 0.85717571 -0.10994842
-0.26443988 0.67117351 -0.09652138
0.27989793 -0.08124363 0.33508343
-0.32460093 -0.07055070 -0.27797860
-0.41609833 0.38292900 -0.07125212
-0.33599305 0.65311497 -0.05844873
-0.00554905 0.13304424 -0.10610987
-0.29487202 -0.86102659 0.25400510
0.41529784 -0.00707878 0.14567424
0.00690798 -0.02555262 0.29794076
-0.35488808 -0.47799313 -0.38711131
-0.07396425 0.08025275 -0.01855329
0.20444319 -0.15301673 -0.38602534
0.14765769 0.15361363 -0.19928393
0.26287240 -0.00236498 0.20144203
0.29918307 0.01849212 0.16387086
-0.07707882 0.42556968 -0.20052060
-0.39015684 0.23256430 -0.10138470
-0.28025094 0.01026927 0.17337686
0.21278392 -0.06554787 -0.42314407
0.02429446 -0.11579752 0.36006662
-0.13423178 -0.05860037 0.34289935
-0.09562405 0.15350910 -0.20727789
0.32742023 -0.08738665 0.33067033
-0.07432953 0.16652285 -0.24338616
-0.29514065 0.84678882 -0.06754105
0.28160799 0.61152458 -0.21246462
-0.32541743 0.04509471 0.15195604
-0.36671558 0.64109820 -0.03576135
0.35647023 0.10992760 -0.11585627
0.47067171 -0.76891339 0.01385984
-0.19690019 -0.05783496 0.36339423
-0.11126380 0.68083286 -0.14135945
-0.39173996 0.63419759 -0.06596979
0.14149590 0.08319202 -0.00212093
0.26395133 0.02411554 0.18076140
-0.08077602 0.44868016 -0.16884637
0.19277802 0.03300324 0.12001917
-0.31268647 -0.70605749 0.27982756
-0.27759546 -0.26442385 0.34423268
0.24223712 0.30633375 -0.28540969
0.43971235 0.01109508 0.22433892
0.30157772 -0.41477826 0.19206834
0.22746816 -0.12236811 0.32887533
-0.02425214 -0.43738341 0.25770459
0.14508982 0.05011845 0.03702983
0.19620778 -0.24823701 -0.40019161
-0.00312515 0.08941989 -0.00491781
0.06387225 0.14476290 -0.20723990
0.18982799 0.10699449 -0.03540238
0.15679510 -0.53836346 -0.60369927
-0.36972910 0.54286951 -0.03868794
0.28187439 0.80582321 -0.19860715
0.45165583 0.00140777 0.21658525
0.47150907 -0.20247972 0.20319757
-0.06355707 0.67823529 -0.12836435
-0.31635338 -0.63852745 0.26017341
0.39538077 -0.25824049 0.21778306
-0.28773001 -0.72932899 0.22207367
-0.23626663 0.01532016 0.17781815
-0.08452577 -0.03098414 0.29833561
-0.31701773 -0.74280751 0.24979189
-0.15006180 0.03564025 0.13135757
0.19391443 -0.30892622 -0.46221158
0.22821614 -0.14913651 -0.39988863
-0.27605289 -0.10293674 0.33915678
-0.39609864 0.25383788 -0.15482438
-0.26664972 -0.22549966 0.44441193
0.17485613 -0.06576133 -0.41394025
-0.38867635 -0.34032553 -0.35552999
-0.00129805 -0.02488409 0.28114295
0.40367001 -0.20982221 0.24905378
0.24740636 0.82377392 -0.14726736
0.41935593 -0.62475961 0.06664598
0.30873272 0.03841725 -0.06388429
-0.14540885 0.13603570 -0.14110468
-0.20409532 0.10271206 -0.04499361
0.31001282 -0.32341728 -0.22015639
-0.45741710 0.60236609 -0.01385392
-0.42460886 0.69813782 0.02949219
-0.31984109 0.01586758 0.01026543
-0.16850460 0.09196533 0.00520226
0.21640164 -0.17758544 -0.41091007
-0.38413069 -0.30278891 -0.32960111
-0.05520245 -0.06859660 0.38369545
0.20322008 0.15738481 -0.33363050
-0.42143998 0.57772827 0.00255968
0.08942961 -0.01290126 0.24847394
-0.08398236 -0.45300826 0.27455714
-0.39105961 -0.35994354 -0.34485674
0.49275500 -0.83294266 0.04738455
-0.30380821 -0.48211002 0.23282415
0.24158335 -0.00464419 0.21549112
0.28374055 0.04631778 -0.08322734
-0.31276599 -0.01905225 -0.19334854
0.00332592 -0.01960276 0.25563186
0.09227107 -0.43365994 0.25395542
-0.24960372 -0.79602051 0.25106859
0.16115019 -0.31221896 -0.55159903
-0.15467821 -0.02071496 0.28740627
-0.21685795 -0.10465401 0.43861163
-0.12166528 -0.19903772 -0.35146299
0.23588407 0.61622494 -0.15777241
0.37647137 -0.13023490 0.28051314
0.47612160 -0.15366064 0.27647120
-0.30829769 -0.42228511 0.05103152
0.13904545 -0.48771271 -0.58957559
0.22068422 0.17735726 -0.33218610
0.27742448 -0.04744149 0.36769849
0.48141605 -0.81635159 0.00854801
0.23828346 0.11049111 -0.27465472
-0.28916374 -0.07502066 0.27099481
-0.27344212 0.00474972 0.21245018
0.19325018 -0.35538983 -0.56862909
0.01202205 0.07099470 0.05593213
0.29880756 0.91365099 -0.17880985
0.39152211 -0.43204588 0.08213690
-0.26684597 -0.54567486 0.24969688
0.34847376 -0.03049623 0.28671721
-0.16057211 0.02910873 0.13285166
-0.02285790 0.08898823 -0.03045327
0.13853383 0.87885523 -0.14944205
0.18666847 -0.45614100 -0.62870133
0.25560671 -0.12651135 0.32199234
0.39426601 -0.12634958 0.27595881
0.09145395 -0.01430437 0.24271220
-0.35432822 -0.48400509 -0.39112085
-0.06511728 -0.08024605 0.40032461
-0.13399759 -0.05722149 0.35181704
0.47188005 -0.86262971 0.03880320
0.14384422 0.15471576 -0.18554896
0.23319092 0.32096598 -0.20471174
0.43841535 -0.21809477 0.26021218
-0.34299493 -0.21608518 -0.25246081
0.31907895 0.74331939 -0.15078850
0.28752947 -0.34274957 -0.19438705
0.47949210 -0.54529983 0.09229559
-0.26326615 -0.72932273 0.22365582
-0.26545656 -0.45456311 0.27943656
0.26155806 -0.29678559 -0.31857032
0.34780082 -0.41286647 0.17265794
-0.24820933 -0.02283652 0.28772742
-0.08801097 -0.46645951 0.28882203
0.20383117 0.22483391 -0.24949673
0.07353011 0.15532629 -0.20142622
-0.26073232 0.83220923 -0.05935030
0.24965753 0.09174603 -0.14845198
-0.04007838 -0.43756095 0.25662661
0.42313090 -0.64348757 0.09825517
-0.24329436 0.43372518 -0.15644729
-0.33176517 -0.45842490 -0.37740922
-0.26403376 -0.48222479 0.35398102
0.25214845 0.66992623 -0.20390896
0.18789847 0.44559938 -0.19513747
-0.12347208 -0.44957900 0.27205288
0.25469002 0.08836501 -0.18381613
0.01650883 -0.44650155 0.26664913
0.18772188 -0.51004279 -0.57645094
-0.16707800 0.15073948 -0.17957766
-0.36812976 0.52925181 -0.03962577
0.39547694 -0.27493936 0.21406683
0.43936071 -0.05595623 0.32751507
0.21769048 0.85738343 -0.13131237
-0.32543591 0.81698829 -0.03041626
0.01683730 -0.07772624 0.42539853
0.37322727 0.02584408 0.00074355
-0.27568093 -0.84764230 0.26012328
-0.17210752 0.00813524 0.21054655
0.07355808 0.14673541 -0.14730981
0.20974161 -0.26548207 -0.51408565
-0.34858435 0.31055421 -0.08860110
0.26052314 -0.31384319 -0.32029641
0.39283925 -0.43758494 0.14450166
0.26461759 -0.05229510 0.30313438
-0.11283362 -0.07776783 0.40231889
0.21544974 -0.43067327 -0.57933581
0.26644087 0.80093712 -0.19417933
0.00986046 0.05752682 0.02780308
0.17622851 -0.42702433 -0.62116879
0.22070435 -0.11800058 -0.36220038
-0.27052873 -0.43394524 0.28503218
-0.30792248 0.05864792 0.09097359
0.46434841 -0.83889747 -0.00542159
-0.16787563 0.07508378 -0.00171229
0.18094377 -0.58754885 -0.66315645
0.44646394 -0.09581305 0.22900566
0.12300436 -0.00205502 0.23240021
-0.11699332 0.05150789 0.07857589
0.33381811 0.02591186 0.18933481
-0.11449319 -0.06799985 0.38338405
0.14293283 -0.40234447 -0.53178489
-0.39728919 0.31631681 -0.07008298
-0.26901689 -0.37631592 0.30078319
-0.41273475 0.50119251 -0.01836550
0.04988387 -0.17853786 -0.41808373
0.10065117 0.08784638 -0.00052962
0.02234822 -0.11252635 0.38207325
-0.20322090 0.09726546 -0.06467654
0.33159909 -0.41290930 0.19075781
0.26950547 0.63976538 -0.13648048
0.28274253 0.03593587 0.11077340
0.02267402 -0.11870955 0.37703103
-0.04246372 0.13023132 -0.14365211
-0.37011272 0.01561013 0.00503736
0.01204944 0.14828466 -0.19218732
0.39584076 -0.42267981 0.06761648
0.45888671 -0.36370185 0.20253530
-0.42693117 0.45453781 -0.03597233
-0.15156500 -0.15954281 0.39430830
0.28299475 0.09181854 -0.03391100
0.39547056 -0.38195780 0.17421797
0.22549090 0.12225384 -0.17276604
-0.09740390 0.10310640 -0.05903346
0.09578426 -0.18775047 -0.42867607
-0.22341417 -0.42542794 0.32437283
0.01671830 0.03730664 0.11894868
0.02685616 0.69052899 -0.16232222
-0.15981542 0.00684124 0.23348671
0.14862208 0.13025343 -0.13224727
-0.24004966 -0.47616172 0.33321610
-0.09198422 -0.11951934 0.38024715
0.13849057 0.10884998 -0.07364701
-0.04150982 0.12183243 -0.12311096
0.28092423 -0.31462097 -0.28412735
-0.20713125 0.07626967 0.02388605
0.13958511 0.08430421 0.01421566
-0.38244316 0.05174333 0.07897881
0.36162403 -0.01550524 0.26617309
0.19105917 0.36821643 -0.23214979
-0.17706105 0.10970095 -0.10403919
0.37311414 -0.42044121 -0.02415590
-0.37092158 -0.25346968 -0.27951434
-0.31238908 -0.12984651 -0.24907586
0.01248167 0.03325712 0.14755639
0.45193908 -0.40793601 0.18572342
0.18297364 -0.02886631 0.29140809
-0.40056905 0.12943318 -0.16498731
-0.25752842 -0.51633912 0.25831991
-0.24847072 -0.10572224 0.49907458
0.20676869 0.33638996 -0.21620972
0.31785613 0.04166055 0.11882640
-0.20083752 0.11783087 -0.11093150
0.17472726 0.03668476 0.10581470
-0.35296285 0.34481069 -0.11866818
-0.23199829 0.85786092 -0.06807982
-0.37170804 -0.55266768 -0.43171138
-0.06696985 -0.05511703 0.35303357
-0.41850924 0.52882022 -0.00819330
0.25082988 0.10287295 -0.06295453
0.13108510 -0.03442866 0.29735443
-0.37523410 0.28427017 -0.07844693
0.01592672 -0.05221425 0.41898602
0.18702179 -0.02340619 -0.32560813
0.30004594 0.60661608 -0.17645186
-0.22543283 -0.46553457 0.33799839
-0.20769875 -0.44311935 0.31381837
-0.23089230 -0.18724421 0.38984209
0.42875379 -0.37274870 0.19779700
0.24689336 0.04985889 -0.32360065
0.41152114 -0.39442077 0.10768351
0.14063777 0.69454360 -0.18301001
0.48164383 -0.75876027 0.02066270
-0.20855029 -0.15113497 0.41760170
0.40645906 -0.28325415 0.21537760
0.20710400 -0.05371001 0.37030789
0.39039057 -0.02345123 0.10841915
-0.11497363 -0.44818836 0.30583572
-0.30788603 -0.83582538 0.25014821
-0.31358600 -0.45751667 0.30590141
-0.06155314 0.00846672 0.17823553
-0.38238165 -0.15787290 -0.25347459
-0.32025453 -0.47431028 0.32624331
-0.29731822 0.10641899 -0.08495940
-0.07656819 0.02694710 0.12949109
0.16736691 -0.32246426 -0.56258345
-0.29347703 -0.22661656 -0.30297005
-0.33431768 0.04905968 -0.15783775
0.30402499 0.02232206 0.16904572
-0.03499058 0.86738396 -0.11206327
0.30628592 0.65324712 -0.15425697
-0.37035546 0.46160075 -0.07825848
0.22997271 -0.04703203 -0.41243145
0.15808520 -0.31850877 -0.54672253
0.19408727 0.41363338 -0.22031701
0.12168925 -0.42618573 0.22182477
-0.31423929 -0.43490329 0.33712810
-0.32393193 -0.13014911 -0.28187677
0.41762424 -0.47776243 0.08304100
0.43741387 0.00192627 0.18392760
-0.06506962 0.44806772 -0.17504558
-0.01986285 0.17671649 -0.27263969
0.09605565 0.16111094 -0.19858222
0.25464690 0.65291333 -0.21463457
-0.43450436 0.42188552 -0.06535575
-0.23052746 0.11305203 -0.06142260
-0.13212316 -0.05677781 0.37705073
-0.48698121 0.78627443 0.05478653
-0.04600980 0.11553568 -0.12472588
-0.35736784 -0.01847602 -0.17574939
0.33344230 -0.43347931 0.17387336
0.22078356 0.01021457 -0.30689555
0.16436781 0.17237346 -0.28739190
-0.37254691 0.26177675 -0.08768006
0.18719468 0.23087728 -0.27840638
-0.22214183 -0.04303116 0.37256798
0.25899303 -0.29340619 -0.32328618
0.39653358 -0.20996082 0.22461781
-0.29466838 -0.64869255 0.31411514
0.23737890 0.08860674 -0.04252029
-0.39155570 0.07366411 -0.14777480
0.47583014 -0.51053655 0.08520204
-0.02968954 0.13451073 -0.16830131
-0.29955816 -0.78003609 0.21596405
-0.32924557 -0.34452033 -0.22042367
0.28131986 -0.32968935 -0.20642427
0.17310955 0.07946744 0.01895371
-0.28056601 -0.88062823 0.19088855
-0.41643211 0.69016212 0.01300187
0.17818859 -0.15624677 -0.38472754
0.27859023 -0.33895889 -0.22554389
-0.29665375 0.03361961 0.12351397
-0.23961693 -0.42396563 0.31894794
0.24294491 0.09280683 -0.33930612
0.41996610 -0.16069733 0.28125075
-0.38936961 0.05279154 -0.15230103
-0.20837598 0.68774134 -0.10353768
0.23893718 0.10581494 -0.15714729
0.27896464 0.77434385 -0.11864914
0.47266343 -0.38993192 0.12933895
-0.31494427 -0.14434397 -0.23259704
-0.16172364 -0.07189931 0.44363493
-0.18206383 -0.07690144 0.42841560
-0.35083506 0.30236873 -0.13852794
-0.30667108 -0.50991774 0.21745020
0.23452489 -0.13195719 -0.42210177
-0.01872775 -0.20454846 -0.38693625
0.46665227 -0.00944462 0.24479833
-0.34089151 0.40456042 -0.11955199
0.41753307 -0.65667945 0.09743546
-0.28406629 -0.82828993 0.25332251
0.19500567 -0.28308508 -0.53901851
-0.27994046 -0.58005667 0.23737338
-0.09220155 0.67508304 -0.13678533
-0.49275312 0.79336184 -0.01015232
-0.19949652 0.04742630 0.09355073
-0.31549472 0.10523928 -0.11865854
-0.25836894 -0.00835024 0.24162799
-0.11239805 0.14744273 -0.19051918
-0.38879171 -0.02722548 -0.20838249
-0.07743955 0.10082620 -0.05053718
-0.36096293 -0.32289228 -0.25203523
0.24165869 0.07984551 -0.02529316
0.48211405 -0.33979744 0.15342376
0.19090125 -0.22850449 -0.39628702
0.02114939 0.07047446 0.01429578
0.32401213 -0.06009810 0.33148170
-0.23404598 -0.39400133 0.36562935
0.27944520 0.09583463 -0.19225776
0.07177559 -0.19064112 -0.38709727
-0.29587889 0.09417184 -0.04050301
0.07806884 -0.04852592 0.35548651
0.18829173 0.04454184 -0.30608964
0.23362495 -0.06686059 -0.35888219
-0.27899551 0.41406912 -0.15030074
0.29039040 0.60608786 -0.17271462
-0.37177581 0.36564291 -0.13979314
-0.06150185 -0.10244240 0.38579237
0.29622856 0.72147304 -0.19167484
-0.26869634 -0.53233165 0.33902499
0.17751685 -0.07740640 0.32321268
-0.34456149 -0.35591981 -0.16368046
0.07716569 -0.06680766 0.36317739
0.21194690 0.41709077 -0.24704151
0.44619229 -0.42744708 0.09280409
0.44590193 -0.62949318 0.05116333
-0.28228638 -0.55371332 0.25476241
0.15367861 -0.24374887 -0.43211716
0.26186049 0.66670519 -0.13080725
-0.27365771 -0.60204226 0.23791823
0.37727207 -0.05978758 0.33648837
0.11867542 0.03337423 0.12834184
-0.26369485 -0.38626894 0.30775017
-0.01489874 0.02954603 0.16204153
0.21947172 0.66436422 -0.18667179
0.06967820 0.44609669 -0.19634479
0.33842468 0.13508777 -0.13931426
-0.28301585 0.02709016 0.18123886
0.18088566 0.18199886 -0.26515999
0.40919358 -0.45601529 0.06894463
0.46360701 -0.43217361 0.10128514
-0.39596313 -0.53708917 -0.44544274
-0.17256960 0.13307944 -0.15712094
-0.27203396 -0.44391420 0.29003024
-0.17290078 -0.47373325 0.30358693
0.18269575 -0.41673514 -0.61031544
-0.44069308 0.61357880 -0.04852824
-0.38849521 -0.02153501 -0.22770274
-0.00025148 0.70050508 -0.16549085
0.16340531 -0.41938806 -0.52620077
-0.29609948 -0.82517982 0.20695180
0.31250030 0.75305861 -0.16270015
0.22631736 -0.04030399 0.37145683
-0.36990148 -0.34414265 -0.41365421
-0.31096232 -0.61507928 0.25260746
0.14229986 -0.06253320 0.40656626
0.30763274 0.82686216 -0.15012194
-0.11018278 -0.46278793 0.30396011
-0.11809924 -0.45365629 0.26155716
0.23699310 0.36104265 -0.19880447
-0.32000798 -0.64750010 0.28716728
-0.32271335 0.04624071 -0.17636177
-0.16058867 -0.20539284 -0.36251813
-0.32916734 -0.37865913 -0.13076183
0.01157186 -0.04855484 0.34463122
-0.38496023 0.08572854 -0.12674820
-0.31253669 -0.53544050 0.28663278
-0.25910947 0.06515987 0.01835300
-0.32372332 -0.18930012 -0.27428824
-0.32258299 -0.45458364 -0.42807442
-0.35695821 -0.43835253 -0.46195021
-0.17786282 0.01475585 0.20755532
0.04186128 0.11137919 -0.12683782
-0.18052694 -0.04455825 0.34761468
0.47586751 -0.26916185 0.19458404
0.39828286 -0.45731753 0.06577484
0.05914242 0.68150628 -0.15819687
0.13931635 -0.45051074 -0.58794922
0.21688238 0.19976804 -0.32840759
0.21547529 0.40537876 -0.18682529
-0.21481857 -0.07669521 0.42745775
-0.40046021 0.03580288 -0.19650829
-0.40055770 0.12813549 -0.18936445
0.33910304 -0.03296810 0.34898725
-0.21640372 -0.15046896 0.39574406
0.41514677 -0.46722031 0.06717114
0.03361066 -0.04680770 0.35975790
-0.19117410 -0.08332850 0.45116967
-0.17835848 -0.15721717 0.42728269
-0.25767970 -0.74494505 0.27554968
0.17992103 -0.42235106 0.19970533
0.29893056 0.02649057 0.11607952
-0.34243125 0.41318405 -0.08601769
-0.47183606 0.69164282 -0.01755029
0.26933253 0.74104840 -0.11899140
0.03733274 0.16204706 -0.21430288
-0.06612942 0.43350923 -0.20826423
0.28279784 0.67771775 -0.20200127
0.03965108 0.87783778 -0.13233444
-0.02234723 -0.04960584 0.33122027
-0.30013603 -0.13518803 0.45971632
0.43903360 -0.07228106 0.23034894
0.24099587 0.34654042 -0.20701805
-0.30591097 -0.33750841 0.38233206
0.15603723 0.86974061 -0.16007149
-0.02345370 0.17664990 -0.21855259
0.40509862 0.04809634 0.09215376
-0.48006117 0.84970307 0.01711268
-0.06452840 0.70270061 -0.15746440
-0.31467536 -0.39302355 0.32209021
-0.26250103 -0.21887937 -0.34387442
-0.24197468 -0.02511663 0.32081208
-0.11222708 -0.15498780 0.40002680
-0.22922072 -0.20949592 0.42774963
-0.21551920 0.84799594 -0.06023933
0.17345238 0.02442001 0.13602920
-0.39136353 0.46353927 -0.03254375
-0.32819501 -0.57825595 0.29450858
-0.11877988 -0.18910407 -0.39500585
-0.09771346 -0.08402573 0.45714706
0.18458356 0.16904381 -0.25734597
-0.35484457 0.40527457 -0.10532466
-0.20827366 -0.19144145 -0.34779403
0.24611792 0.00718094 -0.34044376
-0.43302497 0.69407928 -0.01616199
0.14472695 -0.27179435 -0.46572646
-0.07182356 -0.09831864 0.40233314
0.27905139 0.55283725 -0.21113433
-0.20602050 -0.03306575 0.28300056
0.21277474 0.36094493 -0.26416737
0.05779785 0.05585203 0.08725765
-0.07400204 0.15244417 -0.21457976
-0.31048605 -0.47496575 0.12662371
-0.28987330 -0.35197973 0.31190687
0.41013151 -0.03474580 0.16173927
-0.16249396 0.15496691 -0.20248793
-0.27063376 -0.48883849 0.22647831
-0.34811434 0.00684771 0.02992200
-0.04479825 -0.11954159 0.37550464
0.31700379 0.07013841 0.03870060
0.48388845 -0.50405675 0.11142547
0.06705517 0.03000487 0.14600785
-0.47571278 0.85051501 0.03679302
-0.05218711 -0.00804752 0.22546342
0.23340796 0.12393377 -0.14886454
-0.35289621 -0.30027369 -0.28338051
-0.33204594 -0.57218277 -0.49586520
-0.08150632 0.04008891 0.14860187
0.35827315 -0.10339545 0.30445656
0.35897216 0.03455106 0.14942507
-0.32235965 -0.16866674 -0.24104634
0.42529994 -0.65465856 0.05764316
-0.24658811 -0.44390383 0.36260504
-0.32238945 0.18806939 -0.12907410
-0.14807045 0.09729813 -0.05038579
0.41806862 -0.68298161 0.08429323
0.28273126 0.03043286 0.14496046
-0.21521981 0.67237508 -0.11070904
0.26212037 0.17738101 -0.25833231
0.47231573 -0.31756070 0.21100026
0.09820247 0.15108642 -0.18778631
-0.38498515 0.48397797 -0.09487209
0.25668055 0.67332816 -0.12704004
-0.22998083 0.67588335 -0.09009677
-0.22352168 0.84874755 -0.05803389
0.03300400 0.17316064 -0.25684446
0.29344252 -0.05926058 0.37404871
-0.12433688 -0.16445147 0.38839447
-0.35697454 0.08668758 0.03440658
0.00352098 -0.08826981 0.43074930
0.23510084 0.11217950 -0.15612897
0.19521734 0.31217071 -0.26609761
0.40542790 -0.23234257 0.19040966
-0.38366798 -0.33397388 -0.34754309
0.44928458 -0.51695859 0.06575717
0.28781837 0.07502399 0.00419918
0.06652308 0.13469400 -0.15584992
-0.12766626 -0.12687856 0.39311635
0.27135172 0.00645345 0.19170025
0.45109293 -0.06868928 0.32543027
-0.17742854 0.44028503 -0.18248834
0.35524169 0.11614548 -0.08278754
0.42937544 -0.67534566 0.09611578
0.47798261 -0.46076265 0.12711759
0.29857576 0.61855233 -0.15133391
0.44997534 -0.85032338 0.04361339
0.44956315 -0.09977200 0.21945980
-0.34481305 0.63394111 -0.05822857
-0.31110322 0.08371862 -0.06227604
-0.28058684 -0.66905779 0.23255345
0.24928591 0.49419641 -0.25082570
0.26870120 0.48119128 -0.17669505
-0.37697536 0.02579965 -0.23902372
-0.20347403 0.13709106 -0.16176224
-0.29795814 -0.48087201 0.25054887
0.29990250 0.76547116 -0.19057418
0.15582168 -0.51143450 -0.58966440
-0.32032600 -0.47670087 0.11519074
-0.28146195 -0.69679427 0.30035388
-0.31517920 -0.46132559 0.15047389
-0.27655005 -0.43676937 0.28430843
0.35946128 -0.40686327 -0.04188409
0.31563672 -0.05635898 0.36156860
0.45851439 -0.78733146 0.01674534
-0.28796336 -0.85231274 0.25672549
-0.21203913 0.68535662 -0.09905954
-0.27118111 0.66710168 -0.08656614
-0.35866103 0.00437859 -0.25165823
-0.22949444 -0.11414479 0.40044451
0.28418988 0.00333093 0.24458176
0.19730513 0.35187677 -0.24260072
-0.10829883 0.03617712 0.12494729
-0.18500313 -0.08249778 0.42766118
-0.28663623 -0.92275310 0.19951430
0.26754215 0.72274560 -0.12216510
0.43324909 -0.04185195 0.22158095
-0.30877057 -0.21543276 0.41481864
-0.05727785 -0.19514515 -0.37065572
-0.31941557 0.10784575 -0.19383794
-0.38262126 0.82218665 -0.01586495
-0.32634816 0.07923219 -0.21255800
-0.37991050 -0.50352740 -0.47275034
-0.38213235 0.01070689 0.01619501
-0.30163324 -0.25932708 0.36626655
-0.02669323 -0.08065743 0.40852410
-0.21186379 0.03926427 0.14829844
0.22338900 0.15143046 -0.34567124
-0.32373485 -0.42181244 0.05026227
-0.30954388 -0.37778029 -0.35828802
0.32412031 -0.05718708 0.30178922
0.26387739 0.26751202 -0.27461314
0.47538543 -0.40737712 0.11648437
0.32533184 0.01495937 0.08617201
-0.11926119 0.67048562 -0.12673689
0.13576552 0.86821938 -0.16064408
-0.27886996 0.40609202 -0.13217556
0.23303437 0.33453423 -0.19971678
0.30210584 0.04342780 0.09421894
0.17348772 -0.01903149 -0.34146070
-0.26531249 -0.71821332 0.22202814
0.35629728 -0.01402767 0.30118090
-0.37630510 -0.10107639 -0.28323811
-0.28035700 -0.30052710 0.41158035
0.29607970 -0.03160333 0.33315626
-0.47669223 0.76443487 -0.00538903
0.27239370 0.76985729 -0.20327708
0.12188502 0.87292540 -0.13813689
-0.37693360 -0.08750752 -0.27965981
-0.23728392 0.07666759 0.00614305
-0.46413195 0.68000078 -0.01304361
0.25029927 0.09164036 0.00616595
-0.19520022 -0.07829420 0.42058086
-0.17124358 0.02878338 0.16496640
0.28998870 0.03724406 0.02576989
0.10040608 0.11134605 -0.09440926
0.18057548 0.03183709 0.10002576
0.04814323 0.70645535 -0.17273888
-0.02418917 -0.17820482 -0.40777662
-0.32968700 0.03784675 -0.04883284
0.47802752 -0.55865729 0.11801326
-0.26037136 0.05376146 0.07930210
-0.32457033 -0.02684567 -0.18251927
0.39107898 0.04700693 0.10643600
-0.34010646 -0.16221958 -0.31471878
0.37270629 0.02235321 0.17247391
-0.31734955 -0.47658241 0.16067860
-0.05346967 -0.04430725 0.33535865
-0.37123978 -0.09563815 -0.21547039
-0.22567354 -0.20196068 0.42398083
-0.36252511 -0.50423056 -0.39494804
-0.07848436 -0.05133448 0.36771515
0.45270395 -0.71764189 0.02965742
0.39677429 -0.43590391 0.06322706
0.48020834 -0.77629673 0.07342747
-0.32834616 -0.67216241 0.23458111
-0.31465036 0.12821889 -0.14997897
0.00069228 0.10183505 -0.07841641
-0.44227549 0.51711941 -0.03018763
-0.31366703 -0.76199114 0.24109507
-0.03016298 0.87909162 -0.13140969
-0.04138948 0.00939096 0.18955636
-0.28601512 -0.54088390 0.24863881
-0.26312226 -0.84903270 0.24017614
0.31695622 0.11087931 -0.05102149
-0.30533540 0.84489000 -0.05650089
0.39708072 -0.07376760 0.25001118
0.14781798 -0.47216403 -0.62702310
-0.31957999 -0.46854207 0.09763029
-0.41221493 0.79709607 -0.00340819
-0.21821307 -0.13920620 0.40864825
-0.30155915 0.13365035 -0.15174195
0.43009257 -0.15705568 0.28544268
0.17997339 -0.58164018 -0.68284065
0.21269724 -0.37456277 -0.52582264
-0.26642019 -0.28508863 0.33674565
-0.19028628 -0.17363440 0.41813785
0.08586042 -0.00139300 0.22960031
-0.31457734 -0.07178680 0.42033935
0.21932133 0.12164161 -0.13347387
-0.07152236 0.43935359 -0.17869055
-0.26065639 -0.04694183 0.30745918
0.04888547 -0.43483678 0.25711891
0.30307379 -0.02537478 0.25340942
0.20575456 0.33071256 -0.21149355
-0.33081800 -0.30763119 -0.28227973
-0.38737857 -0.17643076 -0.29111862
-0.29257628 -0.21902421 -0.29686695
-0.02449819 -0.14645444 0.37720639
0.38785669 -0.08469708 0.22994867
0.21740344 0.12575775 -0.35121369
-0.39310381 0.02254368 0.08046259
0.10598919 0.42775142 -0.20437825
0.31561795 -0.04882695 0.36511084
0.42214671 -0.55884486 0.07544385
-0.37117997 0.49210551 -0.02935984
0.16747956 -0.47061172 -0.64408433
-0.33646360 0.07240292 -0.14142643
-0.31002900 -0.30829704 0.36088631
-0.18697764 0.00193273 0.21367353
0.19522505 0.14710636 -0.24725980
-0.24629712 -0.48224747 0.33847353
0.16901517 0.05007461 0.06473437
0.16026478 -0.06933342 0.40185818
0.32385731 -0.34961313 -0.15125591
-0.28855845 -0.05505017 0.19361207
0.03670391 0.06721056 0.03202851
0.15522687 -0.00865823 -0.35864463
0.06475776 0.01662968 0.14522842
0.23391084 -0.00264729 0.24883482
-0.34592178 0.42108986 -0.05728094
0.07621980 0.03201039 0.11423035
0.33309796 0.07319880 -0.13948976
-0.40588030 0.28301451 -0.10691965
-0.06444506 -0.46237057 0.28367096
-0.09022764 -0.44479823 0.28394267
0.26282364 0.52103460 -0.23594512
-0.43220726 0.44755161 -0.06267162
0.31117934 -0.02356071 0.27651298
0.23789045 -0.06927270 0.35881686
0.48262340 -0.53449875 0.11941287
0.11280859 0.07844968 -0.01224090
-0.35900143 0.31999844 -0.15501249
0.33216321 0.03391633 0.13000062
0.17861122 0.01431889 -0.31325644
-0.38301226 -0.49288762 -0.47039250
-0.20349167 0.00546042 0.19300157
-0.32852229 0.27814901 -0.11557941
-0.31754088 -0.76239282 0.27206776
-0.32327157 -0.39060998 -0.09645973
0.31486607 0.74441123 -0.13671616
-0.37766334 -0.26316497 -0.28800875
-0.20310146 -0.03404238 0.29746813
-0.29041225 -0.76484400 0.20805502
-0.28799480 -0.91197735 0.22975785
-0.02222713 0.43539777 -0.19447500
-0.31278536 -0.41004869 0.31209987
-0.29844970 0.05211721 0.11416931
-0.31301260 -0.39932060 0.35909489
-0.07036342 0.09841188 -0.05576617
-0.21531317 0.13084866 -0.12528150
0.21832007 0.66723698 -0.17821482
-0.34794560 -0.61818677 -0.49011919
0.46353871 -0.36579692 0.19794124
0.25938892 0.03293740 0.12681791
-0.28625524 0.03124282 0.16170421
0.41172257 -0.62696117 0.09390689
0.14475700 -0.41076273 -0.58143759
0.47946841 -0.63283080 0.10306677
0.25202274 0.02667631 0.12551987
-0.33984733 -0.35354269 -0.17506665
-0.34139088 0.04739369 0.14349051
-0.27392778 0.09754267 -0.03988732
0.37891197 -0.00518494 0.06468321
-0.37852797 -0.60868782 -0.52092129
0.05360322 -0.05548777 0.40496498
-0.38360715 -0.48013705 -0.39187220
0.11684978 0.11425579 -0.09772138
-0.26113352 -0.84044439 0.24685517
0.20945656 -0.06650894 0.35305867
0.27880672 0.01136591 0.17427430
0.07445458 -0.01749859 0.25220841
-0.07481956 0.05515413 0.07522072
-0.25024545 0.65635335 -0.10157209
-0.28299335 -0.33804569 0.31945935
0.45380357 -0.32818329 0.21463507
-0.30910999 -0.30407923 -0.32525513
0.25246140 0.16783389 -0.31325316
-0.33582151 -0.29886249 -0.39191300
-0.38653949 -0.39468640 -0.36112997
0.21463594 0.22665463 -0.31937841
-0.24098128 -0.01929573 0.24839219
-0.25324112 -0.10534757 0.38557491
0.26448521 0.08308871 -0.06476788
0.41725707 -0.32890719 0.14408010
-0.35292745 0.64872980 -0.04821895
-0.41899785 0.38082910 -0.10498430
0.21340956 -0.13838494 -0.46875727
-0.30676442 -0.18683478 -0.30713379
0.30311853 0.86235243 -0.17402330
0.30660155 0.84740299 -0.16949812
0.20552550 0.35297480 -0.20897523
-0.12934911 -0.05562649 0.34058204
-0.29215828 -0.52283835 0.34241223
-0.04356151 -0.12713172 0.37208018
0.15035878 0.08050560 0.00825123
0.26789892 0.75619751 -0.19344145
0.45480475 -0.86461407 0.02368578
0.19916341 -0.40980038 -0.57563055
0.44665745 -0.55378807 0.14428876
0.30053043 -0.34740412 -0.19113460
0.21730725 0.69670099 -0.18945509
0.19739769 0.46390906 -0.22593053
0.39778760 -0.23248266 0.21529093
0.35377699 -0.39465699 0.15590236
0.23116879 0.39322984 -0.18810531
-0.32097995 -0.68459994 0.28513941
-0.33815023 -0.60147637 -0.50603032
-0.11996388 -0.13993236 0.38423991
0.23158602 0.13378856 -0.12172090
0.30922285 0.04321982 0.05043018
-0.35378969 0.19655134 -0.10692343
0.18650280 0.06304511 0.04381327
-0.24652180 -0.09004827 0.49416584
0.26077586 0.44457316 -0.18156688
-0.34104082 -0.57045883 -0.43857074
0.21876165 0.68280351 -0.17785844
-0.38866162 -0.15820308 -0.28501946
-0.44126630 0.56453872 -0.05227631
-0.12099223 -0.08094589 0.39689454
-0.36383519 -0.55243754 -0.50886464
-0.33938938 -0.05016990 0.17721531
-0.20377301 -0.03214736 0.30774108
0.13325188 -0.08024959 0.37531701
0.46094537 -0.82184178 0.05670480
-0.16781108 0.85812706 -0.10080197
-0.30501828 -0.27712920 -0.33210397
-0.35187531 0.30699569 -0.08258219
0.07607593 -0.01040313 0.22854534
-0.33318686 -0.40178418 -0.34858772
-0.43107328 0.47746420 -0.08471990
-0.30325517 -0.09277689 -0.25247449
-0.24275896 -0.38920423 0.38258627
0.18524769 0.46162161 -0.22263543
0.23949376 0.70668739 -0.17625290
-0.33236620 -0.02087875 -0.26096147
0.46736777 -0.01379292 0.25322527
0.25063390 0.07206279 0.00257766
0.20329840 -0.07826972 0.37594044
0.39944738 -0.21941961 0.23288819
-0.30896848 -0.61969459 0.29973188
0.22215986 -0.29457107 -0.35229537
0.41720903 -0.43081182 0.04752207
-0.47305751 0.75954258 -0.00924577
-0.33489183 -0.54562163 -0.48207921
-0.33665472 -0.35053551 -0.23474655
-0.28467348 0.64132273 -0.07568144
0.22642213 -0.24218014 -0.43934804
0.17819346 -0.47879612 -0.55003941
0.21279548 0.12145404 -0.09953883
-0.25373909 0.07531709 0.00019353
-0.03069828 0.05055885 0.07921703
-0.23510204 -0.35968682 0.33983013
0.40303433 -0.15029222 0.24485460
-0.40176249 0.38729742 -0.05694856
-0.40760335 0.46349561 -0.03364059
0.05327528 0.14570116 -0.20250416
-0.38442194 0.57917058 -0.00516224
-0.22557029 0.12751523 -0.12196751
-0.36764303 0.16997808 -0.10850921
-0.34496868 -0.39123955 -0.10789070
-0.01287433 -0.46448413 0.26775518
-0.28243116 -0.75294191 0.20263004
-0.24639469 -0.53490531 0.29504165
-0.23655015 -0.19671144 0.45767057
0.01566914 -0.00154081 0.22883660
0.25636613 0.39551502 -0.26146275
0.48552927 -0.80795878 0.01977117
0.24930030 0.86084688 -0.15872878
-0.13814680 -0.46479592 0.29139271
0.06260301 -0.44297346 0.22926354
-0.26560354 0.13466761 -0.12546904
0.25096601 0.19103949 -0.31945649
-0.37443542 -0.32813701 -0.29989365
0.24176745 -0.06372210 0.39448380
-0.48109701 0.69441372 -0.01400661
-0.32536995 -0.05172627 -0.27419662
0.18745971 0.17112188 -0.24570985
-0.07277536 0.87373269 -0.12651150
0.44927287 -0.32386291 0.21650952
0.21011567 -0.27682430 -0.45168561
0.18467626 0.15245040 -0.26189485
0.28893074 0.04199848 0.11080581
0.43030360 -0.02340193 0.17351821
0.40271458 -0.41625956 0.18356004
0.20338675 -0.05739397 0.36474851
-0.12026407 0.87309456 -0.11659539
-0.16801487 0.03205602 0.16944033
0.37321702 -0.41332388 0.16499537
-0.29592884 0.12135319 -0.09671878
0.14065237 -0.15645199 -0.45223549
0.12197582 -0.41659266 0.24601316
0.13028675 -0.04935760 0.34016031
-0.27081701 -0.17626579 0.46298921
-0.43227193 0.71332598 0.03851251
0.20867674 0.07154432 0.04396005
0.31392419 -0.10824291 0.31834820
0.19045663 -0.10817496 0.35378757
0.26773149 0.71033382 -0.12668066
-0.31411174 -0.44819966 0.31449312
-0.09250727 0.11767838 -0.09509636
-0.09919895 0.87046546 -0.09710196
0.46299332 -0.41293353 0.18226358
0.21444502 0.35994086 -0.27161986
-0.31027806 -0.45180708 0.11555013
-0.27997705 0.01255785 0.12520795
-0.27881378 -0.19486475 0.37378067
-0.34510741 -0.00236600 -0.25418115
0.20117432 -0.55505586 -0.65391362
-0.33010215 -0.34397864 -0.31311870
0.04556310 -0.05446734 0.40931553
0.26892021 0.34420663 -0.23362157
-0.23837517 -0.18309376 0.45599782
-0.35231808 -0.61664474 -0.47838372
0.34489653 0.00981946 0.14279500
0.46954456 -0.35374525 0.19654676
-0.34954327 -0.34274456 -0.24566609
-0.31900147 -0.19431709 -0.26711339
-0.31582943 -0.43655387 0.35873044
-0.08224487 0.06392001 0.06790780
0.21195260 0.08193763 -0.01424134
-0.28457740 -0.16232654 0.38992873
0.05064912 0.08579876 -0.00929537
0.42309102 0.03698406 0.13883415
-0.34563443 0.39409542 -0.09027820
0.06492800 -0.02622964 0.27044082
-0.30445290 0.63986719 -0.07961711
0.05277996 -0.05422784 0.36515605
0.17853671 -0.20351107 -0.40516627
-0.37219673 0.83339697 -0.02572307
-0.41252387 0.67448586 -0.03068950
-0.07857410 -0.14075743 0.38944852
0.19378334 -0.52458912 -0.58628517
-0.05309890 0.07580242 0.01380266
-0.09286387 0.67576528 -0.15092193
-0.31806862 0.04856067 -0.04644229
-0.24269059 -0.01523072 0.30370933
-0.49594185 0.78712249 -0.00184878
-0.38708332 0.05956212 -0.11253827
0.41445795 -0.65161020 0.10158041
-0.38293499 -0.41160560 -0.35551313
-0.38656995 -0.34174919 -0.35003534
-0.28511104 -0.04278084 0.20488617
0.04389151 -0.18196706 -0.42296448
-0.34978712 -0.62812299 -0.47964647
-0.30547553 0.12210692 -0.11477558
-0.31816119 -0.51563692 0.30982643
-0.25270879 -0.54272091 0.28395718
-0.32459497 -0.44584578 0.02065205
0.39265165 -0.20451882 0.22764271
-0.06110937 0.88248336 -0.11191627
0.43263435 -0.44111684 0.18515062
-0.36956844 -0.15389696 -0.23135109
-0.17215703 -0.46621212 0.29461944
0.20604569 -0.42022917 0.20821214
0.42019814 -0.66438049 0.10187799
-0.11921515 0.68382168 -0.11792508
0.17053767 0.44841629 -0.22045964
-0.30950794 -0.48005158 0.29091197
-0.25290668 -0.67258567 0.29552203
-0.35163167 -0.56817746 -0.43892646
-0.38161799 0.56997114 -0.03505111
-0.28998986 0.66376525 -0.09901680
-0.04985044 -0.45638165 0.26616782
0.16215390 -0.09320667 -0.42121786
-0.31708023 -0.48518804 0.15359877
-0.31812701 -0.48939380 -0.43569493
0.47515392 -0.28210860 0.18397516
0.19335486 0.11055011 -0.10761173
-0.30794924 0.05753173 0.02010950
-0.12439595 0.15148029 -0.16746615
-0.16694193 -0.47087535 0.29125872
0.38841531 -0.42385179 0.06070380
-0.08154877 0.05984094 0.08028333
0.23821594 0.52241468 -0.15760720
-0.23365976 0.03073788 0.13075310
0.11224939 -0.08646400 0.35087106
-0.09139897 -0.18299542 -0.38471684
-0.12808233 -0.44852686 0.26364219
-0.00188560 0.43044689 -0.20729391
-0.29730782 0.13389030 -0.10076160
-0.26467946 -0.34698510 0.30661872
-0.23833875 -0.42719460 0.31270149
0.29355970 -0.32044062 -0.27188447
0.04206069 0.06692538 0.02462636
0.12677319 0.68705618 -0.17381269
0.47183993 -0.48793146 0.15204650
-0.07357376 0.02219983 0.13764234
-0.29302338 -0.49503970 0.18439183
0.11953609 -0.15981568 -0.43939510
0.29272047 0.60287619 -0.18152896
-0.38125005 0.11270940 -0.12197556
-0.36473858 -0.12364048 -0.22101380
-0.40524012 0.18543160 -0.15493540
0.15350251 -0.44596699 -0.61473781
