-0.32484129 -0.19109945 -0.12897801
-0.61548162 -0.55538303 0.03958240
0.22822523 0.48372611 -0.12928513
0.59312296 0.22347805 -0.13105172
0.27845073 0.83646119 -0.11417968
0.05300447 0.50770843 0.12154145
-0.36816192 -0.16107985 -0.13132626
0.53442985 -0.54010367 -0.12939867
0.82290679 -0.17344303 0.11667731
0.67663831 -0.06431790 0.11875505
-0.44431663 -0.82802856 0.11771917
0.35043749 0.22223051 -0.13356975
-0.66945040 -0.27570888 -0.12658212
0.66864985 0.31361747 -0.02638724
-0.71824473 -0.37133184 0.11042211
-0.58977228 0.54587203 0.06946655
-0.18900548 -0.64647609 -0.13062134
-0.83999068 -0.54103231 0.01294616
-0.62888831 -0.55615330 -0.05428806
-0.86612374 0.20350669 0.10021669
-0.15970597 -0.85100991 0.11669061
0.74986595 0.48337844 0.11701525
-0.16990720 0.83797210 0.08423474
-0.46456563 -0.08094493 0.11561222
-0.65518665 -0.43942332 0.05871929
0.17598368 -0.71136326 0.11909434
-0.15701900 -0.09511361 -0.12827384
0.75901300 0.34776977 -0.12425163
0.60624278 0.45450017 -0.12293607
-0.45730066 0.84723270 0.00003331
0.04581005 0.78392410 0.12104601
0.39936131 -0.02266750 0.12143385
0.69902670 0.32619402 0.11748300
-0.74840695 -0.45567602 0.11367993
0.83892924 0.07093757 -0.10363597
-0.53713906 0.81152445 0.03201361
0.39638275 -0.32791415 -0.13131309
-0.65471196 0.50884497 -0.11553739
0.56791395 0.52258992 0.11535650
0.47891873 -0.86664778 0.05096269
-0.11872202 -0.80647326 -0.12525311
0.18928473 0.22050627 0.11527462
0.49583071 -0.68927693 -0.13420698
-0.41892853 -0.26534647 0.11715474
0.82044071 0.17287491 0.11557718
0.36910105 0.84904349 -0.07124605
0.02780552 -0.24666561 -0.12639540
0.78873086 0.50889814 -0.03631507
-0.85723883 0.49747670 -0.09295590
0.39540878 0.77220750 0.11721747
-0.25699538 0.13827015 -0.13118643
-0.72524798 -0.34512708 -0.00616266
-0.27063259 0.51863080 -0.13411775
0.50623494 -0.72971940 -0.05004240
0.24373882 0.59197527 -0.13067225
0.34294158 0.24336512 -0.13019162
0.49119711 -0.73634118 -0.12572852
0.64396238 0.32359236 -0.08659798
-0.43891561 0.18378799 0.12454965
0.60493892 -0.54669231 -0.02043542
-0.01119216 -0.27974609 -0.13264796
0.54336566 0.42457214 -0.13846284
0.50137520 -0.67401499 -0.12627949
-0.31757900 0.53633988 0.12142128
0.25746712 -0.69201905 -0.13188839
0.41625920 0.47565067 0.11733009
0.59563446 -0.55597919 -0.04713430
-0.03799340 0.78320432 0.11443493
-0.18427452 -0.86633366 -0.04627669
0.36623776 0.66734266 -0.12775007
-0.69914967 -0.30581874 0.11881223
0.14348851 0.00812690 0.11714911
-0.33951521 -0.41948625 0.11721007
0.06197049 0.63655800 -0.12853494
-0.40068951 0.24516143 0.11744417
0.16483691 -0.86570036 0.03241885
0.41301468 -0.60045892 0.11818031
0.09407251 -0.60678142 -0.13069767
-0.54204172 0.76774853 -0.07453260
-0.14387235 -0.77267027 0.11662982
-0.42682651 -0.70893979 -0.13005033
-0.18846607 0.84447455 -0.04563282
0.36365691 -0.87693113 0.01286284
-0.17359631 -0.00644716 0.12118774
0.29219151 -0.35371608 -0.13385376
-0.13060229 0.33746469 0.11326377
-0.47570565 -0.53796220 0.11567274
-0.16058071 -0.26839295 -0.12989414
-0.38317883 -0.86730689 -0.10489120
-0.76128125 -0.44802761 0.01585161
-0.38088804 -0.48040995 -0.12714049
-0.42655861 -0.58928955 0.11681962
-0.07775625 -0.73016840 -0.12876800
-0.71240973 -0.36635098 0.10850988
0.42579976 -0.64467704 -0.01562997
-0.21818259 0.83963335 0.05289165
-0.10540671 0.83500254 -0.09965899
-0.74206573 -0.43059334 0.11496064
0.26939872 -0.86859930 -0.05522192
0.07871760 0.84060138 0.03479034
0.33083299 -0.74730062 -0.03588582
-0.58245301 0.39746594 0.11688596
0.84403807 0.23473196 -0.06757903
-0.86080348 -0.17289525 0.10619746
-0.86721629 -0.24413419 0.01269958
0.84119391 -0.23993526 0.08865055
0.13559757 -0.60474253 0.12357179
-0.13066158 0.47802344 0.11912531
-0.86637878 0.12519780 0.02879775
-0.11751135 -0.70381522 0.12173885
-0.37877035 0.69961530 0.05481542
-0.46761265 0.62808323 -0.03117686
-0.28504318 -0.58996189 0.11840427
0.62282097 -0.15784678 -0.12811214
0.67371994 0.34339347 0.06259765
-0.73841262 -0.48187423 -0.01742985
-0.47014651 -0.48901927 -0.12776735
0.59396225 -0.49680200 0.12085319
0.01535768 -0.86783415 0.05090585
0.42999771 0.81530952 -0.13421595
0.83063799 -0.21188344 0.11483465
0.55097067 -0.48077124 0.12225753
0.84028739 -0.20923372 0.10303164
-0.50216854 0.40974250 0.11706937
0.82900059 -0.28922102 0.11227685
-0.86277205 -0.49286428 0.09582157
-0.21442395 -0.58263707 -0.12978420
-0.86897373 -0.07058276 -0.11091895
0.79773021 0.12389222 0.10681468
-0.83819920 0.51115012 -0.02755714
-0.53991497 0.22283795 0.12395442
-0.58517921 0.22091320 0.12058607
-0.33707991 0.00718333 -0.12948775
-0.54940003 -0.23085162 -0.12856942
0.78476495 -0.53439301 0.10378373
-0.86678272 0.14253543 -0.10972635
0.33238402 -0.76972485 0.11802115
0.37038875 0.26345268 -0.13122258
0.76163524 -0.15658639 -0.12939271
-0.04503394 -0.14901884 -0.12848127
-0.06702903 -0.56129545 -0.13320091
0.37068459 0.11140107 0.11865519
-0.09954575 -0.80186611 -0.12720555
-0.08243644 0.38081765 -0.12681741
-0.16525185 0.20409352 -0.13168660
0.60052812 -0.24452879 0.11712061
0.01984159 -0.27818063 -0.12980905
-0.17858423 -0.01486001 -0.12886679
-0.72786230 0.36860943 -0.13435015
0.66743791 -0.43968320 0.11806534
0.65016842 0.24412364 0.12029536
-0.70091665 -0.14230753 -0.12728497
0.81389016 0.10599844 -0.13282958
-0.16024673 0.44968647 0.12038995
-0.70159906 0.47704208 0.11442892
-0.25416005 -0.27931714 0.11760278
-0.36449203 -0.73780257 -0.13005129
-0.46468195 0.03945075 0.11862028
0.35000512 -0.87048167 -0.00629585
-0.28937647 -0.81418294 0.12086322
-0.53056002 -0.71105492 -0.04241811
0.44987133 0.39748809 -0.13003394
0.64323574 -0.37550434 -0.12844577
0.84272599 0.46855941 -0.04511980
0.83954555 -0.14427121 0.02559440
-0.76182979 -0.03109586 -0.12623592
-0.65123224 -0.05564515 0.11812322
0.59119868 0.52907532 0.07398839
-0.81738681 -0.07629104 0.11905505
-0.13421103 -0.20377956 -0.13050041
0.44476962 -0.68391365 0.03986347
0.05745049 -0.18047102 0.12250030
-0.07157376 -0.87061644 -0.05832190
0.40084213 0.16397217 -0.12893134
0.80932534 -0.53638619 -0.12109969
-0.04996970 -0.86644334 0.08007024
0.70813179 0.31312856 -0.11887822
0.09878013 0.60104704 0.11703551
0.44429961 0.05694223 0.11237062
-0.12008476 -0.79480994 0.11966901
0.53384197 0.56872177 0.10898545
-0.44913745 -0.52646405 0.11495460
0.74635375 0.38987699 -0.05613532
0.82624674 -0.27895087 0.10398586
0.26380610 -0.54167181 0.11696716
-0.59662443 0.19749866 0.11784154
-0.36559340 0.15233898 -0.13107824
0.73153281 0.07243308 0.11860704
-0.22232705 0.67579567 -0.12599054
0.84073979 0.37808746 0.01500398
-0.12523599 -0.03299616 -0.13385701
0.05471860 -0.46576095 -0.12918866
-0.75388104 -0.09436616 -0.12979773
0.50450051 0.82896066 0.02875466
-0.15117662 -0.54367167 0.11862709
-0.41412011 0.63507020 0.10996705
0.34129509 -0.87056887 -0.00970009
0.56098682 0.54408473 0.01170233
0.78356409 -0.53819692 -0.04101382
-0.07950493 0.50591630 0.11917485
-0.15263170 -0.81336772 -0.13514614
0.68983901 0.19609267 0.11982486
-0.85613716 0.19091761 -0.12976730
0.35207048 -0.77483153 -0.11257000
0.42928204 -0.65540332 0.00742436
0.21875165 -0.52056837 0.11536206
-0.59946191 -0.48279402 -0.13241148
0.40307719 0.28376418 0.11667112
-0.27333835 -0.40081069 -0.12908620
0.43473628 -0.51812458 0.12420923
0.84508294 0.26069841 0.04540470
-0.43027198 0.54048008 0.11711488
0.83689564 -0.01325297 0.05442053
-0.75885868 0.05614153 -0.13033417
0.20779225 -0.28847447 0.12186808
-0.77610588 -0.17226011 -0.13281253
0.33168188 0.27397382 0.11862001
-0.86436737 0.35806981 0.02385890
-0.54004496 -0.61171341 -0.12177436
-0.57369649 0.15772498 0.11766984
-0.24423185 -0.08312521 -0.12917235
-0.21655872 0.02696847 0.11739463
-0.47543675 -0.65089959 -0.13583046
0.33006391 -0.86735606 -0.05221078
-0.66218352 0.02555970 0.11751880
-0.03650162 0.35362846 -0.13099378
0.01055804 0.31324241 -0.13057244
-0.12621109 0.66789347 0.11907554
-0.52830458 -0.17851102 0.12222520
0.25393337 -0.66342747 0.11993565
-0.08971402 0.39637220 -0.13178742
-0.25522685 0.30926129 -0.12865040
-0.07626771 -0.48378539 -0.13077423
-0.36842659 0.84563464 0.01118871
0.38159770 -0.86780292 0.04433250
-0.46579629 -0.09644779 0.12038650
0.13408984 -0.42490232 -0.13050216
0.50733465 -0.83127183 0.05625726
0.09009825 0.84485495 0.00624144
0.31065449 -0.73303479 0.12875727
-0.70008308 -0.15018715 0.12146783
0.72654051 0.47933233 -0.13199931
0.38143501 0.79536676 0.11616629
0.16823700 -0.87179387 0.04783137
-0.35602060 0.13957469 -0.12903118
-0.65127903 0.43030864 -0.13144198
-0.58481860 0.53956908 0.04286829
0.73373634 0.38614598 0.04261449
-0.16137299 0.81605494 -0.13578627
-0.72524911 -0.36408615 0.11723254
0.49853605 0.83425468 0.02928757
-0.11620320 -0.41940039 0.11556371
0.50238436 -0.08219292 0.11775314
0.50564283 -0.07293511 0.11579529
0.20960511 -0.51343364 -0.13495284
0.67616946 0.48874134 0.11767927
0.75124335 0.12648240 0.11806646
-0.83118218 0.50450677 0.11113206
0.64247078 -0.41728023 -0.13043681
0.06084984 0.30922702 -0.13032076
0.14843729 -0.52816117 0.11657944
-0.14801137 0.42959550 0.11978631
0.60694677 0.39384741 0.02652069
0.00221346 -0.86370128 -0.11624490
0.51021606 0.65064758 0.07134838
0.19966172 -0.32444909 0.11840928
-0.48601249 -0.23430550 0.12368413
0.84745526 -0.31572127 0.02167652
-0.13683060 0.84424126 0.07241035
0.14595936 -0.45356232 0.11667433
-0.74476939 -0.46689400 0.04600054
-0.36219481 -0.32167417 0.12021179
-0.67783326 0.08883556 0.12365513
0.56878722 -0.42882529 0.12141681
0.09094686 0.64095443 0.11864875
0.43145424 0.62111831 -0.13027066
0.68063438 -0.01565540 0.11754384
-0.35658273 -0.86732292 0.02116165
0.16305825 -0.21199512 -0.13112751
0.51277345 -0.07060645 -0.13049430
0.70798904 -0.20571913 0.12053107
-0.38407859 0.51183367 -0.13122243
-0.80899918 -0.29109204 0.11727732
-0.46375671 0.62316036 0.11416210
-0.53639728 -0.28619057 -0.12652090
0.69012368 -0.28929222 -0.13058698
0.52333730 -0.62926149 0.06586655
-0.13561209 -0.69652593 0.11638682
0.22943538 0.79656142 0.11939519
-0.25901634 -0.56210369 -0.12838119
-0.86030811 0.49227330 -0.03232008
-0.11753169 0.84293318 -0.04399181
-0.21276689 -0.76864451 0.12055405
-0.35840961 -0.27137858 0.12003734
-0.42826226 0.23393334 -0.13023916
0.35368133 0.28144136 0.11651964
-0.44834268 -0.66285574 0.11796441
0.09752830 -0.73307484 0.11889149
-0.76542664 -0.43489820 0.05023947
-0.28093344 -0.01250288 0.11945850
-0.86494958 0.11777973 0.09553615
0.63196033 -0.52233309 -0.12900141
0.47467944 0.71816516 0.11420649
-0.68465853 -0.24831195 -0.12851903
0.16969712 -0.42856976 -0.12998199
0.05655379 0.32633051 -0.12986472
0.63165802 0.08872223 -0.13006729
0.18579639 -0.48005158 -0.13035244
0.39263177 -0.87453800 -0.00848451
0.29497951 0.46091849 -0.12937561
-0.04383976 0.07629732 -0.13395932
0.34541172 -0.66430181 0.04639069
-0.77807838 0.26728466 0.11971600
-0.86339372 0.43016487 -0.02475590
-0.46261406 0.72782171 -0.01873412
-0.36838374 0.79116040 0.11917169
-0.04622870 -0.86561733 0.10284734
-0.32858714 -0.07378992 0.11795533
-0.50043976 0.68941128 -0.13563192
0.01805684 0.67701530 -0.13175833
-0.23978047 0.16152249 0.11632325
-0.39430615 -0.49865416 0.11749537
-0.29566401 -0.35555264 0.11334343
-0.31068486 0.50924855 -0.13343725
-0.60008103 -0.52812153 0.11529817
-0.86897874 0.12599277 0.06345514
0.64857268 -0.45867237 0.12071731
0.44611236 0.76613128 -0.13058299
0.39825517 -0.87247646 0.00040423
-0.49352822 0.66497856 0.01825908
0.05261176 0.15249693 0.12496895
-0.11166816 -0.86409980 -0.05342439
-0.22366861 0.20932260 0.11623888
-0.53376335 -0.65877265 -0.11561450
-0.02864780 0.04397149 0.11862864
0.27884582 -0.45934266 0.11685956
0.31979498 -0.68980300 -0.11367433
-0.20499474 -0.38642144 -0.13149109
-0.47785619 -0.12549533 -0.13024011
-0.40650991 0.74457395 0.01859472
-0.75358492 -0.19787388 0.11802893
0.39573875 -0.63923347 -0.03337520
-0.70486486 -0.53446275 0.01010174
0.43481523 -0.75863659 -0.08046877
-0.86858958 -0.06409527 0.09836504
0.70938259 0.32163405 -0.10923159
0.48951861 -0.70476454 -0.13315737
-0.45851782 -0.31907117 -0.13067040
-0.86634988 0.15708224 0.07155755
0.21172071 0.09793544 0.11901292
-0.08296905 0.27992058 0.11788647
0.51913035 -0.25808775 -0.13423109
0.64410400 -0.10203895 0.12085486
0.50936025 -0.11649701 0.11868902
0.43179944 -0.53467083 0.12372722
-0.86289692 -0.15141648 0.07460248
0.25986889 -0.86685449 -0.11202778
0.25555769 0.47113898 0.11714476
-0.86814606 0.11346813 -0.10003705
0.37514165 -0.77025372 -0.01745106
-0.69859725 0.04578697 0.11854754
0.39575019 -0.75986671 0.05753489
0.14051057 0.13405968 -0.12998596
0.39199692 -0.77624094 -0.04079034
-0.82396817 0.06011287 -0.12560044
0.67753321 0.50460368 -0.02107360
-0.55199325 -0.03095921 -0.13220963
-0.54672343 -0.15596890 0.12072957
0.76465744 0.44683731 0.11831217
0.30623624 -0.86784440 -0.00443875
0.51126873 0.77467304 0.05529302
0.33222288 -0.59347147 0.11828380
-0.34534582 0.69477737 -0.03618238
-0.70307589 -0.35978356 0.05017182
-0.51129299 0.48549992 -0.12865353
0.34665316 0.81033200 -0.13086301
-0.69613385 -0.02665410 -0.12597288
-0.36823189 -0.05534436 -0.13217208
-0.01247749 0.32182604 0.11989138
-0.86993444 0.07658606 0.08281048
0.01539349 -0.77761412 0.12001332
-0.76952732 0.20156896 -0.12840968
-0.00426211 -0.38229910 -0.12515458
-0.10358822 -0.78102696 -0.12732562
0.37999806 0.31788784 0.12154950
-0.53171223 0.73712295 0.11682455
-0.61098510 -0.04663485 0.11929987
-0.09198698 -0.24570768 0.11902890
0.62291318 0.51110715 0.09094376
0.48951316 0.83665687 0.07803585
-0.25048417 0.29627699 -0.12910065
0.70609146 0.41000441 0.11227776
-0.04530604 -0.00563735 0.11954068
0.42496565 0.83678818 0.10424161
0.75558698 -0.42875457 0.11847433
-0.03706951 0.20132954 -0.12686554
-0.38655519 0.74030077 -0.03301880
-0.42157683 0.78173184 0.11473377
-0.53362721 0.73796880 0.09953937
-0.28833839 -0.50697571 0.11632504
0.41201439 0.83738464 0.06453853
-0.86894035 0.06632715 0.06075659
-0.01829899 -0.57238746 0.11773148
0.10390862 -0.00317290 -0.12550735
-0.86135864 0.11890891 -0.00876393
-0.71580762 -0.36201146 0.04802643
-0.29172707 -0.52024108 0.12073235
-0.05745004 0.84522349 -0.06618745
0.74510252 0.37529123 -0.10966478
-0.66133267 -0.11744000 0.11714137
0.50224036 0.33758408 -0.12722370
0.18071574 0.07774950 -0.13441575
0.34943172 0.71955884 0.12182269
-0.84141254 -0.30562466 0.11223605
0.84188277 0.39359355 0.07408666
-0.44399449 0.48197588 -0.13140342
0.57700908 0.43300384 -0.13164186
-0.47452208 0.11127428 0.12153045
-0.53403425 -0.72430521 0.06972537
-0.52571201 -0.58724475 -0.12553033
-0.43352187 0.67146915 0.11406429
-0.54990017 0.60620999 -0.07808682
-0.15816012 0.38043073 -0.12975267
-0.31101876 -0.38004804 0.11593213
0.40152112 0.14505759 0.11940148
0.70362735 0.39789018 0.11788052
0.40666610 -0.81972986 -0.12963033
0.36574611 -0.87110478 0.02247136
0.63049126 0.50775588 0.06211225
0.47944671 0.65237445 0.11854587
-0.09011416 -0.60625345 0.12027099
0.61773163 -0.24748841 0.11491603
0.84550673 -0.22979327 -0.06459185
0.38110524 0.82489794 0.11662841
0.29004249 0.24794516 0.11948614
0.59936017 0.42043200 0.11976489
0.07142787 0.81954527 -0.12453353
0.62487328 0.47840014 -0.13026223
-0.63437557 -0.54756963 0.10166276
-0.66853726 0.09109716 0.12213702
0.66916895 0.31079614 -0.06249902
-0.07971966 -0.86912358 -0.05563930
-0.40421644 -0.51374537 0.11763848
0.27166575 -0.71583694 0.12006796
-0.63063949 -0.55395675 -0.01522155
0.32380837 0.31995487 0.11651175
0.00567651 0.55061066 -0.12785938
0.80722350 0.50416845 0.09420581
0.17977476 0.51956230 -0.13213572
0.59979707 -0.52171808 -0.12933224
0.18046972 -0.87179160 -0.11464892
-0.24690002 -0.54019153 0.12128378
-0.53234756 0.41564432 0.11836488
-0.87264645 0.14519592 0.08420090
-0.00514930 -0.13345614 -0.13030559
-0.57542300 0.56508178 -0.03577882
-0.33794478 0.83883321 0.03054050
-0.48840827 0.66583622 -0.05693081
-0.07771531 -0.80979419 -0.12958553
0.78292704 0.44849625 0.12270006
0.73863304 0.41692993 -0.04802502
0.27279925 -0.86856079 -0.10629073
-0.34613335 0.73842776 -0.12920365
0.01419708 0.34079623 0.11770231
0.82687813 -0.37398338 -0.12878600
-0.47520107 0.63654208 0.00346139
0.81007290 -0.34459671 -0.12481609
-0.31367409 -0.11114267 -0.13081583
-0.10972796 -0.77355576 -0.13022581
0.64450115 -0.25634870 0.11508421
-0.36992803 -0.43483397 0.12227780
0.35635054 -0.39854431 0.11652689
0.07692707 0.48027882 0.12026394
0.07107119 0.20464706 -0.13046670
0.32166177 0.64566338 -0.13027486
-0.59265620 0.36023918 0.11753883
0.24176368 -0.56198722 -0.12957168
0.56315303 -0.01180849 -0.12747768
-0.60070479 -0.56488419 0.05307782
-0.20847669 0.84966063 -0.02258690
0.05558672 -0.62329102 0.11695013
-0.23037779 -0.19463153 0.12103577
0.70155656 -0.26273933 0.11793812
-0.33513874 -0.44425878 -0.13025662
0.09730480 -0.86978573 -0.07880717
-0.53379768 -0.75320858 -0.10694095
-0.75414395 0.00830472 -0.12840730
-0.54599994 -0.62798232 0.09012602
-0.47849208 0.47479299 -0.13110241
0.05132487 0.17619233 -0.13216510
-0.34363434 -0.86859065 -0.08703130
0.83403659 -0.52016896 0.05644664
0.83695447 0.10241707 0.05501978
0.41498998 0.45876729 -0.12791234
0.09570710 -0.68206388 0.12291943
-0.34383860 0.65053624 -0.04402146
-0.11591512 0.71122640 -0.13012356
-0.70098126 0.47188395 0.11951035
0.01995968 -0.55665308 -0.13099924
0.73868597 -0.39445308 -0.12848547
-0.33072761 -0.40582475 0.11751879
0.09628323 0.84407735 -0.08389342
-0.86789078 0.04310116 -0.09360775
-0.08230127 0.75633758 0.11760656
0.61991394 0.35279986 0.11341494
0.73232728 0.49730891 -0.12804282
-0.37447977 0.06834055 0.11754383
-0.36456144 -0.27432591 0.12116411
-0.05871973 0.83910149 0.05824800
-0.16255768 -0.70063144 -0.12758061
0.14180805 -0.86836487 -0.00374881
0.42141771 -0.71211272 0.05671738
-0.35372609 0.71416563 0.11675590
-0.48591179 -0.09317800 0.12004205
-0.09443132 -0.06507562 0.11778798
-0.86939675 -0.35084778 0.05140514
0.60194474 0.37715292 0.02385472
0.03027730 -0.23737365 0.12357778
-0.17003353 -0.51399893 -0.12997064
0.06915925 -0.49152085 0.11502624
-0.59866506 0.04555938 0.12062961
-0.39747700 0.84041655 0.02663920
-0.40163726 0.37173608 -0.13124737
-0.45816934 -0.07736626 -0.13116801
-0.39512238 -0.10570950 0.11793651
-0.59374189 0.53829581 -0.00620114
-0.17568976 0.84410000 -0.04135167
0.43988201 -0.66761094 -0.09367300
-0.69576693 -0.32489395 -0.13313287
0.37444350 0.78382254 -0.12684199
-0.41528341 0.74922210 -0.01344100
0.69033295 0.14264357 0.11631480
0.51698959 0.63195795 0.02670540
0.05913326 0.49743360 -0.13015473
-0.50961697 -0.12448588 -0.13123930
-0.87283057 0.28409913 0.10634761
-0.86659509 -0.16808158 0.05069923
-0.79568374 -0.15974814 -0.13164085
-0.70972091 -0.27655855 -0.12927759
0.04579489 -0.65242565 -0.13035229
-0.03877206 -0.00797357 -0.13117060
0.36554220 -0.87286782 -0.07340150
-0.44032997 0.16780651 -0.13099658
-0.12052079 -0.67348224 -0.13437936
-0.74508703 -0.39267960 0.04531501
0.38738608 -0.64222878 -0.06103677
-0.04271233 0.64663273 0.11799832
0.31506947 -0.66236663 0.12442660
0.48295784 -0.32628989 -0.12923622
0.33035463 -0.06046176 0.12128244
-0.37307698 0.83645606 0.10915620
-0.21023192 -0.49693239 -0.13112631
-0.53485250 -0.67852783 0.03578591
0.41028652 -0.77033418 0.03885676
-0.19915412 0.83795846 -0.00426315
-0.06502051 -0.73474443 -0.13468900
0.55383921 0.54961932 -0.00165180
-0.14001724 0.69492996 0.12075949
0.71004313 0.44096670 -0.02855699
-0.71987897 -0.38803431 0.05143609
-0.58533657 0.16173868 0.11920305
-0.75734460 -0.38908857 0.03157201
0.67196274 0.44626233 0.01980587
0.31229401 0.84416401 -0.00125384
0.01285226 0.14494668 -0.13023865
0.19697277 -0.35223874 -0.13001272
0.08897641 -0.86403185 0.04180743
-0.34830317 0.62183368 0.12036431
0.29324779 -0.39781982 -0.12932360
0.18487887 0.67333174 0.12060194
-0.53387958 0.59086776 -0.12498200
-0.68766022 0.30621520 0.11685929
0.02335008 0.79991931 -0.13205466
0.10309865 -0.45278788 -0.13147420
0.38871536 -0.79866850 0.11848875
0.38271168 -0.77951455 -0.13075000
-0.74754584 0.23909724 0.12166233
0.54504675 -0.11167350 0.11597492
-0.07775594 0.31481403 -0.12988186
0.23769255 0.19797555 -0.12777284
0.45418763 -0.87073380 -0.02725266
-0.56189036 -0.03952618 -0.13252828
0.14894481 0.11448966 0.11952157
-0.73111564 -0.47666758 0.01103561
-0.25492215 -0.85175937 -0.13052237
0.59280264 -0.35082641 -0.13439956
0.28039601 0.38237834 0.11755292
-0.65623045 0.38172916 -0.13143325
-0.49939010 -0.79952270 0.11912650
0.67165035 0.45167434 -0.10947435
-0.73268819 0.41125855 0.11696118
-0.48096299 0.25330096 0.11439792
0.46744654 -0.86581492 -0.09874203
-0.87209910 -0.51417196 -0.05786775
-0.28142351 -0.57769042 0.11785226
-0.15888095 -0.47358987 -0.12880039
-0.24120615 0.44344300 -0.13103414
-0.74956733 -0.06185137 0.12188817
0.34609461 0.22649354 0.11939949
-0.13179874 -0.37315619 -0.12878624
0.54749191 0.14209132 0.11747313
-0.10935976 -0.06280334 0.11851170
0.53128225 -0.17097943 0.12014220
-0.35500816 0.71394569 -0.02868789
0.45983279 -0.71631885 0.02901878
0.28026181 0.09404846 -0.12838367
-0.26976410 0.34226713 0.12276148
0.35671422 -0.59607005 0.11993884
-0.58832753 -0.56851453 0.12176012
-0.36220393 -0.68891406 0.11646816
0.83959538 -0.10638323 0.07039924
-0.49105114 0.71232784 -0.12661931
-0.50612116 -0.70501107 0.12000241
0.48114091 -0.73107338 -0.13198251
0.32659611 0.18131933 0.11908375
0.29418403 0.82259524 0.11617486
-0.62954122 -0.30948368 -0.12829354
0.40089539 -0.19882481 -0.12990633
0.60120481 0.50916690 0.11055231
0.23887090 0.56255585 -0.12849283
0.64141953 0.44969735 0.01646286
0.72834307 0.50095963 0.10202742
0.84330505 0.44532761 -0.03183426
0.26180026 0.50822341 0.12265296
-0.61964816 -0.39174676 -0.12693083
0.37576497 -0.76761323 0.04595491
-0.18347481 -0.05312877 -0.12887087
-0.53215927 -0.44813782 -0.13040239
-0.70607120 -0.24204530 -0.12832889
-0.09634867 0.63488740 -0.13005856
0.84375370 0.39328581 -0.01102062
-0.00100483 -0.51956314 0.12376495
0.36396188 -0.87066251 0.03138766
0.37342745 -0.01337931 0.11732739
0.61557966 0.49896985 0.11779570
-0.64674866 -0.42678949 0.11140972
-0.77750421 -0.40817636 -0.03404748
0.66882008 0.08910239 0.11796113
-0.19084671 -0.15003705 0.11839296
0.66690975 0.49524415 0.11073694
0.44533518 0.83606178 -0.11609834
0.24144913 0.03201819 -0.13251352
0.84454894 0.03691702 0.03713728
-0.02717635 -0.86678404 0.11123415
0.51891059 -0.65821970 -0.01066778
-0.64698786 -0.36812267 -0.05648790
-0.28064308 -0.22665386 0.12130690
0.33767709 -0.09669337 0.11966030
0.71214485 -0.53210163 0.11101183
-0.66862059 -0.35271612 -0.03691557
-0.16893242 -0.86859965 0.00976123
0.29655170 -0.75731421 -0.13156354
0.51636887 0.17901814 0.12067259
-0.41190180 -0.22660902 -0.12813669
0.19670342 0.35898113 0.12134419
-0.12025229 0.63505906 0.12106788
-0.01477929 0.02336190 -0.13219219
-0.66144788 -0.52707851 -0.12625122
-0.48241174 0.83493435 -0.12818485
0.66872340 -0.03671474 0.11706667
0.12393615 0.38863888 -0.13380679
-0.25720751 -0.70341820 -0.12479223
-0.76648682 0.29017344 0.11817819
0.50328952 0.23088551 0.11353619
-0.04755183 0.84408975 0.01279741
0.10913476 -0.86806822 0.02196203
-0.70132083 0.51388901 0.05394429
-0.27525753 0.12579413 -0.13026357
-0.23027600 -0.36486980 -0.13330343
0.41963428 -0.81292707 0.12575957
0.45670298 0.75370365 0.11982914
0.60569865 0.28454897 0.12077840
-0.29713377 0.65173340 0.11746591
-0.06494935 -0.87382787 0.07440775
0.41776651 0.79050642 0.11682735
0.13438785 0.20967580 -0.12613645
-0.86269414 -0.05813906 -0.10793972
-0.46580109 0.47869584 -0.12686041
-0.07229419 0.27680337 0.11978836
0.74554449 0.26159605 0.11761764
-0.23526084 -0.14571610 0.11941227
-0.66204166 0.51035845 -0.05666826
0.21357507 -0.86819142 0.02900634
0.17590345 0.80978030 0.12439837
-0.65466005 -0.15925139 0.11971013
0.61109221 -0.07941387 0.11963637
0.84424293 -0.15886267 0.00117151
-0.15671320 0.60468364 -0.12955287
-0.30883384 0.52714789 -0.13291940
0.55576551 -0.41680783 0.12211375
-0.86636186 -0.25827628 -0.07644448
-0.47656909 0.83139521 0.11490347
-0.64711404 -0.12569793 0.11692442
0.63506967 0.43756932 0.03470188
-0.67474556 -0.27854744 0.11526565
0.41316804 -0.76723868 0.01013648
0.06001191 -0.86433941 0.04497006
0.13225310 0.17964007 -0.12888312
0.46960479 -0.04151305 -0.12692416
-0.83519405 -0.12530524 -0.12596983
-0.86627978 -0.46890014 -0.01795804
-0.36648622 0.72269368 0.03957668
-0.24446610 0.41111320 -0.13087270
-0.40405470 -0.04565571 -0.12971434
-0.20323983 -0.46378550 -0.13129514
-0.19464648 0.84188181 0.00721004
-0.83980596 0.07170377 -0.13276386
-0.66333252 -0.47004971 -0.07765234
-0.02728374 -0.68627936 0.11693834
0.07557850 -0.85868329 0.11340693
-0.79202336 0.51210147 -0.00673643
0.30769992 -0.01990820 0.11860587
0.27621031 -0.86941123 0.04774329
-0.22368640 0.83973968 -0.06071386
-0.86658418 -0.16799429 0.00961953
0.11887880 0.26734632 0.12167783
0.83476627 -0.36037299 -0.11356517
-0.18064857 -0.71999097 0.12003493
0.74620193 -0.26337722 -0.12898237
0.72720426 -0.54019254 0.09295902
0.63895458 0.33035019 0.12102259
0.62651795 0.42938510 0.01456628
-0.36394832 -0.67753708 -0.13051623
-0.05276265 0.42714873 -0.12824339
-0.52585316 0.82420629 -0.00793480
0.54203236 0.56740719 -0.00412263
0.19772422 -0.30287540 0.12359337
-0.42804548 0.16318406 -0.13051242
0.36705557 -0.86816412 -0.10803358
0.44604170 -0.86989123 -0.12499624
0.32914516 -0.70732898 0.06063087
0.41195634 -0.05458342 -0.13244033
0.54835689 0.55685467 0.08800837
0.42792782 0.12682359 -0.13237864
0.84102970 0.43554038 0.04811857
-0.71566981 -0.34780931 0.04554095
-0.34601367 -0.80226082 0.11490004
0.78728390 0.05050002 -0.12641224
-0.09750266 0.06748150 0.11762802
-0.18748890 0.33246130 -0.12800565
-0.85494566 0.37407103 0.11668658
-0.24993856 0.76464808 -0.12572990
-0.56629235 -0.36688575 -0.13499019
0.41481733 0.84496969 -0.02649545
-0.73091245 -0.37564212 0.05255081
-0.25992906 -0.08737814 0.11952264
-0.05924057 -0.39741361 0.11482190
-0.08304489 -0.86879110 -0.08828919
-0.81098211 -0.04652666 0.12151036
0.12886678 0.20298706 0.11602468
-0.11037198 -0.41035566 -0.12816790
0.64882433 0.18246773 0.12033307
0.36915675 -0.78685039 0.11565125
0.31880429 -0.79922104 -0.13234141
-0.34046701 -0.20663998 0.12058614
0.38672125 -0.63842899 -0.10382451
-0.59245920 -0.08225987 0.11634239
0.17996451 -0.68628567 -0.13185829
0.18722875 -0.87036920 -0.03182463
0.80894190 0.20265499 -0.12646067
-0.46588820 0.75593233 -0.13044444
-0.06295093 -0.47087064 0.11780379
0.72132832 0.49083954 -0.13545489
0.24711621 -0.40548158 -0.13034233
-0.86017561 0.09903541 -0.11036115
0.77595234 -0.12897834 0.12028518
0.47433901 0.52811283 0.12251408
0.35039622 -0.64014494 -0.04150621
-0.14815049 -0.67133862 -0.13025293
-0.40119028 -0.86504388 0.01971945
-0.64300138 -0.39196968 0.03092401
0.45509365 -0.59080589 -0.13102922
0.39304683 0.84619844 0.01075839
-0.44375429 -0.16365886 0.12083808
0.84163427 0.04663037 0.05964311
-0.27315250 -0.86717790 -0.03612411
0.15651995 0.59736264 0.12027230
0.10028559 0.78933662 0.12077691
0.84143430 0.47513509 0.11215724
0.68875140 0.49975431 0.03268908
-0.42039657 -0.86214852 0.10117760
0.33596656 0.83960176 0.05237277
0.43479341 -0.05019955 -0.13001910
0.75042099 0.04465437 -0.12539710
0.13672346 0.80038834 -0.12729165
-0.63291502 -0.54475945 0.02601514
0.83975440 -0.14245066 0.01883931
0.30268040 -0.34645665 -0.13193110
-0.63472521 0.26856911 -0.12639761
0.00924874 -0.15842167 0.11888675
0.50957537 0.66565496 -0.04828108
0.65371341 0.45174861 -0.12623422
0.04604179 -0.58808190 -0.13049674
-0.69411188 0.05845423 0.12027781
0.29543817 0.66894120 -0.12900579
0.17622261 -0.59162337 -0.13011253
-0.53702652 0.80673087 -0.08890088
-0.59717363 0.37466544 -0.12982491
0.15529880 0.38382331 -0.12791735
0.17129943 0.51594853 0.11903709
0.84559691 0.15630059 -0.07520566
0.72980362 0.50075477 0.11217652
0.50682187 -0.79313755 -0.13127664
-0.86624688 0.09959425 0.01492268
-0.64842266 -0.14688501 -0.13326642
0.64476758 0.36364248 0.10946923
-0.64317769 0.28630757 -0.13070640
-0.13991456 0.63530338 -0.12995052
-0.15398732 0.67472291 0.11687171
-0.67411941 -0.35601613 0.04448595
-0.16413061 0.61480820 0.11558896
0.29790092 -0.23992567 0.12470476
0.30664730 -0.74478251 -0.12507841
0.76788104 0.49266440 0.11007117
-0.40782434 0.15170811 -0.13116640
0.50719684 0.79264337 0.00504876
0.28056106 -0.70712078 -0.12675244
0.60319865 0.37007409 0.00390643
-0.86293972 0.03234371 0.01420539
0.08588834 -0.53643340 0.12384417
-0.59895682 -0.44199702 -0.12583287
-0.41693816 0.84128910 -0.06508132
-0.20621300 0.39675260 -0.13140950
-0.29134560 -0.28499225 0.11749179
-0.18382695 0.11307060 -0.12863278
0.49881822 -0.36008444 -0.13341197
0.51043737 0.22247431 0.11801432
0.63265240 0.51280922 -0.01390561
-0.54897881 0.77990299 -0.07122949
0.21209781 -0.32566071 -0.13250914
0.04117885 -0.02745457 -0.12812674
-0.44136336 0.69198436 0.05664727
0.12295042 0.83699095 0.09373580
-0.76018977 -0.37312153 -0.02481174
-0.64147311 -0.53823179 0.11862210
-0.34261140 -0.38206199 0.11788078
-0.75239354 -0.52450347 0.12124707
-0.68912399 -0.35217378 0.01181969
0.07466455 -0.54154181 -0.12995806
-0.22869192 0.37509945 0.11960665
0.83947265 0.18278673 0.01825313
-0.53634340 0.71973372 0.04009842
0.75139028 0.14726366 -0.13261682
0.53315431 0.56937480 0.07730620
0.29175100 0.12258081 -0.12877700
0.06428965 -0.10676900 -0.12808752
-0.86716825 -0.27857566 0.06435359
0.33231437 0.51556599 -0.13374037
0.31673902 -0.74514848 -0.12178388
0.19461067 0.21992584 -0.12704566
0.45104021 0.02660327 -0.13240579
-0.86508161 -0.31438571 0.07954882
0.04874485 0.38286975 -0.12871781
0.79435432 -0.25566679 -0.12642400
-0.55804557 -0.25469792 0.12148989
-0.16968465 0.54701805 -0.13121840
-0.50411415 0.73869777 0.11765536
-0.53593498 0.73837113 -0.08686636
-0.19705124 -0.57037234 -0.13150224
0.33247700 -0.12934785 0.11564757
-0.35917273 0.63331932 0.00388455
-0.17933047 -0.08675790 -0.12999409
0.39480141 -0.04603905 0.11940993
0.72373486 0.42215043 0.03215455
-0.17240265 -0.40300620 0.11406855
-0.49915087 -0.86481899 0.00891280
0.56142843 -0.00470632 -0.12902129
-0.41689491 0.60911244 -0.05334074
0.23692907 -0.86506224 0.01607109
-0.63207424 -0.37771270 -0.11986534
0.72639126 0.29748502 -0.12699011
0.84585595 -0.37719485 0.05191997
-0.44213775 -0.54835117 0.11632590
0.10388956 0.74300086 -0.13218179
0.83921778 0.24385239 0.04341865
0.40114275 -0.13044924 -0.13336250
-0.77272642 -0.37664476 -0.09526830
0.67178571 0.22016218 0.11875938
-0.59561414 0.53479373 0.11352374
-0.27781814 -0.45796269 0.11901600
0.80364102 -0.33720160 -0.12880746
0.29346460 0.27416998 0.11983109
-0.37368527 -0.80554760 -0.13046154
-0.80511802 0.17832334 -0.13329139
-0.15253605 -0.86748087 0.02161745
-0.45163238 -0.79930896 -0.13030344
0.71867919 -0.52386230 -0.13234627
0.16978244 -0.86781901 -0.03092207
-0.56643450 0.56055558 0.11253445
0.24360776 0.11638004 0.11785223
0.61418742 -0.53036904 0.10883511
-0.44091055 -0.06649964 0.11993706
0.73263133 -0.18425548 -0.12863111
-0.86265320 -0.06825204 -0.05503946
-0.15034170 0.09728703 -0.12799853
0.82159698 -0.36136091 0.11657803
-0.43759173 0.62679356 0.07025784
-0.53787142 0.77695280 0.05291038
0.45959508 0.35990652 -0.13246256
0.40448245 -0.86943185 -0.06668071
0.54120439 -0.14693974 -0.12986708
-0.27730566 -0.27289692 0.11843722
-0.66223991 -0.21125732 0.11940064
-0.25768855 0.39316252 -0.13153076
0.55675846 -0.55926079 0.11007620
0.32337976 0.69916958 -0.13049492
-0.76751876 -0.53364348 0.08232664
-0.02467218 -0.35803545 -0.13050753
-0.16029792 -0.86708164 -0.05710746
-0.61536622 -0.54107916 0.12079987
0.40762600 0.77703059 0.11722920
0.84142578 0.21409018 0.01280060
-0.86323166 0.43033743 -0.01815193
0.69752049 0.40167722 0.05037659
0.84153217 -0.40100709 -0.10225681
-0.24943675 0.84230918 0.05994716
-0.20981425 -0.35176730 0.12254614
0.83084458 0.45145473 -0.12566155
0.73834330 0.35829246 -0.11176430
0.01921436 -0.39775044 -0.12965059
0.84256572 0.06491057 0.02843990
0.29345983 0.75170547 -0.13310042
-0.45717442 -0.14277054 -0.13146803
0.52865475 -0.54493350 -0.12951061
-0.34293589 -0.20280293 -0.13361558
0.51455069 -0.77127326 0.03070942
0.00725148 0.84619832 -0.03948291
-0.86491930 -0.30459985 -0.00581161
0.24955973 -0.86703211 -0.10370582
-0.02312980 -0.08976676 -0.12971884
0.62625384 -0.11206334 -0.12450467
0.20404516 0.83914202 -0.02055777
0.24013036 -0.03017158 -0.12806851
-0.41352943 0.53784454 -0.13015628
0.67395830 -0.26925835 -0.12792698
-0.32125127 -0.05013647 -0.13138968
-0.07372622 0.29491916 0.12100035
0.51067919 0.53080410 0.11568052
0.02597454 -0.77303946 0.11872379
-0.48701182 0.67456675 0.11824739
0.58842266 0.14754348 0.11876314
0.03210359 -0.57077968 -0.12917796
-0.57528818 -0.58811337 -0.11009541
0.48544228 0.74025995 -0.13068822
-0.02178265 -0.58564836 -0.13490584
-0.11508861 0.55861098 -0.13071319
-0.38760689 -0.61715013 -0.12909821
-0.27208662 -0.86814600 -0.00560247
0.25392041 -0.36492464 0.11622901
0.84402871 0.08685039 0.11428491
-0.64857113 -0.39995545 0.03369440
0.30155352 0.68722171 0.11834642
0.41747662 0.48893005 -0.13028437
0.06605380 -0.53958011 -0.12796536
-0.75553501 0.22392413 -0.13282356
0.68707472 -0.33004755 0.11874540
0.67376494 0.39874643 0.05122716
0.09686752 -0.83300215 -0.13049212
-0.19974995 0.41640201 0.12192544
-0.86902428 0.08689508 -0.07992099
0.09831506 0.77357233 -0.12828711
0.83747077 -0.50683022 0.05687368
-0.20919791 -0.86614221 -0.01157828
0.04659614 0.52961314 -0.12780610
-0.53280550 0.67402345 -0.11360209
-0.52679330 0.69002336 -0.11093748
-0.17731784 0.51194441 -0.13173860
-0.47309586 0.17970647 0.11960854
0.32600737 0.84538317 0.05245016
-0.32077023 0.24873856 0.12129599
-0.54757792 -0.61241841 -0.01373668
-0.41071603 0.74296981 -0.05945536
0.84067243 0.07649617 0.10532485
0.83848774 -0.24057662 0.11521292
0.31678590 -0.12390509 -0.12988445
0.45049521 -0.11025468 0.11860064
-0.40324616 -0.86316961 -0.12146128
-0.24222432 0.21727894 0.11956308
-0.40698710 -0.35084134 0.12165477
0.46781072 -0.52563429 -0.12728253
0.19667383 0.78733993 0.12409521
-0.02917456 -0.79977918 -0.12869132
0.50022739 -0.14961509 0.11671472
-0.27190667 -0.63949120 -0.12736663
0.63097388 0.50156814 -0.12826189
-0.57517457 0.51828235 -0.13044262
-0.02555535 0.67313051 0.11975747
-0.42402366 0.26666161 0.12133694
-0.03633197 0.84368175 -0.09172849
-0.10949114 -0.87407023 0.05397455
-0.54062939 -0.63156056 0.06335261
0.49778581 0.32102606 0.12062474
0.84219944 -0.49960908 -0.04838729
-0.58575946 0.36289239 -0.13081715
-0.05951228 0.84304535 -0.03892606
-0.06070461 0.44680092 0.11940178
-0.10480993 0.34116104 -0.12839904
0.35995373 -0.87413841 -0.10619287
-0.27178973 -0.32234171 0.11788794
0.51353520 -0.74275839 0.10870732
-0.23580559 -0.08486516 0.11968113
0.05588945 0.84198248 0.04412804
0.11450967 -0.55254567 0.12049632
0.50151891 0.74005020 -0.11836933
-0.86755556 -0.07671250 -0.08959785
-0.40277493 -0.05817262 0.11981233
-0.29028577 -0.87106305 -0.10489359
-0.55065060 0.24031942 0.11839383
-0.41529334 0.25729227 -0.13033691
0.19158135 -0.04654285 -0.13359261
0.24970692 0.17648625 0.11975575
-0.53191000 -0.73525846 -0.02723265
0.40465096 -0.62795466 -0.13189507
-0.86645442 0.39917806 -0.00077987
-0.80659914 0.51369154 0.03125474
0.61984527 0.41805434 0.00344016
-0.19732119 0.83591354 0.10972659
0.39907393 -0.61697668 -0.13580909
0.36660534 -0.66518778 0.04917031
-0.45622844 -0.80104256 0.12127707
-0.57196099 0.56074530 -0.10953321
0.62890410 -0.22477227 0.11825539
-0.37833753 0.14734541 -0.13054365
-0.49873272 -0.54589057 -0.13207051
0.21602455 0.15344727 -0.12710518
-0.00283841 0.08141576 -0.13526139
-0.54471880 0.61986285 0.06346581
0.64468008 0.44390646 -0.10415805
-0.82079834 -0.22291936 0.11618207
-0.36824897 0.72672075 -0.06522658
-0.45612946 0.84111780 -0.12036742
-0.48648515 0.66855907 0.03738229
0.64621294 0.36263648 0.05039273
0.84406251 -0.47247466 0.10196941
0.35563558 -0.76652676 -0.01677092
0.56547493 -0.28466940 0.11891016
0.39946282 -0.86686021 -0.05051577
-0.62032562 -0.55545437 0.09426048
-0.62450194 -0.43655610 -0.13319117
0.56043369 0.27620786 -0.12777272
0.66314703 0.00870419 -0.12828198
0.45616803 -0.50313777 -0.12741175
0.16510786 -0.13887505 -0.13423035
0.20402719 0.05341956 0.12449764
-0.16547000 -0.14745732 0.11881199
-0.58678764 -0.58122063 0.01851292
-0.57871330 0.42504171 -0.13163400
0.84072989 0.01918120 0.07914529
0.42965639 -0.53927952 -0.12317754
0.49254170 0.63260168 0.11702202
-0.16422649 -0.03395885 0.11944887
0.31887984 0.84283698 -0.00916750
0.55522954 -0.29565346 -0.13070852
-0.80655164 -0.15892364 -0.12977362
0.04981756 0.16284426 0.12173777
0.13361539 -0.87056625 -0.04444703
0.23460105 -0.85775745 -0.12983251
-0.35649022 -0.83519095 -0.13074562
-0.61314541 0.01457616 -0.12604958
0.06355613 -0.86388212 0.10719810
0.84263998 0.41319582 0.07174982
0.03440095 0.15070026 0.11555147
0.34009930 0.20467369 -0.12919888
0.00151979 0.83693814 0.02505056
0.09950136 0.41495872 -0.13027763
-0.59620452 -0.56593418 -0.05087983
-0.36742684 0.73056692 -0.04351484
0.31065819 0.51774853 -0.13186485
0.81327903 -0.18053430 0.12197451
0.75890064 0.15185475 0.11902059
-0.26709643 0.58551443 0.11571657
0.46756035 0.58493596 0.11878136
0.33290172 -0.68918782 0.11919046
-0.43664348 -0.86862361 0.09937743
-0.52305645 0.09797826 -0.13084394
0.34067401 0.30508742 0.11376083
-0.10903964 -0.86488503 0.07077480
0.10270700 -0.69386536 -0.13017330
-0.48882273 0.65419304 0.03062103
-0.11685152 0.27610460 -0.12951538
-0.67382294 0.49461281 -0.12874910
-0.27323407 -0.20062798 0.11743838
-0.86750811 -0.42169484 0.04280026
-0.28020233 0.83983821 -0.10026550
-0.57155061 0.17728932 0.11927587
-0.09913298 -0.61453134 0.11831219
-0.86086822 -0.11759619 0.00392490
-0.53208148 -0.69678497 0.05210168
0.48617557 0.56647438 0.11943407
0.83341497 -0.07168981 0.11117099
0.57126176 0.50053483 -0.12378908
-0.72459668 -0.53706145 -0.10920875
0.40510988 0.58749050 -0.13216418
0.45898101 -0.24346857 -0.12980971
0.77373916 0.19136123 -0.13214275
0.35072929 -0.76718199 -0.02391576
0.05492005 -0.61047107 0.11834307
-0.12417834 0.46237192 0.12053230
-0.65423840 -0.18844721 -0.13057303
-0.24867952 -0.79923111 -0.13103101
0.27539733 0.49986333 0.12190136
-0.37554786 -0.28024864 0.12115622
0.26431385 0.83696896 0.08455095
-0.33796835 0.69548446 0.01452561
0.70067710 0.11309481 -0.12956917
0.64474660 -0.39542142 0.11849903
-0.60318518 0.14146124 0.11770055
-0.78270805 0.35121065 0.11569391
-0.71621805 -0.34252033 -0.03208612
0.67296416 0.10998508 0.12090772
-0.10614128 -0.54557103 0.12144972
-0.50945324 0.41044500 0.11931932
-0.60314488 -0.55748683 0.10341228
-0.21539772 -0.06646487 -0.12846366
0.48257545 0.83713150 -0.11809004
-0.68214649 0.02776888 -0.12848002
0.44943839 -0.73168832 0.03709131
0.27830037 0.24336791 0.12166595
-0.17145275 0.31725019 -0.12970200
-0.27091914 -0.10722180 0.11700596
0.68258631 0.44029990 0.01456714
0.56083786 -0.01180631 0.11782340
-0.78006274 0.51300645 0.02062819
0.00627617 -0.04186609 -0.13149464
-0.12095813 0.84282535 -0.05146872
-0.45563388 0.29816905 0.11890912
0.63201964 0.35249597 0.11783569
-0.81096315 -0.07608023 -0.12807721
0.29933977 0.84375513 -0.07729233
-0.42024928 -0.13801134 -0.13131499
0.23328651 0.16722478 -0.13260999
0.39528537 -0.64394701 0.11156246
-0.61652952 -0.27217627 -0.12733474
0.32955599 -0.86738795 0.09116174
0.10407512 -0.50400054 0.12112872
0.65996420 -0.16567717 0.11938366
-0.51285774 -0.77357376 0.11675434
0.58279359 0.53331822 0.03560787
-0.53309846 -0.71779370 -0.03953555
0.63358659 0.20948677 -0.13089612
-0.79097235 0.34297049 -0.13185641
-0.60300142 0.36342633 -0.12920281
0.66258585 -0.52568305 -0.13459313
0.44312808 -0.15390888 0.12017854
-0.62533444 -0.02938218 0.11949199
-0.29232118 -0.47509333 -0.12833405
0.68659556 0.36117750 0.12159755
0.23430030 -0.57614481 -0.13158464
-0.44022200 -0.07576469 -0.12834743
-0.09406319 0.67988139 0.11918899
0.34720185 0.44776767 0.11822942
0.52157438 0.40187922 0.11546333
-0.11191687 -0.67690331 -0.13174453
0.42061654 -0.65721768 0.04054378
0.30016249 0.27641317 0.12134216
0.83897823 -0.06601021 0.09206025
0.35978574 0.81805086 -0.12825811
0.66972989 -0.13446674 0.12217899
-0.29971182 0.72131771 0.11886233
0.30738676 -0.86385590 0.09133932
0.52309287 -0.61599737 -0.02903481
-0.84590960 0.32364544 -0.13184160
0.68213964 -0.54165924 -0.00246018
0.84315300 -0.10670100 0.04979856
-0.06718715 0.44464448 -0.12788543
0.36013994 0.83098346 -0.11544387
-0.02438829 -0.40161538 0.11709266
-0.65334415 -0.54484361 0.08846662
0.79909003 0.14980495 0.11820966
-0.25859755 0.23404396 -0.13266054
0.15912428 0.12780859 -0.13031590
-0.11488219 0.43534753 -0.13003847
0.01548355 -0.00851713 -0.13052008
0.39194685 -0.62934166 0.11844153
0.51202214 0.76146036 0.05718125
-0.83112949 0.32801944 0.11847407
-0.45079044 0.03441927 0.11507212
-0.58223969 -0.39190200 0.11936104
-0.03200526 -0.49612644 -0.12894949
-0.58503473 0.28210279 -0.12758693
-0.27326003 -0.33517891 -0.13218921
0.54675478 -0.58434761 0.10452653
0.84451222 -0.01067371 -0.04582149
-0.26523802 -0.73462820 0.11983269
0.72298980 0.26295760 -0.13591653
-0.64027858 -0.45131835 -0.09406848
-0.07728024 -0.23217794 -0.13136935
0.48864427 0.21117423 0.12082856
-0.66469646 0.44237393 -0.13338739
-0.52698046 -0.64895463 -0.12401681
0.45834595 -0.71954280 -0.04623153
-0.11693286 0.07106055 0.11822884
-0.08625727 0.80561161 -0.12428456
0.61286980 -0.54429096 0.03856226
0.74635983 0.50380599 0.02192956
0.10781460 -0.32444924 -0.13294548
0.50527197 -0.24054408 -0.13188973
-0.58225113 -0.57944047 0.11429176
-0.51003557 -0.11638588 0.11987998
0.77955335 0.36318102 -0.12913984
0.84398776 0.23427686 0.06345285
0.30292547 0.03435941 -0.12674725
-0.50769991 0.53570819 0.11828687
-0.64048499 -0.16827780 0.12033001
0.08618885 0.43244240 0.11674856
-0.45768765 0.06494118 0.11753272
0.64224797 0.20411023 -0.13130045
0.57462978 0.24674886 0.12119533
-0.00043317 -0.56271648 -0.13218910
0.50117987 0.42233092 0.12044723
-0.34620401 0.19478181 0.11956877
0.56084496 -0.09034881 0.11679774
0.43760520 0.59347546 0.11957333
0.54316467 0.52389759 -0.13090566
0.16113110 -0.18742813 -0.13666958
0.50345254 0.79395026 -0.11989497
0.57028514 0.53555799 -0.06497861
0.33879238 -0.06054509 0.12103105
0.82014453 0.20850061 -0.12317073
-0.83217859 0.21918532 0.11810801
0.82473332 -0.52541167 0.00715453
0.83779824 -0.16755439 0.02898427
-0.31288999 -0.39250118 0.11742999
-0.40161759 0.84842700 -0.10427785
-0.86635453 -0.50480103 -0.05482989
-0.86433440 -0.00598674 0.08331779
-0.16565166 -0.36851943 0.12260107
-0.86619270 -0.26914170 0.03225951
-0.29918367 -0.47507265 -0.12663767
-0.58592689 -0.45523104 -0.12993249
-0.13447151 -0.02557796 -0.13296980
0.04924284 -0.54380894 -0.13108000
-0.86469853 -0.35631996 0.11719032
-0.07315626 0.75539947 0.11593650
-0.40810299 0.60075045 -0.03334607
-0.20723768 0.00734692 0.11865082
0.44925177 -0.72883487 -0.03617264
0.84326655 -0.37226409 -0.07516335
-0.55590332 0.30741569 -0.13093203
0.25609821 -0.83828092 -0.13682029
0.84740877 -0.20154867 -0.03787144
-0.27656308 -0.87006509 -0.12910861
0.45529410 -0.03766171 -0.12843356
-0.40561670 0.74531078 -0.03030716
0.05430989 0.46635035 -0.13604465
0.02641151 0.40476570 -0.13073367
-0.77266359 -0.39584038 0.00604235
-0.76788449 -0.44573110 0.03249505
-0.80188358 0.45236745 -0.13122052
0.70657849 -0.13085254 0.11819310
0.67130077 -0.53562725 -0.00102394
0.46290889 -0.74905562 -0.12726498
-0.53118968 -0.72462231 0.02602956
0.43539008 -0.70266801 0.05412084
0.40676957 0.37700817 0.11801588
-0.53797030 0.76952595 0.06876837
-0.62001860 -0.55364943 -0.08179913
-0.44422054 -0.20436881 0.12202276
-0.86522305 0.38091829 0.00736197
0.18618257 0.07199556 -0.13475722
0.64635378 -0.32183841 0.12233776
-0.60818738 -0.55798692 -0.11445183
0.49994528 0.48759449 0.11767063
-0.86587197 -0.15789592 -0.02018344
-0.07293535 0.23145854 -0.13056123
-0.65721196 -0.14506227 0.11985870
-0.29506612 -0.73103189 -0.12936199
-0.53061360 -0.82795173 -0.10863882
0.05704821 -0.56631136 -0.13133436
0.58189327 -0.03252403 -0.13112479
0.84591520 -0.43088481 0.00501898
-0.25325829 0.62916040 -0.12870005
-0.48442227 0.58917123 -0.13184613
-0.72308987 -0.06621440 0.11866703
0.08808917 -0.47482157 -0.12865314
0.26530328 0.76176363 -0.13166478
0.05948073 0.29040030 -0.13130504
0.44155407 0.60178775 -0.12934014
0.32025170 -0.87215126 0.03697878
0.50840777 -0.71147323 0.10215005
0.80048150 -0.17965086 0.11778389
-0.72358423 0.02597407 0.12066229
-0.36476684 -0.86750144 -0.10916451
-0.48226786 0.68237251 0.11979919
-0.20631287 0.80299622 0.11885390
-0.31743729 0.13348889 0.11727708
0.30163163 0.73513138 0.11480410
0.08701534 0.51445574 0.12148918
-0.79192835 -0.44869229 -0.13518187
-0.46949181 0.57876414 -0.13358936
0.45306772 -0.71808910 0.03528965
0.68686259 0.29487875 0.11485460
-0.15061831 -0.26332602 -0.12953493
-0.75237173 0.51511985 0.06211317
0.72828901 -0.34337395 -0.13453922
-0.33489269 0.15241469 0.11280059
-0.10769083 -0.80413276 0.11534059
-0.86586869 -0.07097828 0.06775985
0.35557008 -0.34599090 -0.13048324
0.67980045 0.10787686 -0.12830091
-0.19395308 -0.15976852 -0.13107118
-0.58238453 -0.57820785 0.08093049
0.47380164 0.83585095 -0.12568352
-0.05286577 -0.32400629 0.11812245
0.76448429 -0.26185951 0.11719694
0.25412932 -0.08706248 -0.12882248
-0.68417287 -0.47234687 0.11464386
0.11434503 0.33451504 -0.12975833
-0.86165100 0.02671022 0.01124836
-0.40681744 -0.58150572 0.11990332
0.65019238 0.28602999 -0.12736475
0.51207161 -0.65120482 0.11166388
0.84474820 0.33020711 -0.01530833
-0.12927257 0.26964271 -0.12996900
0.41641822 -0.09384966 0.11920737
-0.15317412 0.42358875 -0.13103658
-0.51343846 0.22692949 0.11889061
-0.16391981 0.54261577 0.12093367
-0.14754690 -0.38923013 -0.13346183
-0.63999444 -0.43284497 -0.01203422
0.64869565 -0.09591138 -0.12673628
-0.11510175 -0.48275954 0.11654840
0.36872959 0.36893019 -0.12915817
-0.86270356 0.06412266 0.00168791
0.45547420 -0.68527037 -0.12283538
0.26106104 -0.39520371 -0.13637355
-0.86665523 -0.36740604 -0.04891930
0.53363270 0.04414123 -0.13177732
0.34462312 -0.87132686 0.04186904
-0.45216408 -0.06164527 0.12036823
0.74311769 0.38032502 -0.02789002
-0.86104023 0.24088097 -0.05470205
0.04969115 0.84034497 0.09823316
-0.40474674 -0.67190701 -0.12770081
-0.46785268 -0.86808372 0.00590072
0.41929108 -0.59230042 -0.12766066
0.46605954 0.62808663 0.12038333
-0.32771939 0.42394054 0.11824740
0.54704922 -0.44624332 0.12103494
0.30401069 0.75391120 0.11410631
0.32249579 0.77658749 -0.12918895
-0.53755563 0.73587292 -0.05148336
-0.57633865 0.55752379 -0.01972266
0.48148403 0.29721478 0.11759847
0.81256819 0.50395787 0.05363414
0.72644109 -0.24316052 0.11674029
-0.31403714 0.58900076 0.11987261
-0.47767246 -0.51134419 -0.13022247
-0.13745807 -0.58066612 0.11800559
0.68240768 0.06254967 -0.12964228
0.13933238 -0.79375070 0.11646105
-0.17154144 -0.86959177 -0.01412502
-0.77840513 -0.41195613 0.00726745
-0.10260642 0.83919597 -0.10980867
0.35054782 0.84000850 0.01185814
0.41555536 0.84558052 0.02652685
-0.37923059 -0.57622486 -0.13227865
-0.52601904 0.06135832 0.11644105
0.11419543 0.05706334 -0.12697199
-0.55368847 -0.62085789 0.04708885
0.50382853 -0.68224704 0.11955210
-0.56888515 -0.59697837 0.03207310
0.19031943 0.04652163 -0.13106874
-0.86403543 -0.39730555 -0.11389724
-0.84496778 -0.07656041 -0.12590334
0.38040733 -0.67481273 0.11835518
-0.02709761 0.09964181 -0.13553700
0.62791961 -0.53695303 0.08722068
-0.70642138 -0.26474652 -0.12922320
0.73417836 0.42442751 -0.09026070
-0.14825013 0.49519870 0.11852130
-0.76807112 -0.50904530 -0.13349801
0.26631114 0.17756571 0.11708734
0.84467113 -0.26301122 -0.05144481
-0.53222018 -0.74183649 0.03632044
0.84239012 -0.45063978 -0.01136915
-0.58971643 0.54613936 0.01865123
-0.40560561 0.59790242 -0.12121275
0.03938551 -0.80332577 0.11916343
-0.05719921 -0.70949334 -0.12735835
0.02526685 -0.86740690 -0.03371626
0.65912592 -0.51839375 -0.13706043
-0.80095685 -0.34026900 0.11759460
-0.22263980 -0.74762058 0.11776844
-0.04861755 0.73474872 -0.12491573
-0.46216762 -0.84292537 -0.13362917
-0.27607712 -0.09373128 -0.13425565
0.06219915 0.83469361 0.10872771
0.81789482 -0.44888917 0.11553535
-0.87029296 -0.36188406 -0.01222306
