-0.10358843 0.23065501 0.59543151
0.03457427 -0.16734497 -0.16776851
-0.22472462 0.13660957 -0.13632366
-0.16428880 0.20517603 0.23066637
0.00141460 0.35342038 0.60980695
-0.07191006 -0.16162133 -0.03439420
0.05533154 0.34987530 0.21295595
0.16451970 0.07645801 -0.69599551
-0.05671380 0.19640589 0.71365863
-0.07217053 -0.12393633 0.24379301
0.05453661 0.31035799 0.40549940
-0.08386274 -0.47227553 -0.87286943
-0.20525791 0.23219085 -0.35466957
0.15133633 -0.55083108 -0.78270131
0.10844098 -0.24856570 0.07503174
-0.19237086 -0.05250162 0.08618745
-0.22628990 0.04661697 -0.13751656
-0.09209146 0.24110177 0.69821256
-0.06709912 -0.19314247 0.12168957
-0.04511116 0.02579179 0.75775617
0.00724142 0.40941295 0.04117204
0.12835616 -0.13321957 -0.67003703
-0.17087005 0.18162677 0.24177033
0.06426228 -0.13262111 -0.68161511
-0.13462201 -0.00668821 -0.81912708
0.01428407 0.39016744 -0.40911412
-0.14716482 -0.48263517 0.09200991
-0.11547866 0.13601828 0.37903959
0.16524191 0.08042467 0.09908141
0.15957284 -0.05111628 -0.16999157
0.09993835 -0.24230590 0.13459602
0.10650061 -0.08900527 -0.37355936
0.17792083 0.17934844 -0.33818465
0.02868728 0.37923548 -0.12890247
-0.12059813 -0.44188535 0.01551130
0.07302216 0.12426934 -0.82242739
-0.09346535 0.34364235 0.30738345
0.10859118 -0.06021308 -0.47799373
-0.23240751 0.15913714 -0.28021005
0.19026025 0.11479257 -0.11690982
0.14302209 -0.02598004 -0.55381244
-0.04014954 0.09369238 -0.85793579
0.18262631 0.12747124 -0.03063425
-0.02279078 0.02725044 0.68457407
-0.09083606 0.14364183 -0.83942413
0.12279525 -0.50065994 0.11135462
-0.11111818 -0.38505560 0.10021528
0.16532442 -0.03178335 -0.19991109
0.13810261 0.32153481 -0.57151103
-0.10734079 0.29505169 0.30586809
0.09612231 -0.11465779 -0.10924517
-0.09597912 -0.13277268 0.01937660
-0.05715232 -0.50208688 -0.80275136
0.14007530 0.00584351 -0.73915052
0.16685133 0.09227827 -0.70073271
0.12946162 -0.17162058 -0.78496838
-0.20496063 0.02297369 -0.06112099
0.04967425 -0.52305317 0.14073731
-0.21460223 0.06143387 -0.08807867
-0.16396569 -0.21365380 0.05350415
-0.06494693 -0.53121173 0.11521138
-0.21362998 0.31570098 0.57115799
-0.11185119 0.35164908 -0.30034947
-0.16308935 0.23978832 0.18966365
-0.14976664 0.27502617 0.54365611
0.07977207 0.34560919 -0.73577625
0.02630851 -0.26495546 0.13322553
-0.08235126 -0.41932827 0.03427525
-0.05093405 0.06975502 0.51552200
-0.20221034 0.15866399 -0.02983726
-0.07489692 -0.53550267 -0.73192114
-0.07286560 -0.19546151 0.14367577
-0.15279071 -0.21765129 -0.75247216
0.05804047 0.01176421 -0.83699328
0.15319484 -0.53701031 -0.77661109
0.06751797 0.25028932 0.45962742
0.05418938 0.31726062 0.26179028
-0.13682006 -0.15002973 0.02369870
-0.10189545 0.29883367 0.38491386
-0.02225566 0.03618179 -0.79134983
-0.20433180 0.27055216 -0.50186181
-0.23219031 0.13093157 -0.32264146
-0.08396989 0.33946097 0.35697111
0.06180093 0.28754887 -0.82264835
-0.17720075 -0.07491337 -0.29079643
-0.05640539 -0.20426279 0.10522610
-0.09961548 0.19312909 0.44591218
-0.19690201 -0.02380029 -0.39824933
0.12536974 0.27525595 -0.74165595
0.08701157 0.17556241 0.57375658
-0.19466966 0.01296099 0.08455040
0.05946057 0.31077790 0.37022024
-0.12094669 -0.10387154 -0.02490041
-0.18762733 -0.12775624 0.07986788
-0.04251819 -0.05655698 -0.70315695
-0.10337079 0.07835710 -0.82330227
-0.21593758 0.22364575 -0.32080168
0.08581246 0.34070003 -0.17626645
-0.18707608 -0.06348378 -0.67041183
-0.09752568 0.30323276 0.35077196
-0.00058400 0.01026380 -0.79192036
0.08430679 0.15473574 0.55779368
-0.03626749 0.40455979 -0.62163961
-0.12883627 0.32496050 0.06336302
0.14171655 -0.00013519 -0.51883382
0.13854314 -0.04922742 -0.32048199
0.21957766 0.34892240 0.54256046
0.04640464 -0.17201354 0.04463664
-0.09007624 0.34850681 0.33161834
0.02591711 -0.05949027 -0.64257437
0.00120445 0.39148483 -0.75080198
-0.13146023 0.32202435 0.03922988
0.14584130 0.18760955 -0.74432826
-0.02904315 -0.02209955 -0.73277593
-0.11760419 0.37504557 -0.43128860
0.11902592 0.26538017 0.09082124
0.00989226 -0.19024250 -0.22147170
0.15670577 -0.05847289 -0.19589181
-0.16800316 -0.08457331 -0.26678771
-0.15548705 0.35200065 -0.59544694
0.00880382 0.40422618 -0.04636182
0.08994400 -0.29252326 0.05179357
-0.11665277 -0.12181772 -0.04519654
-0.03570665 0.15813014 -0.86170602
0.01385879 -0.37115726 0.09322589
0.16425967 0.02769541 -0.33415174
0.12190507 -0.22450168 0.09926989
-0.16359599 -0.08460626 -0.12709320
-0.04722108 0.34909824 0.45533347
0.13864221 -0.07855921 -0.25365266
-0.14153491 -0.45861182 -0.80630440
-0.19122547 0.25254631 -0.09143606
0.05333390 -0.13347019 -0.69464219
-0.00791000 0.00095818 0.72545117
-0.19407305 0.26722893 -0.28712073
-0.17111212 -0.09570414 -0.65028387
-0.03110323 -0.19733725 0.20735309
-0.04681645 -0.10613313 -0.52708119
-0.21429659 0.19393197 -0.13781446
-0.07520906 0.31821439 0.62599427
0.08904338 0.32276219 0.07965904
0.03526144 -0.03241453 -0.80100590
0.01091690 -0.17129168 -0.15193002
-0.06191882 -0.15396643 0.24109906
0.07853547 0.34973019 -0.35917696
-0.11607515 -0.10654336 -0.00879093
0.17572722 0.19792402 -0.62428337
0.11023007 -0.09985530 -0.31805903
0.02179807 -0.28892434 0.09484354
0.13130710 0.26236397 -0.04523138
0.03804855 -0.54891288 0.11597221
0.13164087 -0.05512826 -0.08418110
0.14455086 0.15893055 -0.74707085
0.01707558 0.39507851 -0.57983673
-0.08725750 0.35634342 0.23484272
0.07619252 0.17651156 0.42353043
0.04477529 0.31180447 0.48088688
0.15642926 0.23020896 -0.69616342
-0.08111212 -0.33344668 0.10726182
0.16726412 0.04406175 -0.68649656
0.17954446 0.18217230 -0.11318801
-0.09993674 0.36996731 0.02354585
0.07883044 0.24120843 0.69197369
0.08645798 -0.19388962 0.18585254
-0.07862203 -0.53888583 0.13249975
-0.11172429 -0.16053018 -0.21662734
0.18539140 0.31440422 0.53564501
-0.08547901 -0.14562121 -0.32200524
-0.14278877 -0.09398124 -0.10417932
-0.13072848 0.21514383 0.31499866
-0.14446437 -0.10844181 0.20064734
0.15102670 0.34307429 0.53972083
-0.07037318 -0.19009489 0.07644600
0.14145149 0.23087379 -0.74978989
0.12738895 -0.05375757 0.03660737
0.14763615 0.18173602 0.01569370
0.15344959 -0.50372064 -0.79984510
-0.17969474 0.20983049 -0.77139086
-0.18805084 0.07214956 -0.73933852
-0.01223283 0.02583852 0.79270977
0.07273810 0.15255451 -0.82835674
-0.19161168 0.06232345 0.22423010
-0.10613295 -0.03393719 -0.81209368
0.18090732 0.16034850 -0.06653166
0.01693735 0.35321513 0.54149669
0.14818385 0.14575741 0.08600889
0.04090939 -0.08070161 -0.67737681
0.04034654 -0.25072199 0.06086695
-0.06850630 -0.47671485 -0.77425051
0.14571360 -0.11484824 0.15505408
0.15878424 0.01200087 0.09024445
0.01894995 -0.05336503 -0.71599972
0.15621217 0.21028274 -0.69038451
0.11545417 -0.25194758 -0.73758721
-0.19947924 0.07860857 -0.48764053
0.16980968 0.09430389 -0.67633116
0.06060129 0.29656684 0.53595155
-0.03221178 0.22620419 -0.87077999
-0.05698701 -0.18952173 -0.24729659
-0.20887323 0.00613292 -0.63916588
0.03135106 -0.51897448 0.07643744
-0.12174063 -0.11218397 -0.07878174
0.00753078 0.35518977 0.57758623
-0.13733056 -0.55850434 0.04086895
-0.13000841 -0.47746092 0.11079241
0.10892715 -0.10458301 -0.17656888
-0.08267066 -0.28481263 0.13158673
0.14077340 0.28112233 -0.22267330
-0.21509838 0.21178693 -0.56357902
-0.09135987 0.00691100 0.32972917
0.00495290 0.00236403 0.71211469
0.05594757 -0.53430414 0.02477808
-0.13924932 0.37119591 -0.53887200
0.18993182 0.06260346 -0.29221857
-0.08934157 0.36200806 -0.04922239
-0.19529517 0.00893455 -0.58022618
-0.16888037 -0.16853443 0.05771977
-0.09700621 0.38009453 -0.66678393
-0.01672675 0.35917518 0.46329638
0.15969768 0.22546002 -0.49719104
-0.02441877 -0.19286561 -0.19168672
0.09439317 0.25937733 0.24389455
0.08744914 -0.43935257 0.08013603
-0.13690472 0.19193804 0.31477439
-0.11131394 0.35252747 -0.28376827
-0.19757186 0.03600490 0.07933041
0.16371746 0.02195893 0.12883708
-0.11640172 -0.11785585 -0.83188331
0.11587436 0.26136824 -0.79275185
0.04636444 -0.07268706 -0.62807417
0.04411926 0.33919415 0.21826832
0.12859546 -0.38078734 -0.83105481
0.08989099 0.24176964 0.66519445
-0.09702677 -0.20339182 -0.87543797
0.07992586 0.14159682 0.38508084
-0.01930056 0.00522318 0.74900681
0.02182882 -0.17680973 -0.20035653
-0.15309463 0.26588362 0.18198200
-0.11079389 -0.17890793 -0.86506009
0.04061951 -0.07308311 -0.57284594
-0.12080182 0.34513268 -0.76269257
-0.08034641 -0.46692625 0.07010728
-0.10751889 -0.46351102 -0.86292320
0.03177440 -0.17712550 0.06097282
0.00881033 0.38858894 -0.36403820
-0.06216532 0.22371593 0.70938408
-0.06659950 -0.34410185 -0.81632233
-0.07584681 0.07992074 0.39909571
0.16713126 0.20798922 -0.46908846
0.09610813 0.21532828 -0.81003726
-0.17650484 -0.07995990 0.04812943
0.07247632 0.01024880 0.70617330
0.09141430 0.10362893 0.34960136
-0.04918699 -0.06755370 -0.71837807
0.12839136 -0.07612091 -0.60713893
-0.04341527 0.40036607 -0.52354038
-0.07792240 0.20210269 0.69524491
0.12509656 -0.16309738 -0.70990390
0.11766708 -0.04042850 -0.51269913
-0.00825026 -0.21888280 0.17979112
-0.16260113 0.25303692 0.13314599
0.09039164 0.37731266 -0.48332641
0.15197672 0.24660966 -0.36860073
-0.15661286 -0.10673239 -0.32258415
0.00503143 0.25562483 -0.83435225
-0.18240203 0.16125423 0.06118762
-0.19593294 0.05799504 0.09748644
0.04518574 0.39057741 0.09725430
-0.06734557 -0.02587015 -0.79050487
0.07525358 -0.51771724 0.01598545
-0.14408655 -0.37222457 -0.82451618
-0.01650060 -0.19041838 0.02023442
-0.00699035 -0.19496448 0.03229652
0.11572493 0.21962646 0.25951228
0.05460827 0.27620137 -0.81773764
0.00463030 -0.20692205 0.19037448
-0.09372833 -0.08249257 0.25497466
-0.07285038 -0.24348097 0.13425907
0.02372595 0.39001024 -0.65063071
-0.07068500 -0.13003774 -0.78666538
-0.08355780 -0.14189240 0.18520027
0.16969788 0.19708771 -0.64178878
-0.21720213 0.02969878 -0.34338123
0.01970425 -0.33131948 0.12170079
-0.23739785 0.06310295 -0.25687447
-0.05278657 0.38494435 -0.06108829
0.06644614 0.10965234 0.79440862
0.16568065 -0.03840028 -0.14006945
-0.02204907 -0.04510058 -0.68986344
-0.14455660 -0.45980823 0.07609866
-0.15097363 0.06553093 -0.78740090
0.07362283 0.05002440 -0.81220669
0.03170274 -0.31365526 0.04938506
0.19841920 0.08299103 -0.22804853
0.01087846 0.01552887 0.37629151
0.07542305 0.10294819 -0.82494760
0.19779126 0.11808151 -0.56198758
-0.07530157 0.37438729 0.21612865
-0.12984447 0.28515187 0.23941132
0.03352094 -0.53813255 0.06712439
-0.06171140 -0.14156826 -0.74134749
-0.08253448 0.31987277 0.41877097
-0.04524301 0.39111876 -0.79247367
-0.07779513 -0.15293258 0.17738193
0.11517362 0.35623077 -0.47768950
-0.17342250 0.20348820 0.11570799
0.14503331 0.19246864 0.04982415
-0.15616319 0.25393823 0.16709432
-0.14020211 0.08180003 -0.79547054
-0.00873264 -0.12152545 0.30821806
0.13716382 -0.13970485 0.08236818
-0.16799757 0.34444806 -0.49487260
-0.16833970 -0.13191716 -0.72482455
-0.18132770 0.13353218 0.23186132
-0.17619216 0.33978298 -0.50741547
0.01543149 0.05827856 0.82643974
-0.12745932 0.36280409 -0.66925663
0.16434947 0.16603796 -0.41349334
-0.18116507 0.32417616 0.58641660
-0.09184986 0.24069402 0.68195069
0.00156611 0.18523878 -0.84483778
0.19760522 0.09379169 -0.24713480
-0.10966983 -0.30053231 -0.85274315
0.04306442 0.36365983 -0.29121417
0.01389474 -0.19194765 0.17212480
0.03488186 -0.15720278 -0.05676949
-0.10930555 -0.51510364 0.00448688
0.07189470 0.24093744 0.56343567
-0.21880658 0.10769711 -0.39791206
-0.13926908 -0.14335164 -0.80394506
-0.06422426 0.37373725 -0.22093317
0.08701497 -0.12604448 -0.28639409
-0.17173383 0.23210627 0.01653127
0.16179082 0.24334994 -0.27228156
0.09700970 -0.26803476 -0.84360123
0.12550041 -0.45746028 -0.83768451
-0.04905700 0.29273167 0.68734062
-0.00522188 0.39030471 -0.10309763
0.04305408 0.37444216 -0.18652453
-0.17110230 0.26179382 -0.03660017
0.13807392 -0.07579627 -0.15777293
-0.14374787 -0.06392941 -0.45047748
-0.15118316 -0.16608994 0.03515626
0.11841826 -0.04391097 0.24033341
0.09087029 -0.49692953 0.02396531
-0.19153872 0.07852060 0.23756483
0.19510207 0.28926575 0.50732130
0.15020628 0.14414969 0.16558245
-0.12739843 0.27760720 0.56079620
0.04501722 0.28519112 0.68147320
-0.12823616 -0.12064517 -0.11076796
-0.01176447 0.38643694 -0.36161566
-0.01140744 -0.18151498 0.00114531
-0.05109124 0.37594900 0.31210545
0.15678978 -0.04537339 0.08922730
-0.06281125 -0.19303295 -0.76366699
-0.22732617 0.17655668 -0.21390060
0.19787169 0.09317809 -0.54542345
0.09700319 -0.05458627 -0.52113080
-0.11388876 -0.49783003 0.00644995
-0.05681877 -0.17601594 -0.11822467
-0.03536803 0.38503951 -0.28160229
-0.14380433 -0.03113322 -0.81426024
-0.08137734 -0.33282581 0.02930414
0.00608967 -0.18011481 -0.35874498
-0.05797083 -0.19145653 -0.23051807
-0.14002372 -0.12036137 -0.25888628
-0.11438353 -0.30695170 0.12064287
0.03473678 -0.54463148 0.10156468
0.05999746 0.37823528 -0.43337980
-0.09865878 0.39185649 -0.56101298
-0.11809278 -0.50089288 -0.85868919
0.19148576 0.08796217 -0.30481762
-0.00624026 0.08010662 -0.86510986
-0.10929076 0.34833592 -0.14080456
-0.16201618 0.11144094 0.30788693
0.08007276 0.35047591 -0.28052378
-0.03944888 -0.20767485 0.19638060
0.13762282 -0.19230255 -0.76482809
-0.12927908 -0.33272156 0.04536762
0.06122797 0.35441810 -0.07951540
0.18277636 0.06809625 -0.05794338
0.12740259 -0.28834236 -0.82738435
-0.01377278 -0.21128432 0.11013991
0.13295814 -0.58486056 -0.78211355
-0.15056099 -0.52489126 0.12886187
0.02623037 -0.27783406 0.12749386
-0.05091140 -0.18024179 -0.16009559
0.16266562 0.08903801 0.12737282
-0.15922534 0.06062159 0.31539297
0.07585517 0.18929261 0.52763778
0.18011135 0.10720497 -0.01107885
-0.07563387 -0.48662585 -0.85075945
0.11580638 -0.27371085 -0.73973620
0.08738525 0.33985355 -0.19407482
-0.16727382 -0.04302748 -0.42839751
-0.09971280 -0.57365048 0.08117370
-0.18622103 0.02435371 0.25774381
0.18418898 0.05865304 -0.61370784
0.12983753 -0.18064387 -0.71536922
-0.15798371 -0.31778193 0.06106693
0.00510634 0.02329677 -0.82950395
0.18357660 0.02637798 -0.14770076
0.15466861 0.00081581 0.19697751
0.10962002 -0.18363380 -0.70004714
-0.15049471 0.14283444 0.31379673
0.11242630 0.03963365 -0.77680528
-0.18555459 0.02658691 -0.49276522
-0.21442875 0.11433509 -0.51557207
-0.07882591 -0.17021778 -0.18220952
-0.01192339 0.39574909 -0.53516185
-0.10209035 -0.13591018 -0.08414672
0.03046932 0.00966331 -0.84825695
0.04568453 0.09350720 0.46817979
-0.09304119 -0.30660340 0.01756611
-0.22244807 0.00728162 -0.27691913
-0.22758113 0.16716447 -0.15580034
-0.09384415 0.26629788 0.67718232
0.05107018 -0.05141844 -0.79953098
0.09366976 0.25227857 0.26875916
0.12869519 -0.18547046 0.08227629
-0.04364356 -0.19614670 -0.22925203
-0.20158620 0.26918897 -0.45686126
-0.19405645 0.01982655 0.19747330
0.17610465 0.10006616 -0.37012863
0.07942215 -0.55214906 -0.79214525
-0.09345193 -0.56075370 -0.69914728
-0.09664063 -0.36767367 -0.76762712
-0.12587535 0.32640624 -0.03786171
-0.11584930 0.37946996 -0.59922683
-0.16615380 -0.13609543 -0.75293398
0.08366068 -0.00391322 0.31490368
0.09172498 0.08469182 0.73313850
-0.10875729 -0.50931299 -0.84564894
-0.05010931 0.39785713 -0.62338430
0.09870528 -0.52069139 -0.83055049
-0.07137444 -0.37659645 0.05197150
-0.06879473 -0.15759492 -0.04749859
0.11346307 -0.47799900 -0.74192423
0.16313975 0.11974946 -0.70217156
0.04014977 0.36928931 -0.07431433
0.19712581 0.07864222 -0.51902258
-0.01332631 -0.13774663 -0.47606888
-0.03913674 -0.17957589 -0.41544899
-0.00442544 -0.06270379 -0.64365035
-0.01230795 -0.21850960 0.12552418
-0.21979769 0.19207579 -0.57995188
0.05454206 0.33732873 0.61654043
-0.06928572 -0.16738933 -0.31497878
-0.20626312 0.05133719 -0.51778322
-0.06964038 0.36795750 -0.25650287
0.10384759 -0.10024625 -0.82879692
0.06834097 -0.38260075 -0.81680322
0.04630901 -0.54963660 0.15069173
-0.15660790 0.29487288 -0.07844651
-0.12592047 -0.16695537 0.17300282
-0.21575090 0.05438246 -0.60091323
-0.15460978 -0.17963740 -0.75958008
0.14315285 0.27723622 -0.13449836
-0.15639712 -0.07193036 0.01691148
0.07982681 -0.13042749 -0.84142959
0.04408158 -0.40708157 0.04059116
-0.02989447 0.25724497 -0.87341017
0.02401822 -0.36134839 0.05323156
-0.12606016 0.37624556 -0.56321365
0.16147535 0.29103935 0.50619304
-0.22176008 0.00504719 -0.20434815
-0.15162607 0.04203908 0.30706874
0.13288307 -0.53409660 -0.82187098
0.02805392 0.39168182 -0.05911674
-0.19975989 0.03751193 0.16096248
0.02036678 0.21660590 -0.84258491
-0.10980695 0.38755748 -0.57879347
-0.09667809 0.17841256 0.52939045
0.15071799 -0.47741288 -0.81128019
-0.16581774 -0.06664214 -0.10465738
-0.17482136 0.20149302 0.14034881
0.10360365 -0.39727622 -0.85612649
-0.19161655 -0.01456004 -0.59920233
0.13671872 -0.06908240 -0.27596760
-0.16208866 -0.55889630 0.06417048
-0.03818439 0.29405171 -0.83534622
0.04739670 -0.00586716 0.70549738
-0.00261664 0.00268399 0.69791847
-0.03475710 0.35889199 0.48288560
0.13146628 -0.42574114 -0.76484388
-0.20829403 0.24566460 -0.48874620
0.05665220 -0.49032024 -0.78380793
-0.12183506 -0.10290639 0.00345789
-0.18274824 0.14638494 0.14611740
0.07196467 0.21774104 0.49283040
-0.11841716 -0.29844040 0.03363315
-0.20916606 0.22017667 -0.63968515
0.16643968 0.05968352 -0.42718858
-0.14349365 -0.41324541 0.05869845
0.19458738 0.07075280 -0.13885045
-0.20333999 0.18250597 -0.68937516
-0.07208990 -0.12304696 -0.69312930
-0.11078072 -0.11616986 0.01883394
0.18434805 0.17800370 -0.13265796
-0.22697304 0.17453057 -0.17604955
0.11513574 0.35941270 -0.45995095
-0.07477763 -0.14179328 -0.69580644
-0.18362045 0.29767281 -0.63334095
-0.07133318 -0.24195966 -0.82781398
0.07386997 -0.23975250 -0.85976714
0.04662638 -0.16785255 -0.77910376
0.13068888 -0.14106153 0.17664926
0.12446381 -0.40791309 -0.78443325
-0.05670752 0.00487503 0.36222982
0.13062677 0.35275516 -0.50468707
-0.00759686 -0.16035527 0.29384404
0.12032869 -0.03095332 0.25622010
-0.13969679 -0.12009390 -0.27635714
0.04357273 -0.16931096 -0.24049810
0.10880938 -0.11142504 -0.81964535
-0.15126121 -0.32208931 0.09777161
-0.17976971 0.17960310 0.09589224
-0.08375029 0.25087306 -0.83172017
0.09555864 0.06679294 0.81241709
-0.20115225 0.25633997 -0.34525672
-0.08680758 0.34929985 0.25434470
0.00846289 0.39443728 -0.59899354
0.18097681 0.00852624 -0.15123126
-0.16570412 -0.25078762 -0.80210191
0.00865080 -0.19730526 0.21650259
0.17524263 0.18469763 -0.08105877
-0.07199970 -0.04349837 -0.78441995
-0.04623025 0.40376219 -0.74385709
-0.03205510 -0.15360980 -0.45474064
0.06853313 0.35392970 -0.23589937
0.09123960 0.22544244 0.33595803
-0.18450955 0.00850601 0.23884800
0.18226366 0.15548716 -0.61960346
-0.18306659 0.13377829 0.18322419
-0.13266504 0.06284243 -0.80752087
0.01892217 0.39384666 -0.52639580
0.12963821 -0.19386026 -0.74121875
0.12260506 0.23481813 0.18245170
-0.03814121 0.39186844 -0.08631192
0.03114562 0.37137866 -0.29924741
-0.03447317 0.37613657 0.33430973
-0.00816600 0.01850715 0.66305798
0.01651177 0.40058163 -0.61741853
-0.10495711 0.06122574 -0.82531339
0.18993770 0.03311656 -0.15942085
0.11147290 0.16548845 0.31472760
-0.21101111 0.22502318 -0.30518448
-0.09587033 0.35999730 -0.14778154
0.13432771 -0.02555917 -0.00193246
-0.13930266 0.33975309 -0.75120288
0.12130208 -0.04404253 -0.43929198
-0.08737773 -0.22583929 0.03092748
0.10790182 -0.20774266 0.16059400
0.14607388 0.23970127 -0.34872487
-0.02827518 0.29451644 -0.86699241
-0.09864935 -0.39499879 -0.76856524
0.04876532 -0.17500760 -0.72718853
0.14896215 0.16272032 0.12879504
0.18412296 0.03964266 -0.09392209
-0.16866219 -0.04087567 0.00840718
-0.15052909 -0.51981115 -0.77784687
0.15599890 -0.04159131 -0.11516456
0.14387044 0.13105598 0.23934919
-0.15367743 -0.08321698 -0.79436308
0.15057486 0.25740987 -0.30980986
-0.05384890 -0.02200718 -0.76808286
0.05569218 0.00582880 0.34824723
0.15540758 0.25727198 -0.22877413
0.03498066 0.08680047 0.42764845
-0.17166120 -0.21542396 0.07220540
-0.01334000 0.05464205 0.48222059
0.01004880 0.34377924 -0.80640543
-0.02997420 0.40897897 0.14213975
-0.02657151 0.39985952 -0.64706379
0.15068913 0.13864933 0.18214233
0.04147105 0.07847178 0.38946566
0.10627206 -0.28082496 -0.84560639
0.12894800 -0.12645477 0.05934528
-0.02475392 -0.19030985 0.06495503
-0.18263838 0.02210359 0.04280184
0.05887231 -0.56123590 0.16271210
0.02603685 -0.23997591 0.10588743
-0.03763118 0.40252510 -0.58754778
-0.16727163 -0.10121392 -0.74771893
0.12706126 0.16117720 -0.77458483
-0.04808139 -0.13388981 -0.45738211
0.09452256 0.28384706 0.21768238
0.02294440 0.33014941 0.53169656
0.08308595 -0.33078557 0.13198727
-0.08016791 0.28131381 -0.82423437
-0.16431141 0.33908111 -0.65491444
-0.10593763 0.11404262 0.38383883
0.05738693 0.34750718 -0.75355923
0.08076555 -0.29019129 0.14884646
-0.00687009 0.24752218 -0.85009640
-0.09583842 0.39181834 -0.51740587
-0.15276209 0.27869105 0.58006740
0.03722470 0.35844824 0.28099072
0.00465853 0.39128417 -0.69136691
-0.08047370 -0.45345241 0.04437987
-0.05660055 -0.18386076 -0.17456874
0.15694608 -0.06430228 -0.69875026
-0.08438885 -0.34468991 -0.85184336
-0.14940821 -0.02837642 0.25839612
-0.05273456 0.07277134 0.46658799
-0.09441654 0.16267872 0.60358351
-0.17886953 0.28888753 -0.70083207
0.15840304 0.22036895 -0.47508657
-0.11057039 0.32938373 -0.80112922
0.01400146 0.38386521 0.29310903
0.02090680 -0.16715971 -0.05425430
0.06249142 -0.46400261 -0.76778865
0.07502496 -0.48960319 -0.83853209
-0.10362541 -0.15329468 0.18454118
0.09258005 0.14675599 0.36370796
0.14546604 -0.06867156 -0.17929724
0.06044763 -0.15762924 -0.25406587
0.01154654 0.38243011 -0.14562458
-0.05519237 0.40328339 0.15431578
0.07577835 0.26698112 0.34727576
0.14461774 0.00010214 -0.50491941
-0.23302150 0.10794903 -0.30779654
0.08836068 -0.17543405 -0.68671995
-0.04977853 -0.16617572 -0.04381395
0.16098019 0.10395862 0.14585829
0.05314392 -0.37582311 0.11778457
0.13995768 -0.04705328 0.20713992
-0.14363578 -0.43986842 0.08337774
0.09420680 0.05349876 0.79940498
0.17786665 0.00694484 -0.24641539
0.03250893 0.37584096 0.25174886
-0.11694483 -0.18457520 -0.69023907
0.09371151 0.36501572 -0.60495806
0.06949219 -0.56260431 0.05233417
-0.03736310 -0.16119409 -0.43431169
0.03504105 -0.01413844 -0.84406048
-0.00961643 0.36278319 0.47974783
0.03665061 0.06994681 0.50364566
-0.14246769 -0.01065078 0.27608961
0.15151171 0.16235256 0.09075150
0.15714496 -0.05782988 0.14078727
-0.09440111 -0.42366478 -0.77021194
0.09928854 0.03357014 0.78019828
0.07148941 0.31693834 0.19115634
0.08916161 -0.12258839 -0.30025029
-0.18395376 0.33073077 -0.53182465
-0.12033998 -0.12378739 -0.36007780
-0.21043673 0.02029534 -0.10858426
-0.15673827 0.29312718 0.58692372
0.08392213 0.17585087 0.67416638
-0.23731214 0.05049938 -0.24048734
0.10818641 -0.38489267 -0.83826840
0.16448863 0.07340126 -0.41209006
-0.20684081 0.24483395 -0.44988632
0.05504928 0.31264710 0.56000280
-0.07467075 -0.49601278 -0.75398040
0.13330330 -0.14200169 -0.69498205
-0.15608834 -0.24786170 0.08093338
0.13882768 -0.55248070 -0.78850704
-0.07872843 -0.34442216 -0.77561337
0.06157305 -0.48015165 -0.84306616
-0.07583809 -0.39345303 0.07193068
-0.04253067 -0.06737153 -0.65676582
0.03093662 0.29659432 0.68103576
-0.15041135 -0.15172797 -0.68271703
-0.16078235 -0.09781601 -0.30020863
0.04262072 0.34041601 0.33285689
-0.14523992 0.29589438 -0.00457724
-0.12969962 0.32979998 0.01587000
-0.10441720 0.19290003 0.58607966
0.04099575 0.31006506 0.49474525
0.18061621 0.03320266 -0.06139208
-0.12369319 -0.47845659 -0.76010633
-0.20265768 -0.02428423 -0.15069152
0.14593156 -0.01858132 -0.74673730
0.00917788 0.08370876 0.82013065
-0.10464991 -0.27634233 -0.85306537
0.10193723 0.03155416 -0.78799075
0.10796919 0.35513476 -0.55262291
-0.13995969 0.37414369 -0.46789214
-0.05342105 0.37726116 -0.13401797
0.16073364 0.14808370 0.02544114
0.04979014 0.38867790 -0.49684939
0.07762465 0.04172641 0.82060266
-0.22579311 0.10835417 -0.35225347
-0.08178858 0.14549312 0.64519531
0.02482984 -0.21468450 0.15922102
-0.01481284 0.01060519 0.77912748
-0.18375796 -0.06303732 -0.35543329
-0.06188545 0.08430378 0.66677368
-0.15761572 -0.10498746 -0.63055557
0.14811857 0.18884423 0.07815763
0.16249898 0.23344189 -0.66910702
-0.10497465 -0.56735706 -0.81917083
-0.05581730 -0.00591423 0.34917033
0.00284080 -0.17294130 -0.13629046
0.13280796 0.31369621 -0.41579908
0.05442984 0.27873313 0.49147052
-0.07235465 -0.21772771 -0.82999152
-0.18012823 -0.00994207 0.04873068
0.07586547 0.13581705 0.74584192
0.19280306 0.08085579 -0.12242763
-0.05044992 0.35839531 -0.80964649
0.15329218 0.01199116 -0.71278274
0.05164488 -0.30563962 0.13882849
0.04843411 -0.01303069 0.77898777
0.19011670 0.17168340 -0.25205445
-0.18077913 -0.06990648 -0.26290691
0.07385104 -0.12000228 -0.34652460
0.12946679 0.23720419 0.04088214
0.08578226 -0.04190103 0.28423113
0.10563099 0.35491613 -0.44240198
0.07872492 -0.56160212 0.16819473
0.01417745 -0.23614772 0.08709595
0.04191673 0.36683318 -0.22054681
0.17641580 0.03135947 -0.59233952
0.12206502 0.29230466 0.51075035
-0.13830505 0.03798453 0.31622094
0.17686096 0.00688625 -0.13441472
0.16752371 0.05023832 -0.37800699
-0.11071707 0.34940603 -0.16759405
-0.22422969 0.14823370 -0.39637250
0.14101666 0.27114478 -0.10763463
0.13776919 -0.04722493 -0.57596451
0.17963186 0.32426661 0.51000506
0.07154072 -0.22798255 0.16465934
0.18252304 0.19165105 -0.24807678
0.08684948 -0.14552599 0.19383612
0.06800323 -0.37979633 -0.77017725
-0.20532192 0.30011478 0.59309953
-0.13694339 -0.09266995 -0.07914123
-0.12925701 -0.06420702 -0.61530280
-0.20691046 -0.02554543 -0.18157464
0.04560817 -0.40349925 0.12135053
-0.01231420 -0.12688437 -0.50428021
0.01593333 -0.15441248 0.28334898
0.03079024 0.34342518 0.59159416
-0.06582782 0.40290418 0.09909645
-0.01808418 -0.22727685 -0.30475965
-0.18945552 0.08834782 0.20715943
-0.20382057 0.24967700 -0.31886503
-0.14320779 -0.50225627 0.04781397
-0.17113902 -0.56113869 0.08621269
0.04830452 0.07923451 0.52146125
-0.23147085 0.14319025 -0.20743315
0.06827938 -0.16016519 -0.69281429
0.16121797 0.14423090 0.04573384
-0.16443510 0.24414697 0.09936382
0.15396680 0.02213802 -0.41678026
-0.04373609 0.01714220 -0.79282314
-0.14645517 0.15887284 -0.80966449
0.03812762 -0.47158504 0.10384780
0.08365525 0.08965930 0.71505415
0.04777764 -0.14582574 -0.09336437
-0.12610428 -0.12952256 -0.15193470
-0.07265503 -0.31859899 -0.79994798
-0.19825736 0.09514162 0.01190554
0.06840346 0.37244523 0.03190904
-0.02321295 0.03508137 0.57840872
-0.19240856 0.07991885 0.02227975
0.15578660 0.05342576 0.23971367
0.14134035 0.30165589 -0.59935343
0.08241422 0.22912157 0.34818885
0.17705365 0.21076441 -0.23005073
-0.14115345 -0.47748509 0.04206416
-0.09926606 -0.27069610 0.13559149
-0.13458297 0.30875087 0.09474998
0.17847520 0.05069365 -0.64024121
-0.08881995 0.22359413 0.67862600
-0.01704462 0.40738434 -0.66912800
-0.17344318 -0.09755033 0.03951826
0.19612458 0.29018828 0.52818394
-0.14339693 0.32223070 -0.13898613
0.12466021 -0.53754795 0.07788963
-0.14182684 0.26750731 0.22319113
0.13307323 -0.26370615 -0.75263178
-0.15669677 -0.07319094 -0.06215757
-0.03168853 -0.04215338 -0.71045285
0.04363525 -0.16781572 -0.26910758
-0.15453646 -0.09756473 -0.77927977
-0.22774400 0.03620321 -0.16249613
0.03591351 -0.07188328 -0.79357535
0.05955849 0.34517074 0.19820835
-0.05968562 0.17862555 -0.85466629
-0.13650697 0.19551590 -0.81572473
-0.06374106 -0.31848752 0.09696153
-0.07493649 -0.40347886 0.05165948
-0.19847167 0.11114097 0.01232284
0.02454466 -0.39250359 0.06755949
-0.17168103 -0.02761758 -0.44976854
-0.21262884 0.24313548 -0.50908738
0.15856019 0.22436142 -0.36399841
-0.12257370 0.15101255 -0.81638318
-0.20348690 0.01169968 -0.62415123
-0.10275692 0.35469395 -0.20861568
0.08608697 -0.21572617 -0.70836419
0.07075118 0.27727419 0.39720860
-0.04153957 -0.21764822 -0.33246034
-0.11144670 -0.23377408 0.03509612
0.09700094 0.20039707 0.32862547
0.04224112 0.03052121 0.63214529
0.17189351 0.18546924 -0.49307802
-0.04464601 -0.21477731 -0.28566918
-0.21567832 0.20885238 -0.53379542
-0.07231422 -0.45705965 -0.77548474
0.09196493 0.33495784 -0.72760952
-0.18227756 -0.04670538 -0.72526520
-0.05140050 -0.11948566 -0.47819251
0.16461158 -0.01222846 -0.31306785
-0.01005705 -0.18159293 -0.07073301
-0.08275406 0.10744537 0.50893193
-0.00827929 -0.17913727 -0.10446814
0.01408524 -0.09547635 -0.55836636
0.10005525 0.27460966 0.14871073
-0.23456272 0.09681413 -0.22241728
0.13855591 0.29890642 -0.42325857
-0.06336866 -0.18210229 -0.26895016
0.13586195 0.02774906 -0.74872065
0.15394503 0.11456737 0.16691494
0.17905836 0.14846629 -0.08634666
-0.08599285 0.03311671 -0.83055693
-0.06556697 -0.33622667 0.04870324
-0.04545625 0.22958931 0.71353185
-0.18471712 -0.06267327 -0.22406563
-0.08527952 -0.19883351 -0.84378779
0.15773077 0.24447373 -0.45523372
-0.11440974 0.28983045 0.56317383
-0.03089465 0.06924000 0.44545165
0.09838207 -0.51278019 -0.84215224
0.09150657 0.12308009 0.65046299
0.18968557 0.03340604 -0.21607229
0.17118169 0.06856294 -0.34114072
-0.19019766 0.27751794 -0.39019576
-0.02618414 0.05771889 -0.85971868
-0.04159373 -0.18325135 0.21388166
-0.23061086 0.06087781 -0.16691843
-0.21373126 0.04495141 -0.36967424
-0.11721420 -0.57242441 -0.68603200
0.07691383 0.15367763 0.70876229
-0.19595529 0.23113564 -0.70683491
0.05036672 0.09730105 0.81447065
0.07928142 0.12512371 0.37814116
0.05600446 0.38336420 0.04358874
-0.16719410 0.25937903 0.01469278
0.00725511 -0.21741188 0.16658376
0.00006612 0.37570626 -0.77003688
-0.17160283 -0.01732500 -0.54393774
0.18344577 0.03625359 -0.28908223
0.07575811 -0.32518250 -0.83756316
0.17268993 0.31333214 0.54240733
0.02381599 -0.39438733 0.04881434
0.06543647 0.27219015 0.48135459
0.06227879 -0.43412745 0.02917220
0.10046377 -0.10367597 -0.32831261
0.03030845 -0.42666313 0.07288088
0.01880343 0.36673030 -0.24945651
-0.03799973 0.02922732 -0.78944004
-0.09385246 -0.49656904 0.00197061
0.12585489 -0.14923209 0.05715643
0.20958179 0.33062431 0.52552480
-0.06308773 -0.13329928 -0.76015627
0.15076683 -0.07158095 0.08677756
-0.10677558 -0.56324112 -0.71049064
0.16022862 0.04360459 -0.46784425
0.07468314 0.25969273 0.37808913
0.15086441 -0.51928389 -0.77844369
-0.19017635 0.27478459 0.56002772
0.17382793 0.16421042 -0.48756710
0.16995203 0.07720500 0.04578390
-0.03805126 0.19729662 -0.85539144
0.07248958 -0.29641801 -0.75208658
-0.16085438 -0.04251170 -0.45065558
0.04669570 -0.07901525 -0.53280914
0.04774150 -0.21614568 0.06261774
-0.11982671 -0.56266832 -0.72744429
0.03262953 0.36509192 0.30796963
-0.16822356 -0.02298713 0.24230435
0.09762655 -0.07547255 -0.62026685
0.06700505 -0.45136896 -0.83092886
0.12733939 -0.20127623 0.09376650
0.06685415 0.07043059 0.54945338
0.07246467 0.09853552 0.52423388
-0.13716659 -0.54486036 0.04219916
0.09851512 0.30679429 -0.02272420
0.11940606 -0.18130861 0.15456440
-0.05989837 0.39833373 -0.58437693
-0.00175652 -0.15153107 -0.43825921
0.06600905 0.00163751 0.78839284
0.10609481 -0.11338720 0.01330255
0.11325011 0.30152208 -0.14800799
-0.03901819 0.40660590 -0.71479821
-0.10320219 0.31844708 0.27251363
0.07490328 0.22723648 0.42949805
0.09845428 -0.32341531 0.11371051
-0.05693871 0.06059793 0.40584403
0.04475058 -0.15866068 -0.30794179
0.08252891 0.26796484 0.53825325
0.04203628 -0.56894720 0.14161950
-0.11849219 -0.56907010 -0.76632285
-0.11868723 0.26668960 0.55833703
-0.22603303 0.17108642 -0.31031469
0.18745242 0.15541847 -0.15364489
-0.15077330 0.28451872 -0.79122120
-0.05037094 -0.20317216 -0.35152096
-0.05684986 -0.56926465 -0.71104842
0.13460734 -0.07929894 -0.18867736
0.11993355 0.34374020 -0.59325850
-0.22315684 0.09791705 -0.54931992
-0.06665468 0.40238264 0.02244161
0.02869025 0.39571023 -0.50286734
-0.19179089 0.05968755 0.01972878
-0.18102325 0.25425777 -0.06570590
-0.19978596 0.04822582 -0.03258750
0.04043737 -0.06532491 -0.77488518
-0.21519265 0.17932388 -0.62382734
0.15298983 -0.00419164 -0.04138720
0.04505595 0.31854901 0.43434522
-0.05554025 -0.49293521 -0.78730017
0.16489488 -0.04081571 -0.61474299
-0.13540742 0.33649307 -0.22756419
0.10407014 -0.24741890 -0.84860766
-0.14038068 0.37248519 -0.49514416
-0.21802980 -0.00735812 -0.20880426
-0.03017736 -0.20453766 -0.23636977
-0.17260467 0.23555648 -0.77006042
0.17636538 0.34085432 0.53150815
0.03580966 -0.17091227 -0.21949926
-0.06899214 -0.17265888 0.04062449
-0.14625806 -0.05918490 -0.00666962
0.04882259 -0.04804349 0.30994281
-0.08862346 -0.29148811 -0.76159644
-0.16939589 -0.08516090 -0.31655547
-0.11609226 -0.56088585 0.14171068
-0.07482313 -0.57526433 0.11310562
0.08701202 -0.12874731 -0.27279976
-0.04694473 0.38589498 -0.37946761
0.02885652 0.34481701 0.57336652
-0.22273049 0.11232130 -0.37643567
-0.17388889 0.29812533 0.57413632
0.08058338 0.14102371 -0.80975491
0.02460377 -0.06976939 -0.65147710
-0.07690902 -0.14104262 0.20163098
-0.01670847 0.04798273 0.44431716
0.03218759 0.00850200 -0.82635713
0.05825980 -0.24174105 -0.75623262
-0.19813998 0.29801539 -0.49398780
0.05167643 0.38005415 -0.64356595
-0.20007899 0.26071113 -0.35815287
0.07182369 0.29928112 0.31043223
-0.18046489 -0.15480340 0.07572368
0.06981711 -0.46974584 -0.82506597
0.18663350 0.06303476 -0.52736390
0.04707525 -0.07182910 -0.59872180
0.00836515 0.39300764 -0.07944688
0.11530101 -0.21038611 0.07435765
0.06512983 -0.04151228 -0.85481769
-0.01502835 -0.11411224 -0.53658575
-0.21184960 0.00070395 -0.33661658
0.17198072 0.21145278 -0.12867656
-0.12730774 -0.08479243 -0.43430105
-0.09856100 -0.57495928 0.12228839
-0.06267630 -0.56628013 -0.83500057
-0.16624635 -0.08621959 0.02462715
-0.14519557 -0.08319122 -0.39701691
-0.07764520 0.04695787 0.39161399
-0.21190612 0.14388520 -0.64235038
0.13860212 -0.11742672 0.08051090
0.02807984 -0.16494010 -0.32331032
-0.04288265 0.20439169 0.71664065
-0.12484363 0.26460809 0.58201122
0.04054634 -0.15436450 -0.10680331
0.13790286 -0.03310552 -0.04556973
-0.14619300 -0.24014193 0.12880237
0.17066419 0.23762268 -0.51749170
-0.12092863 -0.04948270 -0.57431823
-0.06333290 -0.45395574 -0.83127111
-0.08900675 -0.03284024 -0.82121187
0.08194382 -0.07330932 -0.60080272
0.01421945 -0.26172614 0.08538609
0.08184045 -0.41949797 -0.85385591
-0.04717312 -0.03907772 0.34675339
-0.05948066 0.20262966 -0.85235548
0.11804003 0.27355224 0.03357594
0.17077488 0.22636950 -0.58180130
0.04344818 -0.56238639 0.11969087
0.01747193 0.04710039 -0.85597295
0.15922308 0.07228491 0.08994550
-0.04171441 0.39750472 -0.64874125
0.01750134 -0.39368778 0.08442733
-0.15465143 -0.52079958 0.11532314
0.06895155 0.23202553 0.51462579
0.06804111 -0.15644757 -0.84056252
-0.07929381 -0.40404955 -0.77715600
-0.06782623 -0.36301276 0.05066416
0.19500311 0.11944215 -0.26501432
-0.18955655 0.17774338 -0.74802762
-0.01775086 0.39719558 -0.06114770
0.05107268 0.20902094 0.71997827
0.10263345 0.19270793 -0.79832017
0.05027687 -0.51379478 -0.76465780
-0.21282728 0.09115915 -0.63850456
0.03065004 -0.02272758 -0.83166671
-0.20336346 -0.03684305 -0.31623319
-0.11118205 -0.12374171 -0.08996049
0.06972972 0.35499787 0.10267699
-0.19442280 -0.01208086 -0.63667417
0.11176294 0.29164562 -0.00458252
0.14113314 -0.04952884 0.05628181
0.16004500 0.10095520 0.07441843
-0.05226799 -0.17287546 -0.00876736
-0.19476333 0.06253794 -0.47351417
0.11759558 -0.22813189 0.11674577
-0.07012960 0.39399460 -0.46785149
0.19432826 0.27739826 0.51804602
-0.05678038 0.34771168 0.47693601
0.04817450 0.34726679 0.18878110
-0.21366394 0.21729422 -0.34887454
-0.07197922 -0.05702277 0.29936299
0.15959908 -0.53845000 -0.73599714
0.08559386 0.33581015 0.03015898
-0.19127041 -0.06094928 -0.24231008
-0.21682319 0.18495750 -0.11174612
-0.06165559 -0.55140585 -0.74654812
-0.14817326 -0.26603842 0.12535818
0.06529073 0.07857156 0.37010014
-0.17018712 0.28233162 -0.77180910
0.06906630 -0.39335284 0.04531436
0.04398815 -0.05570611 0.32204786
0.18152025 0.08112212 -0.34567285
0.11476031 -0.16594151 0.05632343
0.05023595 0.32953727 0.60388172
0.06112909 0.36156413 0.11948232
0.12726942 -0.51456213 0.08692245
0.16466351 0.19976464 -0.05738600
-0.14464225 0.12692630 -0.79679435
0.07881434 -0.07512739 -0.48212594
0.09179652 -0.39385098 -0.75773519
-0.21727729 0.20052135 -0.55038381
-0.08634269 -0.13195923 -0.82953519
0.03975874 -0.17243716 -0.19477068
0.03302564 0.37748703 -0.72803217
0.13033657 -0.06927948 -0.12626353
0.19870055 0.07786541 -0.54197031
-0.01656723 0.33138013 0.65553540
-0.02680521 0.03913435 0.67360556
0.12983978 -0.21998447 -0.72912490
-0.13280919 0.24130636 0.29797086
-0.12181611 0.28611121 0.28329086
-0.15461297 0.32268497 -0.31188217
0.00159526 0.00076369 0.36540902
-0.03058014 0.40562403 -0.57632381
0.04146947 0.22955564 -0.82923079
-0.15365696 -0.47035074 -0.81420881
0.16499788 0.24181679 -0.60272074
-0.16596952 0.33347794 -0.66719139
0.05747217 0.31707454 0.32294106
-0.10424294 0.20956782 -0.83742666
0.13781889 0.13340135 0.28155375
-0.19224638 -0.08545145 0.11975986
-0.06400234 0.39527875 -0.42976773
0.09350265 -0.57041585 0.15658371
-0.11411208 0.03779123 0.33889949
0.17044298 -0.02795214 -0.65261126
0.11825901 0.08457391 -0.77497542
0.13125814 -0.14908528 -0.77598691
-0.20419732 0.27028275 -0.48737782
0.07518225 -0.40767261 -0.76793104
0.04783913 -0.28059953 -0.77809930
-0.16371766 -0.03742044 -0.02909622
-0.08612962 0.36069795 -0.08111574
-0.02397862 -0.20919870 -0.36608416
0.08380332 0.01100024 0.33095074
-0.07473790 0.32764116 0.59327656
-0.14891943 -0.44121483 0.05654283
-0.20255864 0.00848889 -0.07366902
-0.25714585 0.30308717 0.59413928
0.13892213 -0.00786439 -0.47835666
-0.08272720 -0.06559323 -0.62083113
0.13107125 0.22559854 0.12510006
0.14957149 0.26347980 -0.13296399
0.08751778 -0.26559457 0.14199677
-0.11582660 -0.57574606 0.07258372
0.18398996 0.13397115 -0.06996021
-0.12625408 -0.26206678 0.03281812
0.07719881 -0.47094503 -0.74872673
0.06422488 -0.44473201 -0.78461516
-0.10430315 -0.12609905 0.01035147
-0.20218311 -0.02298141 -0.36683241
-0.07325275 -0.16101456 -0.82931209
0.08505911 0.27466223 0.61834204
-0.07901584 -0.39894006 -0.82368457
-0.13014457 0.25355425 0.30414501
0.11522106 0.32020783 -0.35995412
-0.01689153 0.38648358 -0.19157195
-0.05188577 0.07621163 0.49709076
0.05667751 0.11937103 0.44657791
0.06184497 -0.32027200 -0.77370918
-0.08996443 0.11626883 0.53532153
0.15693074 0.13335413 -0.71906263
-0.15022771 -0.12812160 -0.77066880
0.07631428 0.13292803 0.72309929
0.08542621 0.09982722 0.67453790
0.08033010 0.33395135 -0.04080457
-0.22300109 0.00789746 -0.17762139
-0.05604120 0.40259498 -0.50113326
-0.15636438 -0.56881714 0.07195072
-0.04457158 0.38910869 -0.11585274
-0.03261586 0.38255322 0.30561739
-0.07239985 -0.34869388 0.09564166
-0.09508190 0.24338651 0.55293638
0.15454938 -0.02886147 0.16184123
0.04657939 0.09472331 -0.82265216
-0.20737062 -0.00300039 -0.36180010
-0.14165054 -0.54088682 0.13816224
0.16341995 0.16185339 -0.44426107
0.05146818 -0.29241836 0.03874008
-0.08012766 -0.16558841 0.01402324
0.12219912 -0.08560491 -0.07833511
-0.18064672 -0.03595120 -0.40483412
0.15709142 0.23090032 -0.08893077
-0.13031001 -0.30522454 0.11934388
0.15520583 -0.02992534 -0.29495111
-0.08535140 -0.55798507 0.14142810
0.17930762 0.19501993 -0.52524936
-0.08008834 -0.55813777 0.06430166
-0.15462011 0.32718557 -0.35578245
-0.08746019 -0.13759875 -0.35590103
-0.15906437 -0.04216786 -0.53567916
-0.19432780 0.27324712 -0.61404389
0.09681712 -0.12725306 -0.22173025
0.03384383 -0.17586634 0.02574947
0.09270392 -0.52722585 0.03093981
-0.17146182 -0.03617360 -0.05450380
-0.15549886 -0.54824293 0.14111347
-0.20405412 0.24318925 -0.61393297
-0.13204789 0.36876374 -0.59035367
0.00684285 0.34757826 0.47021461
0.14033054 0.18331337 -0.75918001
-0.07578316 0.09537026 0.48776817
0.07272274 -0.34511480 -0.76113105
0.08088791 -0.20854080 0.17769720
-0.06721345 0.12726672 -0.84722471
-0.15625201 -0.03642825 -0.49292624
-0.21588747 0.20398059 -0.40246728
-0.09396190 -0.17338005 -0.22850397
-0.04867122 0.37073579 0.34923112
0.15984204 -0.00344890 -0.70979249
0.07658347 -0.34544232 -0.83726281
-0.05790925 0.38721266 -0.40375528
-0.03291625 0.01577271 -0.77405846
-0.14928281 -0.13769184 0.18674579
0.15727669 -0.56494844 -0.71710932
0.05917693 0.07268870 0.53385097
-0.13988158 0.30387390 0.07778774
-0.09044556 -0.57339191 0.16011275
0.00599786 -0.17739917 -0.00687988
-0.10080030 -0.31187367 0.00583232
0.01902084 0.39785430 0.08254372
-0.08464704 -0.15742379 -0.29445067
0.15979591 0.18969646 -0.42152768
-0.17454237 0.08321862 0.29870626
0.13391429 -0.06032537 -0.34795952
-0.11730174 -0.32823044 0.11287929
0.07581937 0.09632315 0.37777287
-0.12409513 -0.13715398 -0.27600139
0.19417268 0.10526147 -0.27489370
0.06179483 -0.29805407 -0.77490044
0.08319698 0.34338832 -0.13502628
0.07357174 -0.13780227 0.19878878
-0.19077902 -0.10927771 0.09847110
0.13760689 0.18977728 0.16782518
0.10762633 -0.10967511 -0.26150268
-0.17718351 0.31675598 -0.41043949
0.04733596 0.03271626 0.58346552
-0.16133773 -0.56050217 0.09871318
-0.14286856 -0.08585225 -0.41848013
-0.21084325 0.23236290 0.56792080
0.02928151 0.34063649 0.44307739
0.10262536 -0.12735461 -0.25707042
0.11187281 -0.57037413 -0.73690593
0.06547099 0.33798996 -0.77740997
0.02977758 -0.18070433 -0.24524604
-0.17275943 -0.07134290 0.17112301
0.13858201 -0.31959593 -0.79377246
-0.03848208 0.04509082 -0.82898039
-0.06379143 -0.08362874 -0.57999831
0.14312758 0.19253933 0.15004747
0.17304154 0.20131725 -0.49531242
0.07764386 0.29383016 0.52116507
0.17003216 0.06393367 -0.00527100
-0.11313375 -0.53483641 0.00583727
-0.10351279 0.28171813 0.55853611
0.09136656 0.18131298 0.62898761
-0.10223086 0.25685027 0.42185935
0.07472176 -0.28209996 0.04939676
-0.18937559 0.02088080 -0.71640420
0.15950869 0.01298485 0.19048283
0.09030508 0.21407029 0.57421166
-0.01168293 0.13580666 0.77614492
0.09514973 -0.35822096 0.09225667
-0.06440459 -0.25579590 0.05046136
-0.05143765 0.38562438 -0.10321444
-0.04169070 0.36356294 0.41855311
0.09339577 0.21441942 0.65537077
0.15396300 0.11947341 0.18102056
0.01361384 -0.30016655 0.08236833
0.01380220 -0.19592600 0.07403653
0.02268714 0.07335152 0.42672470
-0.09918401 0.20192590 0.63411003
-0.00014634 0.38049287 -0.34712961
0.19074398 0.13280050 -0.11424058
-0.19390622 -0.07156195 0.06833068
-0.17344889 0.20748556 -0.78873986
-0.07875288 -0.06791890 -0.78764212
-0.09100108 0.13568100 0.61372447
0.00111463 -0.10085900 -0.56596184
0.01480976 -0.20820472 0.14062674
-0.08789457 0.14189735 0.44984239
0.06045734 -0.37729210 0.03603510
-0.07563508 0.22285670 0.71224976
0.17567673 0.19523311 -0.61105180
0.16238691 0.10024673 0.11152996
-0.08672618 0.34531525 0.27951592
-0.06232058 -0.30427831 0.09396101
0.12775499 -0.09766801 -0.79139894
0.07478572 0.36091986 -0.33472070
0.04940566 -0.56354487 0.07544282
0.07890189 -0.40712011 0.05057225
0.17103899 0.07935862 -0.35544172
-0.01601407 0.41415516 0.02631523
0.08746305 0.29128933 0.50710279
0.07565960 0.26931581 -0.82022190
0.10923592 -0.56523150 0.05203420
-0.19041996 0.28547284 -0.30915144
0.00845942 -0.03485179 -0.71904278
0.08285885 -0.13267298 -0.19768226
0.05416403 -0.43310389 -0.78700817
0.08690289 -0.47998202 -0.84488529
-0.13369037 -0.38230494 -0.79759389
0.11056136 -0.09762467 -0.06402281
0.10500920 -0.06938156 -0.02821666
-0.15770356 0.24973965 0.57659781
0.02212367 -0.30609888 0.12436759
-0.06928040 0.38510606 -0.74051857
-0.17746513 0.15102659 -0.76007175
0.13629429 -0.48761195 -0.73152828
0.09708879 -0.39514419 0.08011743
-0.08112817 0.33144364 -0.81282043
-0.07041828 0.38908106 0.21802677
0.15200418 -0.54639828 -0.70954239
0.06247088 -0.49551815 -0.74795914
0.04064005 -0.14967936 0.22330783
0.06368694 0.35530376 0.07952720
0.06860544 0.00577494 0.32865551
0.10737924 -0.04982515 -0.53275394
-0.05770870 -0.18237963 0.18821651
-0.05645174 0.32029647 0.64456832
-0.01597566 0.20513716 -0.84775639
0.12166901 0.34117109 -0.57096082
0.02761141 0.39810169 -0.55023026
0.08876251 0.28799975 0.23147169
-0.19078818 -0.04623372 -0.13957307
0.13659985 -0.08103287 -0.21044806
0.04310621 0.05104884 0.59882265
-0.17266074 0.31406942 -0.75202405
-0.10841006 0.36094299 -0.34260407
0.02529331 0.39624563 -0.45700213
-0.00271750 0.40759194 0.11862157
0.11621206 -0.53356791 0.14114453
-0.17381670 -0.06048921 0.03424692
-0.08028767 0.38557270 -0.39677516
-0.21753530 0.16847889 -0.55036581
-0.00797289 0.17561831 0.75576967
-0.08303513 0.31475258 0.64755708
-0.13551661 -0.27901354 0.13013735
-0.09441809 0.13013846 0.55564344
0.02714185 -0.48936930 0.09229668
0.10687898 -0.18425857 0.17334867
-0.09079765 0.01093027 -0.81871277
-0.13758163 0.11278331 0.34096047
0.03037586 0.39462394 0.13959862
-0.19819520 -0.04910732 -0.25658923
-0.16224605 -0.12633112 0.18336542
-0.06799941 -0.17217106 -0.76094800
-0.17862163 -0.05622558 -0.10550618
-0.13054609 -0.49096647 -0.84106469
-0.08435293 -0.39744586 -0.84642166
0.17697906 0.04081623 -0.61201066
0.06228925 0.32153040 0.22769895
0.15531331 0.23363099 -0.41661671
0.15608162 0.13441178 0.13972963
0.13714521 -0.10976624 -0.72435671
0.03027359 -0.20872509 0.18980525
0.02624558 0.00061814 0.78809404
0.15285558 0.03457674 0.26467180
-0.08911684 -0.18500930 0.03418883
0.07834115 -0.43795809 -0.84759873
0.07371826 0.24634373 0.40076625
0.06045920 0.03745793 0.66841215
-0.01712226 0.04972611 0.46820027
0.17752030 0.21394628 -0.24344593
0.11691632 0.31065053 -0.24858388
-0.09174357 -0.09393771 0.24820778
0.07785621 0.28406304 0.63599104
-0.16847242 -0.08897289 -0.63462222
-0.08417539 -0.13678920 -0.37522438
0.05329267 -0.55295646 -0.77716118
0.01589425 0.14325337 -0.83279717
0.08045148 0.34729359 -0.01100288
0.14291354 0.27949789 -0.62287408
0.09179073 -0.31815076 -0.83350939
-0.16065110 -0.27019995 0.09949422
0.11013366 -0.43943071 -0.84967470
0.07921428 -0.14287972 -0.26608783
0.12786987 0.18030429 0.25815409
-0.09458859 -0.13713989 -0.00070243
0.00677141 0.04611576 0.47803789
0.01165808 0.00804453 -0.79698128
0.12163183 -0.08126589 -0.61995685
0.03709247 0.33687982 0.54692221
-0.07260098 -0.16195932 -0.10920751
-0.13310272 0.32446823 -0.10794834
-0.02227796 0.39754218 -0.63170856
0.03876390 0.01237907 0.67202586
-0.06615967 -0.27190942 -0.76692086
-0.05824598 0.09379709 0.70229316
-0.15264983 -0.56132138 -0.77709121
0.05710146 0.35186225 -0.14192110
0.18684392 0.09178363 -0.04672959
0.16489105 0.05735676 0.02896507
-0.07526936 -0.54511428 0.06091733
0.14108092 0.26267549 0.52971315
-0.14935070 0.24210432 0.21447644
0.08409452 0.22073007 0.38603187
-0.00444263 0.03749643 -0.84982258
0.01563552 0.26534772 0.70895267
0.13883375 -0.14658566 0.15037252
0.10607737 0.32635504 -0.20768058
0.06899689 0.18124333 0.45667216
0.05041360 -0.18321320 -0.80211622
0.14632544 -0.03263712 0.20156468
-0.03299499 0.03567386 0.77569830
-0.18679607 0.11507186 0.18290418
0.06847364 -0.19384807 -0.71244442
0.12551808 -0.29806334 -0.76254338
0.16491160 0.15781623 -0.45817131
-0.10828520 0.38689160 -0.55202264
0.05819931 0.37464538 0.09671003
-0.18850046 0.00868750 -0.03507622
0.15075395 0.26070789 -0.28646517
0.05027078 0.03147242 0.65941924
0.10047589 -0.11045298 -0.30158505
-0.10124207 0.36318704 -0.76998240
0.12601408 -0.52863586 0.11135408
-0.13968606 -0.43117762 -0.80928701
0.17640026 0.00951797 -0.63027024
-0.08559193 -0.16597044 -0.69529444
-0.05287790 0.40136755 -0.73057532
0.09225018 -0.11613803 -0.13258979
0.01666822 -0.37227726 0.06504721
-0.06893791 -0.22534646 -0.74285662
0.04698730 -0.54657513 0.05564743
-0.03845284 0.40669784 -0.68777430
-0.08310250 -0.58152497 0.07987348
-0.13416836 -0.13000922 -0.80316609
-0.10452282 -0.08294074 -0.63550925
0.04864078 -0.16876394 -0.73942155
-0.14769004 -0.09065665 -0.36219776
-0.13187182 -0.06518515 -0.50541556
0.16667503 0.18982980 -0.67519790
-0.06895865 -0.32396197 0.10935606
-0.21969858 0.15059923 -0.60538018
-0.10817883 0.27776560 0.38229975
0.08983181 0.16606988 0.58873969
-0.05855049 0.39922825 -0.52234966
0.15219700 0.20650810 -0.00261276
-0.19806568 0.04624160 -0.00220664
-0.21913704 -0.01673951 -0.28654405
-0.15250488 0.34859300 -0.41977277
-0.01124133 -0.18996519 0.04572032
0.05139361 -0.11820622 -0.41496941
-0.18988161 -0.03282455 -0.60409397
0.14252275 -0.12695464 0.10432491
0.05428997 -0.11936867 -0.40103805
0.01235562 0.02237098 0.65397054
-0.05317551 -0.14663607 0.26060313
0.16123070 0.24398899 -0.64333427
-0.19345210 0.25593218 -0.16084875
0.08940685 -0.54498512 0.04187243
