-0.06528433 0.57795787 -0.25700828
0.13844129 -0.42318487 0.70145118
0.00860878 -0.54713714 0.26593697
0.24508271 -0.17956153 0.60969293
-0.39451310 -0.09119707 0.45802784
0.31453320 0.04291625 -0.25730702
0.51716471 -0.08925360 0.17471138
0.22454591 0.73557109 0.23047340
0.10478148 -0.13446254 0.66192061
0.39418006 -0.45681602 -0.21491729
0.17625269 0.25203443 0.42148465
0.08979640 -0.35003775 -0.81267244
0.16259861 -0.02704710 0.51985711
-0.23393092 0.51627046 -0.16874558
-0.60922146 -0.40484571 -0.24652690
0.14468576 0.64746463 0.56215566
-0.25245023 0.72160053 0.02671186
-0.37880847 -0.39051616 -0.55500865
-0.18851985 0.12537751 -0.49246374
-0.27775717 -0.10653150 -0.81631577
0.27442494 -0.10371363 -0.81901759
0.07019993 -0.41263443 -0.18303855
0.19802868 -0.39666319 -0.35671914
-0.43768284 -0.49603111 0.09990130
-0.45133036 0.02834360 -0.25492096
0.29223260 0.55146265 -0.08397881
0.09182207 0.59709805 0.61071670
0.48564082 -0.22094861 0.38668606
0.32189465 0.12692350 -0.72178817
-0.69371176 -0.34739673 0.04096059
-0.57705688 -0.48392290 0.02086693
0.10353394 0.61680245 0.42752185
0.23383698 0.16382015 -0.60768127
-0.15793259 -0.51778638 0.23151001
-0.54979372 -0.02824643 0.10272712
-0.26667964 0.37602597 0.42133227
0.22595184 0.22255579 -0.70238155
0.16865936 0.09127718 -0.13062170
0.59351766 -0.08536044 -0.26294228
0.13081644 -0.33906555 -0.80330974
0.05270250 -0.17476869 0.69242054
-0.20710124 -0.38185316 -0.64685351
-0.36452326 -0.51019859 0.54250139
-0.01890053 0.14242543 0.41002634
0.20794961 -0.11935562 0.58332169
0.20175968 0.15402827 -0.58125538
0.25280854 -0.40627700 -0.28986099
0.33716279 -0.35065544 -0.68758124
0.37452331 -0.17803377 0.49892563
-0.52365553 0.01955312 -0.17754674
-0.58928859 -0.05251575 0.10233304
-0.24515644 -0.58517313 0.47252256
0.40233415 0.06141728 -0.51871884
0.25536513 0.19890955 -0.06487792
-0.13532892 -0.45043254 -0.03184696
0.29536897 0.13539428 -0.60945219
0.21516722 -0.15480739 0.61413538
0.30005926 -0.59601694 0.35431692
-0.01533965 -0.02553679 0.57428873
0.05868159 0.10520314 -0.24814662
0.20244864 0.10239607 -0.49799931
0.52020097 -0.50580502 -0.11004487
-0.37296793 -0.46468592 0.56767517
0.46883857 0.02871297 -0.49658793
0.42171013 -0.15068904 -0.70269948
-0.43414149 -0.38738912 0.54481083
-0.21355134 0.37158692 0.50674158
0.21459994 0.78923655 -0.02966208
-0.17768478 -0.43322361 -0.07634917
0.43443075 0.05277287 -0.52426374
0.33682317 -0.37612349 0.58439326
-0.24931759 0.09067086 -0.80192035
-0.42696351 -0.47428668 0.03106197
0.63902223 -0.34034967 -0.20723504
0.57371712 -0.41833496 -0.23947105
0.29629600 0.04294991 -0.14052081
-0.18918963 0.02756912 0.45548224
-0.31249869 0.35642773 0.33070037
0.12396099 0.40766919 -0.26632547
0.28137264 0.04929281 -0.27781707
-0.12676610 -0.37875628 0.72626340
-0.16552907 -0.55606961 0.62402320
0.26949367 0.69081682 -0.03179563
-0.64084065 -0.11523935 -0.33126307
-0.59901166 -0.31681034 0.30540255
-0.34193468 -0.36454791 -0.68203861
-0.65406942 -0.18276915 0.18803921
0.17483625 0.24124712 0.41000003
-0.15242189 0.11008693 -0.11838228
0.07860617 0.23855233 0.45867693
-0.36731309 -0.18536368 -0.75457788
-0.14991610 0.09679374 -0.15995967
0.02741808 0.12906617 -0.13779351
-0.09470877 -0.02414532 0.56232315
0.01017520 0.65970236 0.42688382
-0.16955684 0.38725674 0.58413178
0.30824029 0.37638789 0.35152748
-0.15645041 -0.38095039 -0.67169809
0.06713367 -0.39231819 -0.28958476
0.46766451 -0.46113914 -0.32892901
0.11119897 -0.38020390 -0.43954059
0.38139367 -0.44667906 -0.24988943
0.54011965 -0.06018895 -0.46528864
-0.10418240 0.90844810 -0.00179646
0.39507809 -0.03558642 0.25815544
0.00205757 -0.29247123 -0.84048492
-0.16291997 0.24192089 -0.15688741
-0.27647039 0.19575663 -0.69635195
0.45958334 -0.47232014 -0.25385547
-0.36106446 0.30713385 0.12121370
-0.00761861 0.93081957 -0.02954298
0.32558072 -0.03472565 0.37453490
-0.16842777 -0.07503720 -0.86496729
-0.21630828 0.46506098 -0.20080942
0.36296424 -0.55474669 0.46940941
0.12579630 0.25981754 -0.20347115
-0.08582789 -0.38023502 -0.68450916
-0.37598881 -0.34584719 0.59605026
-0.15845482 0.26402771 0.44382232
0.22027691 0.54033047 0.38506591
0.02742939 -0.16681686 -0.87696135
-0.05330028 0.11341260 -0.37062338
0.41689360 -0.53340721 0.06131320
-0.20626210 -0.39064664 -0.67737210
0.05255614 -0.51405567 0.17720026
0.03328962 0.87003720 -0.10219337
0.42234671 -0.03796025 -0.67858511
-0.09954418 -0.52728665 0.25578997
0.19525994 0.01470415 0.45158046
-0.27487448 0.19623889 -0.00998955
0.21595693 0.74171734 -0.09015559
-0.26536399 0.20237921 -0.65600860
-0.34689820 -0.33768874 -0.70242482
-0.38773426 -0.38700569 -0.58345842
-0.44712403 -0.01348105 0.12909123
0.16034833 0.26371053 0.44528294
0.59558332 -0.13189045 -0.39915368
0.63790751 -0.16699028 0.03657831
-0.23717472 0.26394016 0.38958475
-0.11037795 0.83493131 0.22494438
-0.48116508 -0.37030691 -0.54099560
-0.66323864 -0.38780904 -0.13920742
0.43076184 -0.56993103 0.29616886
0.22520678 0.08339043 -0.45248112
-0.34867442 -0.50216341 0.14506575
0.18669258 -0.10167480 -0.85292846
-0.30024654 -0.46576995 0.04199899
-0.31290364 -0.55818725 0.36118749
0.04098713 -0.56584793 0.64727110
-0.13317907 0.40884167 -0.25269073
0.21685679 -0.12621793 0.59007686
0.03283567 0.76065987 -0.17901203
-0.12625065 0.88036710 -0.00762914
0.36272639 -0.13285384 0.46357602
0.13960388 0.31121361 -0.23008901
0.23947486 0.07649457 -0.06244606
-0.56520569 -0.43750936 0.31227744
-0.35999107 0.45468301 0.12819666
0.07404958 0.85181969 -0.10411705
0.07292616 0.23664007 -0.62508589
0.01158659 -0.38261718 -0.69136083
-0.07900576 0.33690041 0.57974637
-0.21068096 0.17642874 0.33709624
-0.06406221 0.08804509 -0.87046945
0.18021883 -0.62253290 0.50344169
-0.39191827 -0.47384942 0.04882871
-0.25572863 0.07279306 -0.02175557
0.35935402 0.30465648 0.01998876
0.17817929 0.58802724 -0.20459986
-0.58529556 -0.15772396 0.27713609
-0.10949807 0.30183202 -0.70429701
-0.01078539 -0.41244864 -0.06744444
-0.17042795 0.70022631 0.30722135
0.41396958 -0.20303863 -0.69638169
-0.26782814 0.30120552 0.37444785
-0.24084671 -0.39144677 -0.28079599
-0.15187457 0.24081647 0.42951465
-0.25081778 0.71824622 0.16955775
0.07445755 0.33082592 -0.73917335
-0.11455032 -0.39123470 -0.25821671
0.26553246 -0.39069492 0.63798273
0.03476999 0.19580480 -0.59582418
0.21824916 0.51657188 0.54689121
-0.67887557 -0.23458672 -0.26780221
-0.29342434 0.08357161 -0.37666464
-0.12191790 -0.37824237 -0.75193548
0.38275310 -0.54744166 0.13753825
-0.22296409 0.77179694 0.17584348
0.29720336 0.60690129 -0.02122416
-0.35215035 -0.06927255 0.47213405
0.48196274 -0.49065703 -0.17744043
-0.00368537 -0.38608301 -0.68826032
0.19425716 0.52211726 0.56661791
-0.31439775 -0.47853488 0.07866074
0.56945813 -0.43230379 0.22860557
0.15149799 0.85504317 -0.02888812
0.36228901 -0.22948548 0.54146224
0.10219818 0.15056105 -0.13206111
0.67371643 -0.25501609 -0.03129498
0.05766020 -0.22721395 -0.85545915
0.19844306 -0.16808480 -0.83910400
0.26196146 -0.41059512 -0.33949220
-0.11723883 0.64060587 0.54710853
0.24473456 0.48641565 0.49394566
-0.21664523 -0.10970384 -0.83796579
0.36455917 -0.51589185 0.04060926
-0.22729726 0.27698165 0.40142566
0.21489075 0.09696985 -0.48887286
-0.21136323 0.34032246 -0.19200747
0.15221637 0.50778860 -0.24071898
-0.08706606 0.33363608 0.58581764
-0.49179488 -0.07525016 0.28504306
-0.30952212 -0.31174657 0.64630276
-0.57159650 -0.40283984 0.33847505
0.16544314 0.51945889 0.57215273
0.29147816 0.33291763 -0.12830713
0.10166036 -0.39078683 -0.66195828
-0.21092755 -0.59658879 0.53272808
0.44346690 -0.45818853 -0.30299330
0.13441341 0.19576147 -0.15884352
-0.25605649 -0.37383986 -0.44036573
-0.16759486 0.12548625 -0.84289980
0.04745521 0.46170548 0.59896308
0.08899806 0.31315175 -0.70961392
0.17827061 -0.29040799 0.69144547
0.24624839 -0.50158763 0.05342434
0.21871516 0.36423609 -0.20399517
-0.00280447 -0.39697671 0.73580760
0.28313270 0.06395601 0.17816192
-0.32677260 -0.57276970 0.41303852
-0.69382417 -0.20047241 0.04301272
-0.04006609 0.25199792 -0.83095300
-0.58240259 -0.14727879 -0.47073013
-0.20056798 0.31143284 -0.18390033
0.08398990 0.63367426 0.44566935
0.44720063 -0.46229249 0.45820892
-0.19511212 0.19014068 0.36516631
-0.07088368 0.69279695 0.57255828
0.09972108 0.53401411 0.58323085
0.33404467 0.54188812 0.03081411
-0.60692930 -0.32928956 -0.38455233
0.46223852 -0.11262378 -0.63640833
0.16666496 0.15108056 0.34436417
0.58603072 -0.33978635 -0.34753913
-0.22383752 0.53028333 -0.17690779
0.30918714 -0.01637894 0.38318026
-0.43009353 -0.47717315 0.50847816
-0.17093532 0.04662503 0.44289303
-0.20193028 0.39312685 0.54310340
-0.37552732 0.08044501 -0.45586729
-0.64253652 -0.28092319 -0.33181685
-0.01529133 -0.36222494 -0.46096161
-0.30702466 0.05383678 0.02795804
0.51222777 -0.00383015 -0.35009131
0.65007269 -0.18725759 -0.14883378
0.42704108 -0.18054610 0.42822176
-0.25240380 -0.14414474 0.61722195
-0.70330513 -0.22105765 -0.13295853
-0.09180617 0.88936847 0.12315613
-0.08421409 -0.37273782 -0.73330837
-0.60727382 -0.35942084 -0.35553443
-0.17264104 0.15466365 -0.09174101
0.63986921 -0.23618203 -0.30384627
0.18809606 0.79730713 -0.06541197
0.27997330 -0.41181839 -0.61929703
0.00277188 0.72385126 0.65664136
0.06863070 0.25760928 0.48019499
-0.00997387 -0.22181779 0.71354425
0.19677703 -0.41288352 -0.22032134
-0.22162959 0.48037952 -0.18894291
0.30919710 0.14283533 -0.64155376
-0.04291110 0.82367623 -0.13751349
0.42888564 -0.03467283 0.12964654
-0.46979874 -0.39104354 -0.54244787
0.58017576 -0.19331214 -0.43539259
0.65052795 -0.24704558 0.09742142
-0.31700021 -0.02095443 0.42345607
-0.08993716 0.81271464 -0.13423598
-0.27007815 0.24773653 -0.05740561
-0.23570991 0.48418394 0.45113373
-0.17218669 0.44016460 0.59525251
0.24590451 0.52670187 0.36647904
0.17613718 0.11157390 -0.50208938
0.43497387 -0.43554020 -0.45934314
0.28764814 -0.14692435 -0.80636930
0.07629196 0.13173543 -0.52380586
-0.55623806 0.01364970 -0.30189073
-0.47156525 -0.34484470 0.50960976
0.01005707 0.71626002 0.56918961
-0.10053627 -0.38468617 -0.30463666
-0.70042908 -0.16889572 -0.06729535
0.56721115 -0.05955331 -0.34235007
0.44132844 -0.51651740 0.39776564
-0.15732248 -0.57240582 0.40204248
0.52262652 -0.34358853 0.36572906
0.27249578 0.03913614 -0.80897325
0.44309369 -0.29665521 -0.62786269
0.45330301 -0.45259166 -0.39594603
-0.29696929 0.44328684 0.35252073
0.29262507 0.64671826 0.10908927
-0.33180633 -0.14539698 -0.78475434
0.12636063 0.15173474 0.38216865
-0.23420401 0.76265550 0.01246245
0.19563086 0.74819255 -0.11242726
0.31464559 -0.09264863 -0.79542989
0.10342960 0.10546845 -0.27589276
0.56810296 -0.06994054 -0.34697816
0.60953438 -0.09622872 -0.04627162
-0.71450865 -0.23786733 -0.09257836
0.20877172 -0.04230928 -0.84260798
-0.10389036 0.08144832 0.42959729
0.07288492 0.44505578 -0.28363615
0.27409604 0.06220051 -0.30286092
0.42520672 -0.10686827 -0.68682516
-0.02384126 -0.36601144 -0.09750867
-0.12994263 0.11428121 -0.47223362
-0.06252192 -0.57475632 0.64250141
-0.45522833 0.02572741 -0.20863298
-0.25740445 0.44227198 0.42444101
-0.01240390 -0.44100183 -0.02207974
0.52712369 -0.46513724 0.30578458
0.21496741 0.13840100 0.30707645
0.18320462 0.77436596 -0.11015895
0.13726979 -0.34067255 0.71282154
-0.11340327 0.10889800 -0.39828241
0.35837546 0.00180881 -0.74257660
-0.03375632 0.43791211 0.63310188
0.16316509 0.63932574 0.58082837
-0.26880825 0.08178729 -0.32824814
-0.45084840 -0.47344756 0.03859300
0.41925120 -0.07355455 -0.68828750
0.14941201 0.00661631 -0.86764920
-0.54513538 0.00377804 -0.13199359
-0.13181779 0.14223111 -0.84699690
-0.10118651 0.67748070 0.57993621
0.34791994 -0.05994423 0.38815916
-0.69250607 -0.17886069 -0.16898954
0.02884530 0.91901380 0.13086827
-0.37697005 0.07262196 -0.43624184
-0.48990005 -0.01606396 0.10930102
-0.09348217 0.65349698 0.52749169
0.32603416 -0.53802884 0.52461630
0.60051680 -0.44859105 -0.01266560
0.32535475 -0.41696686 -0.36640576
0.30886221 0.04186140 -0.04052483
-0.28403521 0.13279857 -0.54396218
-0.00814662 0.30923000 -0.67962545
-0.28232270 0.16845141 0.08505733
-0.33012798 0.00206742 -0.77074307
-0.43980396 -0.39502639 0.54302490
-0.02170661 -0.48076475 0.06871514
0.52897322 -0.03489618 -0.13255730
0.23433617 0.13012944 0.27424422
-0.28146467 -0.58964664 0.50523120
0.12954251 0.66902792 0.58706057
0.30521089 0.09764532 -0.76510042
-0.09654460 -0.53448033 0.27296099
0.00325242 0.22359128 -0.61117369
0.30464977 -0.29621866 -0.74328405
-0.08781825 0.75131875 0.32428050
-0.13768317 0.46986666 0.55796188
-0.31483036 -0.49657124 0.59745121
0.10646970 -0.59430313 0.43655115
-0.05862755 0.14834718 -0.53873944
-0.30032948 0.51702893 0.28614107
-0.68998432 -0.28563726 0.09917031
0.19154717 0.39875442 0.56420374
-0.30543408 -0.11546636 -0.80155003
0.45119080 -0.49431551 0.41227782
-0.63486469 -0.42985064 0.05194397
0.26973033 -0.41375124 -0.49247462
-0.24619710 0.06958581 0.32480446
-0.16350885 -0.01063712 0.52628356
-0.28628442 0.16741209 0.12875818
0.13167901 -0.41077524 0.70904422
0.17936100 0.02574614 0.44317001
0.17660588 0.85618520 0.10648450
-0.38368541 0.07019955 -0.40691894
-0.16332704 -0.11330688 0.63339627
0.19253613 0.07582985 -0.43577245
-0.04891282 -0.55784285 0.34274131
-0.26493469 0.07664966 0.02112322
0.12533487 -0.23239493 -0.84503138
0.60454166 -0.13129604 -0.36860529
-0.45020446 -0.45715386 0.49749720
0.40174821 0.03840303 -0.41952008
0.22146770 -0.37865442 -0.74302149
-0.11896048 0.29825050 -0.75410593
-0.27566746 0.06148305 -0.06543738
0.38800028 0.01220621 -0.29846191
-0.27564114 -0.46624529 0.04963814
-0.04659434 -0.60020894 0.46251434
-0.13146147 0.11334705 -0.29013401
0.08393461 0.70924336 0.59732950
0.14203893 -0.60911918 0.56519169
-0.31507587 0.52625114 -0.02378096
0.40419814 -0.06849715 0.30056137
-0.12584512 0.24240533 -0.62909442
0.17194477 -0.21846774 0.68851626
-0.61841702 -0.07037780 0.07881594
-0.04910836 -0.32201737 -0.82516783
0.19927332 0.45759943 0.57680881
-0.44781882 -0.41758853 -0.26743084
-0.31421599 0.55416441 0.01622355
0.29385960 -0.20643455 -0.79204023
-0.07973166 -0.59250969 0.60839826
0.26790124 0.16452149 0.04692918
-0.05485825 0.35590926 0.62262887
-0.01734540 0.11328018 -0.18542680
0.24280512 0.29707190 0.39326236
-0.15030161 -0.45223600 -0.00867074
-0.01365221 -0.38280708 -0.76549292
0.13540399 0.82559311 -0.09379788
0.66841424 -0.23863333 -0.00741584
0.35198846 -0.06993245 0.39678693
-0.32568106 0.04214019 0.22299242
-0.24534400 -0.13400039 0.61171812
0.28618777 -0.26055574 0.61009496
-0.43098316 -0.16781238 -0.69410509
0.44992718 -0.56780100 0.21025246
0.13240318 -0.39857894 -0.60607767
0.13742356 0.84229219 -0.07181470
-0.27228603 -0.33455300 -0.76142657
0.13709889 -0.55343139 0.28814393
-0.50882882 0.03604840 -0.45083317
-0.18749546 0.25970268 0.42143518
-0.35737994 0.34055871 0.23393831
-0.18111774 -0.33287695 -0.79244965
-0.36599228 0.36214375 0.20167726
-0.01082338 -0.38360864 -0.35609818
-0.10600565 0.59788352 0.61480188
0.39268878 0.04500832 -0.44944787
-0.02997998 -0.38435191 -0.33334914
-0.34932089 0.36728299 -0.02478216
-0.23099647 -0.55057901 0.34373078
0.24448189 -0.61537975 0.42625359
0.09352867 -0.24706155 -0.84778762
0.08528100 0.50923431 -0.26879859
0.62372208 -0.29601654 -0.31962851
0.26912409 -0.09017220 0.51666266
0.31522048 -0.51716250 0.06213838
-0.57298064 -0.49306101 0.12192330
0.01740566 0.64182901 0.63906640
0.35370412 0.09774636 -0.66422397
-0.03180236 -0.44706082 -0.01049472
-0.36699468 -0.39487183 -0.45304692
-0.47304294 -0.02113912 -0.59866387
0.59715784 -0.44525200 -0.08667979
0.06808987 0.06793194 0.44550270
-0.35970137 -0.07752475 -0.76434356
0.01921696 0.04484226 0.48872393
0.04909692 0.44146076 0.64181209
0.06162469 -0.47724050 0.06264861
0.17284481 0.10263930 -0.85173392
0.22609177 0.50152898 -0.19020009
0.34805131 0.02213711 -0.01024967
-0.07388969 0.32135957 -0.73310822
0.31165057 0.34260038 0.34011537
0.60145450 -0.09171206 -0.10304558
-0.05021175 -0.37775189 -0.68846619
0.09185798 0.66308761 -0.22162962
-0.03006440 0.88469815 0.18178743
0.64674878 -0.33042896 0.11278525
-0.22111003 0.51788777 -0.18448725
0.08046932 0.66463512 0.51235229
-0.67609739 -0.13063505 0.02526243
-0.19314967 0.78370225 -0.05986746
0.50320232 -0.54542357 0.13375878
0.14312913 0.78100109 -0.13198027
-0.60735297 -0.19003102 -0.43330416
-0.02556562 -0.60827571 0.60427338
0.22209261 0.44237748 -0.20538071
-0.62574899 -0.44408244 0.03003948
-0.55981040 -0.14480329 -0.51209629
-0.31905183 -0.39342648 -0.64852619
-0.40917656 0.07473481 -0.62516326
-0.05011725 0.33080888 -0.70738578
0.06465386 0.69722664 0.55703872
-0.32463828 -0.38648051 -0.54050505
-0.22003984 -0.41960025 -0.14650932
0.35782665 -0.45506656 -0.22292355
0.29996234 0.05699693 -0.78285271
0.04267662 0.28683978 -0.24264094
-0.24052088 0.64560837 -0.10831141
0.50036657 -0.51926094 0.24821687
-0.22700511 0.77488500 0.13871588
0.25071844 -0.40818828 -0.62090719
0.42974946 -0.23024437 0.47590435
0.08454509 0.25491366 -0.21646433
-0.07307244 0.22611248 -0.60445660
-0.30813295 0.00477813 0.38258228
-0.40077153 0.10007956 -0.56253052
-0.26856330 -0.16108277 0.61407018
0.20693664 -0.46482527 -0.01884719
0.03692722 0.79101342 -0.16517322
-0.28075323 0.07451016 -0.19222319
-0.37820962 0.40377292 0.13948777
-0.38813576 -0.54493034 0.28750533
0.21040569 0.73088545 -0.10643189
-0.08988860 -0.32278419 -0.81814289
0.47717687 0.01615475 -0.35424194
0.03866076 0.11428176 -0.25772414
-0.15945686 -0.60079944 0.49698579
0.17867254 0.08766025 -0.24513051
0.37174276 0.43838829 0.04902106
-0.56695831 -0.04357550 -0.44845399
0.12481515 0.61397481 0.44673568
-0.56087267 -0.06987305 -0.47955132
-0.15102275 0.84749037 0.14616011
0.47308391 -0.55596876 0.20946461
-0.59434342 -0.02086842 -0.07592789
-0.59382331 -0.04840587 0.06226747
0.15557793 -0.39293689 0.70896792
-0.00324768 0.12618226 -0.50525641
0.31583154 -0.01040283 0.33726794
-0.35603294 0.40766156 0.21888697
-0.21546082 0.08138993 -0.20581268
-0.22731969 -0.45997798 0.66506690
0.44166967 -0.28022134 -0.63485283
0.04912402 -0.41768473 -0.08737174
0.38514939 0.00506601 -0.09412591
0.23074010 0.06727286 -0.23672445
-0.05318590 -0.38302267 -0.70148271
0.22068737 -0.48291796 0.01859849
0.29137394 -0.53283954 0.13460736
0.54664373 -0.40940398 0.30896324
-0.70843184 -0.20428869 -0.09566310
0.34063283 -0.41769683 -0.51354647
0.32800594 0.04692301 -0.38339749
-0.37158573 0.03813700 -0.05895647
0.21523418 0.24783799 -0.15010248
0.26466832 0.17814563 -0.00425277
0.14302003 0.63103986 0.37564817
-0.00921992 -0.52291173 0.21480986
0.14127035 -0.25120312 0.70107430
0.64641452 -0.35653168 -0.13158776
0.10188375 0.91490602 0.09399647
-0.58977115 -0.01112172 -0.24351415
-0.13141713 -0.42825228 -0.09609234
-0.40419474 0.02018751 -0.02735415
-0.00896022 0.35563779 -0.76206708
-0.25265008 -0.02218845 -0.82491297
-0.30606356 0.59382939 0.08129916
-0.24455374 -0.10340953 0.58234262
-0.16901168 -0.56482428 0.37705693
-0.70646703 -0.28451848 0.03012399
-0.56051373 -0.29728454 -0.49709144
0.27463126 0.05480092 -0.33884734
-0.32622397 0.53719354 0.07438193
0.45400786 -0.18685961 0.40114787
-0.58420348 -0.31652093 -0.44608486
0.61072969 -0.19521695 0.16232070
0.17341033 0.55619848 0.59175467
-0.15997197 0.74670368 -0.12846048
-0.02756713 0.08215921 -0.87812668
0.29334596 -0.53678411 0.55047214
0.05893313 -0.54425353 0.27128035
-0.14845462 0.10030600 -0.18785726
-0.65052187 -0.41609108 -0.07337653
0.26530632 0.49663085 -0.15278912
-0.33528602 -0.48022527 0.07511467
0.07256921 0.64800131 0.40175167
-0.26784778 0.49788824 0.36193773
0.57316577 -0.36395431 0.27425227
0.08884359 -0.39487565 -0.28527480
0.35672805 0.01841709 -0.00305524
0.50121689 -0.00767452 -0.28358060
-0.11795875 -0.25570053 0.71506006
-0.08047379 0.20242205 -0.84752238
-0.05197251 0.17297064 -0.85392278
0.19910112 0.43980947 -0.22674361
-0.20937851 0.23970649 -0.70310366
-0.50521338 -0.00619049 0.02181866
-0.10134976 -0.24189898 -0.85181767
0.23460422 0.27367955 -0.14952126
0.13584101 0.86780000 0.16364102
0.41650239 -0.44729024 -0.35972643
-0.30119136 0.22230449 0.23603493
-0.32313603 0.24527693 0.21389106
-0.14345986 0.15015575 -0.83928412
0.41499054 -0.08776537 -0.69914800
-0.40749428 -0.53794825 0.26757410
-0.35635376 -0.50681037 0.16402024
-0.59559488 -0.32811499 0.31229046
0.07002461 0.11221337 -0.48291767
0.46891323 -0.28768301 -0.60050952
0.64946628 -0.17707896 -0.01152947
-0.36379683 0.05208118 -0.25099954
0.36680752 0.45802096 0.04262773
-0.05242494 0.65663999 0.47903705
-0.42222682 0.04468550 -0.32023132
0.03013146 -0.36834168 -0.52659309
0.43475613 -0.06138097 -0.66815573
0.37018755 -0.41254920 -0.55506909
0.06080767 0.09092123 -0.87777025
-0.63965309 -0.26540843 0.24793544
-0.65781200 -0.38277096 0.14209174
0.63979518 -0.39164746 -0.08238927
0.26739109 -0.30973253 0.63723058
-0.22470142 -0.44699270 -0.03495982
-0.54577255 -0.43763059 -0.27062035
0.11206724 0.62351370 0.45860821
-0.58530235 -0.10953438 -0.45036915
0.16384524 0.44713739 0.61579818
0.34642708 -0.40763378 -0.59825319
-0.36007103 -0.48329777 0.07204197
-0.19655359 0.52161479 0.56323278
-0.37539124 0.06461149 -0.37992710
0.24093410 0.14809462 -0.79985750
0.02363057 0.78948253 -0.16094339
0.04718583 0.11978540 -0.50317228
-0.58152235 -0.13216063 0.25974619
-0.24785534 -0.32942230 0.68508571
0.32963154 0.23247716 0.14585015
-0.03481507 -0.44858479 0.70824635
0.13592835 -0.38486022 0.71585053
0.47325912 -0.45163935 -0.38669065
0.52600670 -0.33802396 -0.48455563
-0.37325257 -0.42540556 -0.14797893
-0.49146131 -0.53553838 0.27657351
0.20142740 0.55843520 -0.19740120
-0.34449831 -0.46659309 0.02541878
0.40681151 -0.31651130 0.52608591
0.09051879 0.10382240 -0.32144213
0.34368116 0.46165425 -0.01681826
0.34774238 -0.30087957 -0.71182978
0.11382018 -0.37830651 -0.47794166
0.48353043 -0.04198027 0.05204993
0.23788682 0.28571209 -0.16150227
0.35242930 0.02324381 -0.21706310
0.05125964 -0.48391581 0.08428855
0.10723404 -0.43734694 -0.10153259
-0.05845880 0.82716191 -0.13030082
0.24003097 -0.00549756 -0.83054131
-0.40252978 -0.39784420 -0.51157498
-0.40321687 -0.14718252 0.50196391
-0.25191084 0.72010529 -0.00386853
0.18626964 0.11893715 -0.52216744
0.22699361 0.21222617 -0.75316119
0.34396622 0.02497821 -0.05795581
-0.36461338 0.05320963 -0.27332997
0.04705273 0.16599567 -0.86234134
-0.31550503 0.24287459 0.01826505
-0.08326701 -0.55117130 0.30895635
0.21539293 0.59530562 -0.17814097
0.07551535 -0.42665762 -0.10979277
-0.25301933 0.09179286 0.27157184
0.06746782 -0.52108258 0.18135571
-0.07817631 0.12660855 -0.50617528
0.67459226 -0.26532909 -0.06544331
-0.20583090 -0.12181869 -0.84953320
0.45579597 -0.23679996 -0.63522416
0.02670263 -0.60047072 0.45176482
0.26339075 0.06633963 -0.43634218
0.57049310 -0.38634181 -0.30831200
0.42747277 0.05879503 -0.53323758
0.44746751 0.02465521 -0.36998934
0.03342484 0.63625968 0.63713157
-0.27454922 0.20721942 0.27775180
0.11066268 0.03862540 0.47003263
-0.53070092 -0.44681042 -0.22233891
-0.13145190 0.41651434 0.64031011
-0.69463062 -0.15524301 -0.09744043
0.26145396 -0.48899019 0.00898144
-0.02913257 -0.52632606 0.23577440
-0.37122601 -0.26384762 -0.72514868
0.03629946 -0.39913315 0.72927952
0.65879130 -0.20034859 -0.17671713
0.30604398 0.05157328 -0.40141976
-0.36626619 0.41366792 0.05413076
-0.55856538 -0.29105556 -0.51414716
0.09282393 -0.49324429 0.68198967
0.26610678 0.47436777 -0.15656355
-0.09691008 0.89450920 0.10405974
-0.56121337 0.00559202 -0.37186149
-0.19575265 0.10409927 0.34811535
0.01320918 -0.45617992 0.70799422
0.62031686 -0.12946343 -0.29604888
0.29167882 -0.30353668 -0.74493480
0.43727648 0.01410520 -0.60614002
0.08219399 0.91583359 0.11765468
-0.02533617 -0.26896486 0.72923642
0.52285624 -0.05240947 0.02071497
-0.18167756 -0.38307363 -0.67934376
0.56149685 -0.33652228 -0.41564196
0.07588536 -0.38659817 -0.67890060
-0.33350813 -0.37709081 -0.67696875
-0.52095973 -0.38898683 0.43176264
-0.30605230 -0.02274467 -0.78717476
-0.37607852 0.38549149 0.13227594
-0.07722376 0.04408640 -0.87455457
-0.67881870 -0.37930614 -0.09003814
-0.01305661 0.68933457 0.38622209
0.29089993 0.04114508 -0.12911628
-0.22771519 0.20331214 -0.07310813
0.09043317 -0.34966379 0.72750002
0.26703560 -0.59720105 0.51021731
-0.68632483 -0.34787583 -0.10851368
0.60287905 -0.41962409 -0.15687451
-0.20077193 -0.57304525 0.59463388
0.20700057 -0.40059173 -0.65812492
0.34743026 -0.31584817 -0.70286077
0.14401552 0.10791457 -0.48558527
-0.13015495 0.82414955 0.22492361
0.20130564 0.16658083 -0.60208619
0.23918989 0.04677389 0.33110812
-0.32685184 0.03104129 0.29420355
-0.14386971 0.05837674 -0.86615419
0.25300029 0.61963046 -0.11894616
0.18229876 -0.39903259 -0.70296496
0.57749879 -0.25842661 -0.42308870
-0.41936299 0.02419826 -0.04603199
0.10937099 -0.37304270 -0.78380805
-0.39177993 -0.37760860 -0.62925506
0.20356789 0.17007151 -0.08439770
0.05523686 -0.09726930 0.62825525
-0.05489505 -0.59008032 0.62394661
-0.42920485 0.08058608 -0.52637321
-0.30212462 -0.48910517 0.12069178
0.11780810 0.62772268 0.40114647
-0.05860356 0.11379950 -0.87161338
0.47564146 -0.11591494 0.28427786
-0.27722818 -0.44584781 0.64164823
-0.48983485 -0.41034406 -0.42347309
-0.61069524 -0.03629093 -0.06418358
0.10912625 0.29316154 -0.80237323
-0.46200365 0.05783825 -0.38527930
-0.04027976 0.27980977 -0.24198267
0.09935882 0.85636473 0.20970795
-0.03743854 -0.37571651 -0.10762449
0.19020475 0.37911928 0.53108883
-0.15541013 0.42751184 0.61403000
0.28052118 -0.42463541 0.62448150
-0.14450338 0.54525286 0.58485419
0.34255216 -0.32772198 0.58617425
0.26220122 0.68471104 0.19239461
-0.23467845 -0.23139444 0.67095113
-0.17120828 0.74121845 -0.12147428
-0.16656178 -0.42005658 0.69968843
0.25931999 0.16534419 -0.76877457
0.25882861 -0.26021230 0.62939447
-0.59851909 -0.03374524 -0.33883408
0.04698690 -0.50954551 0.15911026
-0.62643218 -0.13783520 -0.37657592
-0.31256956 0.50412005 -0.06661302
0.28489146 -0.05095387 -0.81151855
-0.04846729 0.86974084 -0.09881383
-0.21801597 0.14709546 0.32006302
0.18359226 0.02095219 -0.85144943
0.08201391 0.93461621 0.08070026
-0.25691158 -0.17968169 0.63310027
-0.57916331 -0.04369614 0.08204922
0.08854997 -0.37212521 -0.50664306
-0.04577654 -0.37375456 -0.56955570
-0.04325476 0.16043459 -0.55942118
-0.38915059 -0.40118706 -0.45219561
0.33487105 -0.53627205 0.52380943
0.11998016 -0.02077660 -0.87209046
-0.01493976 0.33570296 -0.78266776
-0.40110314 -0.42007327 -0.18991828
0.17246155 -0.18225080 -0.84507388
0.24844769 0.36041218 -0.18236662
-0.49257013 -0.47713453 0.01122993
0.06908730 0.29516295 -0.80342788
0.14567602 -0.59794736 0.57932496
0.39261407 -0.58885604 0.30119979
0.53077555 -0.52516717 0.03268357
-0.30221671 -0.58045465 0.50428170
0.39141476 -0.30522442 -0.68374550
0.28675422 0.56750268 -0.08490527
0.32453334 0.55428463 0.02524398
0.63141835 -0.36571258 -0.18781203
0.46804291 0.00548269 -0.37166318
0.37835851 0.35347939 0.08474806
0.58897269 -0.46224880 -0.03412359
0.20024914 0.09684105 -0.47671607
-0.24145618 0.60176849 -0.13199434
0.42227492 -0.49208558 0.46265167
0.08061973 0.82060355 0.26165792
0.59756351 -0.16921705 0.16492017
0.14276607 0.81636649 0.22833180
-0.04893521 0.64962417 0.43051827
0.36680496 -0.53399581 0.10278064
-0.17520244 0.79072535 0.22071016
-0.33296761 0.02635497 -0.76058066
-0.50907838 -0.46951395 -0.02989691
0.36251876 -0.51601440 0.51392347
-0.23540072 0.51942241 0.39431760
-0.57701004 -0.37526000 -0.38320455
0.17263170 -0.41686779 -0.19298214
-0.54672086 0.00521083 -0.15654331
0.28486383 0.04779661 -0.05369247
0.40148801 -0.52028471 0.03954378
0.10430402 -0.39208758 -0.32485360
0.02273481 0.21049768 -0.84764755
-0.39249870 -0.35840029 -0.65111107
-0.11441053 0.55952227 -0.24170196
-0.20178886 -0.20542774 0.68396562
-0.49580839 -0.49256700 0.39019367
-0.61594427 -0.03639524 -0.25612071
0.08404537 0.12904674 -0.86913198
0.24656299 -0.40459037 -0.32383114
0.05735878 0.50167310 -0.28073782
0.39498839 -0.09675476 -0.72027969
0.15863197 -0.06788795 0.57153952
-0.29121825 0.43954057 -0.12125703
-0.22285356 0.20903255 0.36167309
0.18193068 0.40521607 0.58350515
-0.29217330 0.51852471 0.30385175
0.42845839 -0.44995177 -0.38173383
0.62952852 -0.16373065 -0.29683468
0.46360764 -0.16522908 0.37143707
-0.27455318 0.10798645 0.10566795
-0.32759598 0.40265274 -0.07165756
0.11784264 -0.46738976 0.01700461
0.52593780 -0.08412516 0.13797000
0.00290429 0.93954986 0.05531614
-0.33845168 0.00097039 -0.76681525
-0.32600483 -0.37310624 0.63494176
0.43050164 -0.45626485 0.47322392
-0.07715891 -0.56424153 0.36730939
-0.37026703 0.43193296 0.18164238
-0.53063047 -0.00331709 -0.08233986
0.50318372 -0.22258762 -0.58380914
0.44377348 -0.00607637 -0.27260137
-0.31316406 0.05737293 0.10332482
-0.08754196 0.57409644 0.60878211
0.00922495 0.90943456 -0.06746864
0.01992925 -0.08759868 -0.88735873
-0.30664030 -0.49950743 0.16219027
-0.20544487 -0.47531426 0.07076423
-0.30433920 -0.37697130 -0.50766593
0.18416037 -0.49197149 0.06885144
0.36552295 0.08609993 -0.59176779
0.10472322 0.25077739 -0.63942474
0.13303575 -0.38565046 -0.78120512
-0.15627287 0.23402819 0.42472360
-0.15164128 -0.45929384 0.04578692
-0.06386597 0.26109678 -0.64654315
0.32289141 0.01633306 0.22661054
-0.13823651 -0.52320886 0.24228838
-0.01128238 -0.05163084 0.59135568
0.34034947 0.24435228 0.12714849
-0.39719778 0.02468431 -0.03084806
0.24984264 0.21247898 0.31515279
-0.50088716 -0.41576713 -0.31763291
0.23991829 -0.40615338 -0.33223614
-0.21799104 -0.10857594 0.60826290
-0.68684530 -0.29075035 0.11013891
0.02471318 0.51849139 0.57020962
-0.48955607 -0.41539013 -0.27281347
0.01444451 0.32920486 0.60396105
-0.03759810 -0.59468424 0.46715826
-0.05177400 -0.61956960 0.57507724
0.24199969 -0.40842515 -0.26406938
0.05863892 -0.20895723 0.70617151
-0.22080792 0.61419010 0.33926994
-0.19610067 0.54852027 0.56178755
-0.16342555 -0.09391537 0.61575925
0.11893159 0.29349798 -0.78946161
0.04594156 -0.55174625 0.29968575
-0.16784610 0.23599096 -0.14648426
-0.18742840 -0.33148900 -0.78598624
-0.15233926 0.21714708 0.41423211
0.15916102 0.54476595 0.58186597
0.14361164 0.18385932 0.39121768
0.29726294 0.39534539 -0.13016221
-0.00576989 -0.48141634 0.07920633
-0.45811111 -0.07349065 0.33514482
-0.30418769 -0.43332815 -0.07706549
-0.21291412 -0.50908303 0.64048845
0.55197084 -0.04323946 -0.16563328
-0.30572945 0.07437317 -0.31870246
0.08054094 -0.38117921 -0.59201914
0.66676462 -0.26229218 -0.00452144
-0.70452273 -0.24116850 -0.12035298
-0.06166909 0.31103101 0.54881364
-0.07650620 -0.31136695 0.72899288
-0.22412503 0.08309470 -0.18964458
-0.38808352 -0.04898269 -0.73711854
0.16427045 -0.21182665 0.69024038
0.18611795 -0.31611198 0.69189239
-0.00316219 0.42260319 0.66454864
0.38929275 0.03757957 -0.43187124
-0.37460914 0.02809073 -0.01548568
0.51512861 -0.04647532 -0.01752652
-0.21165127 0.08651501 -0.09373705
0.31087855 0.60689032 0.09379616
0.17452154 -0.62745327 0.50831878
-0.15460134 0.18376294 0.38717952
-0.55895710 -0.44242322 -0.24994265
0.00936749 0.32258046 0.58778995
-0.09070207 0.71892506 0.34783843
-0.09677741 -0.36442000 0.72905093
-0.29383135 0.06826519 0.08085249
-0.52852285 -0.09407294 0.28023246
-0.14920940 0.10786051 -0.28136528
-0.08868502 -0.45446736 0.70140600
0.13693325 -0.39167011 -0.73270905
0.45543545 0.03011484 -0.40541315
-0.57126772 -0.36081511 0.35512173
-0.01775092 -0.41747659 -0.05586552
-0.12987740 0.57749951 0.60087931
-0.11771180 0.54013026 0.57956177
-0.53149974 -0.42310959 -0.31829920
-0.31376770 0.39294869 0.34695268
-0.06976369 -0.45564467 -0.00011748
0.23068680 -0.35416222 0.66444302
-0.05473792 0.81798601 -0.13498211
0.51533318 -0.03207269 -0.13485914
0.36122766 -0.01110217 0.24427670
0.38198790 -0.05410065 0.31988412
-0.24970198 0.33121282 -0.15319571
0.34390506 -0.26124144 -0.73797232
-0.25381252 -0.03558385 0.50569558
0.37146845 -0.53000522 0.06822644
0.02769684 -0.08236097 0.62432534
-0.55721653 -0.31609166 0.39427057
0.08420187 0.10111261 -0.28312820
-0.48880205 -0.25611433 0.47019047
-0.33031175 -0.38127905 -0.37989515
0.26962015 0.53711033 0.31997171
-0.18154763 -0.49130142 0.12756844
-0.16675483 0.14237286 0.35921949
0.50831115 -0.28648901 -0.54675877
0.38089165 -0.17233604 0.49395865
0.17918450 0.06973375 0.36591727
-0.02830215 0.69808149 -0.21048808
-0.28128895 0.18781893 -0.68597078
-0.39917654 0.03138149 -0.09742893
-0.01669468 0.31743491 -0.69461769
-0.39001438 0.07205767 -0.43199342
-0.39873698 -0.45207876 0.55504435
0.02783233 -0.61649460 0.55273139
0.44956437 0.04338793 -0.45807698
0.14813022 0.09111504 -0.21290234
0.17465399 0.76084501 0.25253180
-0.53018677 -0.00941472 -0.00773427
-0.19998951 0.11533847 -0.04810977
0.22426397 -0.07348987 0.54176009
0.09441075 0.10609066 -0.31253159
0.12581913 -0.39148402 -0.60776126
-0.07942551 -0.59394073 0.44459713
-0.37729168 0.03203011 -0.71362096
0.42241290 -0.19666615 0.45817786
0.34522325 0.29608622 0.23998457
0.12525894 0.25124106 0.45401514
-0.57101238 -0.37632853 -0.39577708
0.24025184 0.22986928 0.34277326
0.40078199 -0.39794111 0.52684474
0.02672415 0.69898766 0.64874667
0.38114905 -0.44585848 0.52791250
0.16082372 0.58873081 0.60512429
-0.35860166 -0.50378835 0.15159473
-0.33308250 0.04459339 0.00516681
0.44868574 0.03718279 -0.42422521
0.24182475 -0.16650519 -0.82908189
0.54050636 -0.32541513 -0.45672897
0.07609889 0.32598037 -0.72005594
-0.04804831 -0.25747967 0.72249168
-0.38799423 -0.32683808 0.58493733
0.13804540 0.35438055 -0.25030065
-0.07458842 0.17789803 -0.15480530
-0.17182250 0.15943986 0.36669135
0.32469469 -0.28404164 0.59004307
-0.31804815 0.07329966 -0.25000912
0.26535794 -0.50097966 0.59938055
0.34775764 -0.42842555 -0.32608014
-0.14777516 0.12683780 0.37554651
-0.22011968 -0.33569694 -0.77828556
0.02221245 -0.62341845 0.55378431
-0.24776770 0.02382371 0.42502689
0.43393758 -0.24437153 0.48196018
0.48598421 -0.33607471 0.42569014
-0.03254607 0.69047189 0.53637564
-0.27895534 0.60467410 0.23007846
0.25405565 -0.46869195 -0.05495500
-0.02653333 -0.09922463 -0.88461542
-0.29779652 0.58498204 0.17626645
0.53829098 -0.52087283 0.05023898
-0.26309338 0.11568539 0.07457203
0.55960011 -0.08386503 -0.42476356
0.06374510 -0.46513796 0.00372244
-0.01050424 0.80236220 -0.15133113
-0.31135643 0.05896227 0.21737579
-0.21101029 0.59555233 0.36134285
0.08966954 0.10007913 -0.29179186
-0.22129019 0.48741600 0.47611201
0.19390598 0.59912145 0.54037118
-0.19503468 0.10785767 -0.44336301
-0.31983742 -0.45309478 -0.01737266
0.21594973 -0.46120661 -0.03861179
0.23435800 0.52008677 0.53226978
-0.03311266 0.63560331 0.63265258
-0.12705211 0.04568481 -0.87416101
0.42368791 0.01945324 -0.35256898
0.51793861 -0.35329264 0.37120610
0.02812926 0.71381503 0.36478522
0.23146233 0.40631860 0.51289302
-0.68942428 -0.22251126 -0.21984534
0.42508471 -0.12199199 0.36816800
0.26518294 0.05172389 -0.81095856
0.59582865 -0.45267999 0.00297485
0.02514014 0.37735885 0.68185902
0.21789671 -0.40818602 -0.58440584
0.39745364 -0.51003408 -0.00795643
0.47894949 -0.37291116 -0.50535131
-0.01227218 0.22937086 -0.84867638
0.27458224 0.42811692 0.39886725
-0.18230975 0.21148305 -0.77613342
-0.56491375 -0.43760401 -0.24245363
0.11734968 0.63920498 0.50890207
-0.40039673 0.04983254 -0.36265877
-0.00228462 -0.36367702 -0.45046476
-0.03316794 -0.16105983 -0.87511832
0.36615354 -0.01594542 0.23704731
0.24893484 0.70386416 -0.05526049
-0.24369404 0.12627077 0.28103277
0.59687006 -0.11889228 0.07055527
0.41531318 -0.53662276 0.07488286
-0.12232205 -0.58036774 0.40301669
-0.04998668 -0.22810623 0.71797538
-0.05913528 -0.36862808 -0.56283855
0.34043190 0.08510068 -0.73171270
0.18734840 -0.40202659 -0.59352148
0.11699572 0.36932394 0.61055642
-0.14293675 0.27128628 0.46027392
0.15692291 -0.24713928 -0.84076500
-0.17687340 -0.50233662 0.17700708
-0.23460726 0.72406387 0.20068640
-0.67574751 -0.33062094 -0.18348348
-0.48966378 -0.03084223 -0.56936216
-0.00696607 -0.15286440 0.69151145
-0.37780827 -0.18823689 -0.74624032
0.19394617 0.56410277 -0.19951639
0.23269126 0.76763964 -0.03339709
-0.25249144 0.49403045 0.38464066
-0.08827985 -0.15957013 -0.87467194
-0.36516020 0.43366310 0.09139855
-0.31720436 -0.23282829 -0.78117239
-0.64226675 -0.33863223 -0.29535139
0.23465377 -0.23402289 0.63635385
-0.11767165 0.24146143 -0.62085176
-0.10807054 -0.55930364 0.63523167
-0.25915885 0.68967909 -0.02017501
-0.05507576 0.50915158 -0.26826072
-0.21399616 0.24088003 0.38995802
0.12455317 0.09332206 0.38473812
-0.54463315 0.00405887 -0.10921580
0.04516838 -0.37429684 -0.55793047
0.25784376 -0.10133889 0.53928131
-0.47796345 0.05780944 -0.40574190
0.12130441 -0.04921487 0.56696433
0.41934061 -0.10294834 -0.69571978
0.37706998 0.38033611 0.11309792
-0.30121592 0.01003756 0.39586508
0.17347024 0.30353349 0.46978056
-0.00738761 0.34054196 0.61606061
0.12518242 0.81459624 0.25111979
0.27796981 -0.31402496 -0.74993992
-0.17297903 -0.22431576 0.70599991
-0.25288540 -0.25868219 0.66660398
0.46332675 -0.41069800 0.44991070
-0.47855064 -0.39671403 0.48357642
-0.66695487 -0.36360240 0.11256805
-0.52784145 -0.25813985 0.42739326
0.28203261 0.57338500 -0.09387591
-0.25886038 0.14544675 -0.77424973
0.25524592 -0.28418860 -0.78111273
-0.36672387 0.40705580 0.20183781
0.11334559 0.88511604 -0.03043130
0.61754417 -0.27660444 0.19673210
0.39340991 0.08102570 -0.54645061
0.21148677 -0.09911710 0.57254356
0.17184986 0.82713455 0.18882254
0.41165504 -0.04239522 0.19975939
-0.24246323 0.14694273 0.26026437
0.57394624 -0.05618382 -0.22962737
0.26140970 -0.47066343 -0.07670906
0.40101331 -0.48893523 -0.08583154
0.22877188 0.12094658 0.27656820
0.21567971 0.80254483 0.16385263
-0.10887972 -0.45259649 -0.02899883
-0.31545758 -0.38918132 -0.68123239
-0.40278411 0.08358034 -0.46472320
-0.24604031 -0.38320321 -0.71417838
0.36371490 0.31422937 0.02157235
0.04193978 -0.28050414 -0.83863479
0.31204537 0.21064420 0.18545637
0.32746777 0.53786886 0.00258903
0.22661786 0.20459241 -0.09600623
-0.12634769 -0.40559375 -0.20545919
0.12177099 -0.54835194 0.64284080
0.62694013 -0.18087199 0.11455749
-0.31580731 -0.17146456 0.58418435
0.08439275 -0.47064126 0.01782291
-0.62237775 -0.32806143 0.25182286
0.27456197 0.15230301 0.15371765
0.37156713 -0.47796392 -0.08695486
0.41600335 -0.42349738 0.50750297
-0.29744387 0.28375813 -0.05745625
0.05079684 -0.46603543 0.70492095
-0.46980673 -0.43369019 -0.16435696
0.15975976 -0.29809216 0.70347798
0.59942961 -0.35077673 0.23235494
-0.59011424 -0.46332926 0.22515392
-0.44421989 -0.04196247 -0.66134655
-0.28954425 0.57504970 -0.05131475
0.44852850 -0.11048710 -0.67120755
-0.46505848 -0.39734352 -0.53111792
0.25987545 0.15156151 0.03822413
0.37540090 -0.42816323 -0.36108178
-0.18386395 0.80684358 -0.04715232
0.39527628 -0.04818575 0.27375621
-0.04837086 -0.51002234 0.17598747
0.36414558 -0.54025745 0.12049155
-0.15816648 -0.52279437 0.24993083
-0.00905912 -0.43783218 0.71505910
0.26429597 0.09940427 -0.52424991
-0.50552547 -0.41689193 0.44480962
0.15726152 0.03456762 0.43863207
-0.12879562 0.82613575 -0.09029523
-0.14250602 0.13391344 -0.51346469
0.15265878 -0.40067667 0.70129418
-0.43874860 -0.23964804 0.52128464
-0.64277864 -0.37614691 -0.21335581
0.01490395 -0.39247298 -0.11045769
0.58225262 -0.31013831 -0.38718539
-0.46926680 -0.54085994 0.26542103
-0.28309748 -0.12234575 0.57597995
0.39965490 -0.02848415 0.18236807
0.02922146 0.56090856 -0.26978031
-0.07057011 0.35547274 0.62505424
0.38081157 -0.58536530 0.37953898
0.21450315 -0.54801953 0.24085072
-0.46794191 -0.53849328 0.22008353
-0.13795124 -0.58939028 0.58765322
-0.34136021 0.06166853 -0.33626464
-0.11616556 0.10942767 -0.23265208
0.49849930 -0.06419069 0.12534240
-0.11294211 0.20995650 -0.59432906
-0.01965891 0.77559054 0.32671729
0.00638396 -0.46200728 0.02066962
0.37257960 0.08781406 -0.56147218
-0.18401483 0.10230110 -0.37452227
-0.19684507 0.64753473 0.32597408
0.48996732 0.01389112 -0.48328775
-0.65270209 -0.28738976 -0.30230469
0.63077354 -0.13904020 -0.23722702
-0.04792346 0.65927815 0.45754319
-0.25279468 0.74013817 0.12650914
-0.12164354 0.17344838 -0.84187013
-0.62761879 -0.37400544 0.22455838
-0.20827882 0.33065891 0.46876347
-0.66560864 -0.16436231 0.11856593
-0.03980792 0.28601772 -0.81453544
-0.13180505 0.26576561 -0.65192306
0.29186508 0.57677770 -0.06816280
-0.70705366 -0.18398473 -0.09340947
0.56238830 -0.03697573 -0.29081225
0.08058442 -0.58101106 0.62089097
-0.25803041 0.41354501 -0.16430736
-0.30526933 0.21059711 0.08817241
0.17395347 0.14997549 0.33826172
0.04491556 0.23107991 -0.61966699
-0.02200995 0.21255827 -0.59781623
-0.49061993 -0.44519490 -0.11997785
0.00390000 -0.08914191 0.62554598
0.21903107 0.05399705 0.35264131
-0.09840703 0.09274523 0.41724235
-0.06099441 0.11523259 -0.28135023
0.21095270 -0.41591132 0.67264873
0.09727419 -0.58900928 0.42136139
0.00868815 0.20889865 -0.18742695
-0.25237435 0.14829120 0.01963768
0.24431521 0.36898327 -0.18091705
-0.06633763 0.10208054 0.42488506
0.43364555 -0.47815615 0.45555055
0.05349772 -0.53774303 0.25063092
0.18077798 0.56898987 0.38530248
0.55639970 -0.05158989 -0.39698371
-0.28578708 -0.37707818 -0.40889516
-0.07987262 -0.43410987 -0.04758146
-0.26782626 0.18119638 -0.61453617
0.61683655 -0.35680646 -0.25598261
-0.22836757 -0.36983669 -0.46973029
0.46216086 -0.35690904 0.45889431
-0.69377458 -0.24696061 -0.19731481
-0.23012269 0.03947221 0.40003866
0.22991872 -0.40670401 -0.35094211
-0.45859781 -0.01839229 0.17049263
-0.12979355 0.00924876 -0.87252909
0.21618541 -0.48631984 0.02485906
0.14591043 0.13648213 -0.55391562
-0.35324207 0.35717833 0.00565683
-0.50057662 -0.41540843 -0.34081417
0.07738335 -0.29238135 -0.84098625
0.09441077 0.09989153 -0.44934282
-0.27228311 0.08167709 -0.79156935
0.48806861 -0.18206266 0.35150847
0.04088479 -0.43615913 -0.06412826
0.02832323 0.93630886 0.07928744
-0.68246377 -0.17042890 -0.22466862
-0.17590062 0.44823337 0.58156335
-0.05264537 0.24499774 0.47036839
-0.39512399 -0.30806825 -0.68040276
-0.32569340 -0.20256808 -0.77594107
-0.12219865 -0.47180831 0.08096290
0.24194923 0.73339099 0.18466836
0.11375538 -0.56422895 0.32314596
0.27467841 -0.41332072 -0.32869419
0.42057934 -0.13276929 -0.70219356
-0.00772605 0.77245957 0.32726163
0.00468729 0.35857934 -0.76024419
0.63021958 -0.34732383 -0.23857027
-0.24615407 0.08373538 -0.22207412
0.44413093 -0.10259292 0.31190634
0.46584812 -0.01302673 -0.20968257
0.35048264 -0.03581084 0.34368357
0.41428778 -0.28093934 0.51226979
-0.70228469 -0.29339316 0.05646084
0.29671541 -0.50847185 0.04466921
-0.17992634 0.57621813 0.58487707
-0.36327091 0.33695126 0.18435594
0.39752397 -0.00893947 -0.11701006
-0.43054292 0.00369567 -0.65723395
-0.16706640 0.21666224 0.40256900
0.12727733 0.73077279 -0.17026308
-0.15805343 0.22249667 -0.79573804
-0.19299787 -0.43360424 -0.08862634
-0.21421695 -0.24864852 0.68448114
0.24460539 -0.56649560 0.27610290
0.47610793 -0.30717352 0.43744719
-0.07917596 0.69094878 0.37490976
0.34205225 -0.41503227 -0.41360882
-0.22537829 -0.56832647 0.39911267
-0.15396620 0.27778453 -0.19266629
0.12251268 0.22064155 0.42500538
0.07445782 0.24684489 -0.63546389
0.14258531 0.21170741 -0.82642788
0.39066666 -0.59682727 0.32796320
-0.57825911 -0.36623204 0.33473638
-0.10617834 0.26845330 -0.79178506
0.42560622 -0.40257800 -0.52862179
0.55846882 -0.25483122 0.29008952
-0.34592474 0.48260292 0.02540480
0.25749901 -0.21994063 0.61824399
0.15405355 0.24907795 -0.80341071
-0.26875606 0.15359381 0.06091768
0.00301972 0.11408129 -0.17293173
0.15618131 -0.03411032 0.53603226
-0.18924141 -0.60652429 0.52155715
0.46123406 -0.53152901 0.04043371
-0.57985282 -0.22839943 0.33024001
-0.64140773 -0.14799309 -0.35227075
0.15235251 -0.35938036 0.70880121
0.10079140 -0.39081842 -0.64301795
-0.06289180 0.73652208 -0.18881363
-0.10333003 0.62360048 -0.22856925
-0.29935214 0.38595685 0.36465958
0.51438630 -0.44107860 0.33472750
0.11302608 0.85337770 -0.08748126
-0.48466417 0.03277849 -0.28447121
0.24039075 0.21364513 -0.09801006
0.18706504 0.46648824 0.57821417
-0.60796559 -0.10950857 -0.40396297
0.05588405 0.60465956 0.62066644
-0.30176994 0.21139580 0.07081318
0.61640894 -0.15518114 -0.35631555
-0.28858387 -0.45971167 0.02201873
0.12910879 -0.39823884 -0.29039490
0.15987113 0.05815209 -0.85917675
-0.19353828 0.27452761 0.42895541
0.50189543 -0.34216559 -0.51357186
0.08415026 -0.38747418 -0.71828175
-0.02281720 0.11767019 -0.30273861
0.16839007 -0.38581645 -0.75388306
-0.40834236 -0.19071102 -0.72162813
0.03261230 0.21036799 -0.59692717
-0.59680665 -0.47052610 0.15684006
-0.28305662 -0.54931319 0.30225489
0.12704018 -0.05596931 -0.87359542
0.20931786 0.21864186 -0.67667258
0.11923848 -0.39811611 -0.29518312
0.45947382 -0.33992505 -0.56679881
0.17960234 -0.41430146 -0.22752163
-0.03932713 0.11174533 -0.15756558
-0.33087036 -0.42996585 -0.10971568
0.32739559 0.03336446 -0.17684609
0.15405853 0.02094865 -0.86217672
-0.67313313 -0.26497319 -0.27396387
0.10150547 0.27451503 0.48576736
0.37094855 0.31858996 0.06233147
0.10794769 0.44894728 -0.27035439
-0.08859845 0.59303427 -0.24414328
-0.06888959 -0.43469048 -0.04581665
0.12624447 0.65294230 0.54664236
0.58390081 -0.24586990 0.24387845
-0.53656721 0.01715204 -0.19577716
-0.28965700 -0.52617508 0.24019679
-0.29828623 0.06628864 0.20071405
-0.04702096 0.70713878 0.36178803
0.53692544 -0.07169545 0.08222577
0.08871259 -0.62666702 0.55317140
-0.11114556 -0.18209162 0.69644701
-0.18552287 0.15378611 0.35543534
0.17162606 0.62165892 0.59722525
-0.16840963 0.21513744 -0.80495268
-0.24556857 0.35719419 0.44584548
0.13638568 0.42071271 0.67659408
-0.06122065 -0.39759761 -0.27249393
-0.45484483 -0.54860932 0.29220650
0.00906572 0.23275605 -0.61300260
-0.10286254 -0.16987786 -0.87304425
-0.19288038 0.10020585 -0.27082452
-0.38318366 0.08997194 -0.48260522
0.56614637 -0.48509657 -0.03836523
-0.36747509 -0.18696210 0.55877620
0.26375669 0.14490722 0.14989415
-0.31113869 -0.44946706 0.62477416
-0.09958806 0.58046246 0.61063385
0.60393786 -0.30989289 -0.34582460
-0.58579731 -0.48546672 0.07096541
-0.68944490 -0.33950788 0.06599227
-0.53781247 0.02344979 -0.32206208
-0.27983171 0.08308072 -0.20240459
-0.28929684 -0.37746871 -0.51517403
0.31056160 0.21463647 0.17507850
-0.19029090 0.55865782 0.48983175
-0.36118329 -0.47542650 0.57831669
0.33800605 0.02720101 -0.76000893
0.03464640 -0.60414779 0.59228510
0.12578970 0.86096340 -0.05644413
0.31449521 -0.32245556 0.59917265
0.12767580 0.55681688 0.60010344
-0.66662633 -0.16310239 -0.27664840
-0.12657765 0.33279064 0.54800886
0.23878606 0.00948410 0.41843173
0.24013588 0.67243141 0.25285310
0.31613025 0.01447196 0.26087213
0.33188900 0.27026582 -0.00828153
0.21740527 0.76900434 0.20117033
0.06423590 -0.38555527 -0.33045083
-0.34127834 0.36169451 0.27813256
0.25605881 0.70001215 0.19465366
-0.44098699 -0.55205697 0.36935714
-0.52031255 0.02583231 -0.28611219
-0.07348339 0.25797096 -0.63802338
0.14207011 0.87340194 -0.03231079
0.00805105 -0.04359671 0.58894092
0.07675429 -0.38634259 -0.70467806
0.48311588 -0.00193071 -0.52652347
0.03407787 -0.56527591 0.37764272
0.20859759 -0.61740053 0.49837840
-0.50109076 -0.49602240 0.37713999
0.33442071 -0.46699238 -0.11166531
-0.38880616 -0.17771813 0.53424758
0.67043900 -0.33706969 -0.05650583
-0.07255031 0.10477693 -0.27902806
-0.31654453 -0.38159156 -0.35497284
-0.24797870 0.70443225 -0.03309653
0.43198040 -0.46426129 -0.20380025
0.16764414 0.43321899 0.62882519
0.24610686 0.66973972 0.24348927
0.26517156 0.45113423 0.40447176
0.00105680 -0.54037833 0.67001271
-0.28813198 0.06617755 -0.00507820
-0.65663850 -0.12023735 0.10423437
0.58282328 -0.09534869 0.04090827
0.21672674 0.40384662 0.52429056
-0.48536989 -0.24891907 -0.62293273
-0.14868458 0.31462353 0.50521958
0.23923886 0.09095709 -0.01975102
-0.17669842 0.26635641 -0.72762704
0.43418977 0.01583497 -0.35590720
0.39706644 -0.43749136 -0.41519558
0.21582681 0.05970244 -0.83856916
0.07308253 0.85023576 0.23343578
-0.17011493 0.20299625 -0.59488970
0.13059483 0.54066193 0.58782405
-0.24725045 -0.18734270 -0.82642108
-0.03055847 0.16578960 -0.55660629
0.63462150 -0.40202439 0.02969444
0.05800593 0.33953202 -0.75651604
-0.26286975 0.27862501 -0.10692103
0.66332734 -0.32866228 -0.05226604
0.54100692 -0.48225904 0.22880733
-0.20699002 -0.27922451 0.69758785
0.05226294 0.31597012 -0.69611418
