0.33161172 -0.16374025 -0.39217490
-0.11321874 -0.20281558 0.03967169
-0.43803453 0.02902173 0.32481819
-0.28576788 -0.13319588 -0.60225654
0.29099408 -0.15229850 -0.27380353
-0.45207837 -0.04489625 -0.70876431
-0.02357946 0.02185079 0.28428394
-0.38053992 -0.13159114 0.71561718
-0.13076055 0.01927090 -0.70383400
0.24789181 0.14876747 -0.27134019
-0.25693053 -0.14318268 -0.35787618
0.27565733 -0.11996497 -0.01349321
-0.14435095 0.10887893 0.26014820
0.21760882 -0.15598939 -0.85531378
-0.05542475 -0.14773624 0.80124718
-0.02087083 -0.15214683 -0.93336743
0.04721050 0.17569932 -0.15294760
0.34045014 -0.04103211 0.07729307
-0.35644248 -0.01973125 0.03166151
-0.22822151 -0.17602807 -0.01270854
0.15718395 -0.09214672 -0.94329441
0.28904253 0.12704243 -0.58313483
0.11601657 -0.04654028 -0.33339703
0.44935906 0.00461478 -0.37726435
-0.03864143 -0.16015583 0.89654315
-0.20940951 0.13856156 0.83939147
0.10607614 -0.15700899 0.78255975
0.33169594 0.14127403 0.44326007
0.32269764 0.12970008 -0.78469342
-0.28752786 -0.12564765 -0.52410424
-0.13958220 0.03379502 0.32357633
0.06750953 -0.05360989 0.98508489
-0.13658354 -0.03014679 0.68559134
-0.24235928 0.04201692 -0.52169007
-0.01726527 0.08641804 0.76177257
0.11351635 -0.06209092 -0.31935656
-0.39078668 0.02541478 0.17623702
-0.32750276 -0.09404673 0.05708763
0.40090683 -0.12456641 0.42361328
-0.21212722 -0.09128555 -0.37266088
-0.46506476 0.06542560 0.46005988
-0.10139327 -0.16522905 0.79465318
-0.06175756 0.17803213 0.11472989
0.23128037 -0.10859876 0.57648343
0.38912261 -0.06362087 -0.25645766
0.02708799 0.07021428 0.74804825
-0.28052592 -0.08503871 0.88006783
0.18838032 -0.17583291 -0.23086582
0.44995609 -0.07077692 0.45684400
0.45732483 -0.02459654 -0.64455265
0.18667838 -0.14113830 -0.30488914
-0.31158856 0.14626978 -0.33763927
0.19659707 -0.18035533 0.06425098
0.33555892 0.06541097 -0.15686744
0.17977743 -0.08947241 -0.37050226
0.35472021 0.02670967 -0.12509200
0.28718075 -0.12661025 -0.09020161
-0.32358581 0.14020073 0.33555374
-0.24363680 -0.16826922 -0.80168319
0.33083308 0.13754168 -0.39041883
0.05580316 -0.15746728 -0.84793788
-0.31416884 0.13485174 -0.78771520
-0.47998947 -0.06495745 -0.48757958
-0.49145961 -0.00526888 -0.49491131
-0.24349032 -0.16207048 0.23399629
-0.09186763 -0.16222979 -0.84150201
0.40351099 -0.01880709 -0.26382244
-0.31951725 -0.15111096 0.38112551
-0.05465398 0.12410206 0.92036647
0.14225751 -0.19198708 0.10456355
-0.39602154 -0.15121023 -0.50722760
0.17094584 0.16690443 0.05001268
0.17156704 -0.08263460 0.34049222
0.01875505 -0.09677329 -0.99640268
-0.12344822 -0.07522073 -0.72463608
-0.30152747 0.13037111 -0.40794662
-0.15753965 -0.16917717 0.16268146
0.15775360 0.09099768 -0.32362956
-0.19208342 -0.02473354 0.95332605
0.40169787 0.05770661 -0.74824905
-0.22801153 -0.02350260 -0.94611049
-0.10610034 0.13228308 -0.90546554
0.22930963 0.02387458 0.92273384
0.22556841 -0.12235629 0.86892968
0.46927232 0.03428387 0.48932704
0.18164457 0.09811921 0.31599092
0.37203154 -0.14556745 -0.65907645
0.06185556 0.07068302 -0.97056377
-0.26598367 0.00770039 -0.93306237
0.22266227 -0.17408071 0.13395508
0.28764278 0.14441685 0.32251051
-0.11604417 -0.08381283 0.28679749
-0.05887639 -0.21576323 -0.01472738
0.40017658 -0.12433546 -0.37882757
0.08366265 0.12338535 -0.23879412
-0.32144305 0.14490966 0.37340745
0.08494130 0.17418939 -0.15398012
-0.22378974 0.03383167 -0.59620452
0.07393295 -0.09201472 -0.73730808
-0.02561762 0.10399908 0.94925481
-0.21615238 -0.07133087 0.38564608
0.28443807 -0.12339833 -0.03549367
0.42789790 -0.11405201 0.53804535
-0.31406298 -0.11907292 -0.10801812
-0.13315099 0.03050932 0.69996142
0.35076988 -0.15420406 -0.49251187
-0.28935426 0.13207200 0.18642995
-0.19859013 0.13172366 0.84365779
-0.48731813 0.02304583 -0.51938355
-0.24673006 -0.10378869 0.39868885
0.41471946 0.11382809 -0.56425232
0.32696676 -0.16835071 0.62850833
0.18745445 -0.14607792 0.29531920
0.00454482 -0.16744217 -0.20151283
0.18882544 0.10562928 0.31640986
0.15518157 -0.19085182 0.06604858
0.21173589 -0.01523798 0.47056451
-0.20020418 0.01296169 0.62381923
0.36580712 -0.12497423 -0.75026429
-0.14506784 0.13166896 -0.78521305
-0.19269614 -0.18713100 0.01662297
0.32477900 0.12433022 -0.29193074
-0.26218200 -0.16567165 -0.71497333
-0.09373423 -0.08697313 0.27277437
-0.36222959 -0.15478699 -0.71601444
-0.22738349 0.02639421 -0.58880609
-0.27026114 -0.14561507 0.01549120
-0.19274355 -0.11766145 -0.92283708
-0.34648502 0.08178120 -0.82391679
-0.40611461 0.05155082 -0.25485194
-0.25766125 -0.10162457 -0.46726510
-0.31297734 -0.13822326 -0.16826005
-0.25888970 -0.08403942 -0.53210652
-0.28606713 -0.13010471 -0.01165379
0.02366524 -0.05921940 -0.28511482
-0.45605335 -0.06599029 0.38438493
-0.07437867 -0.15237291 -0.23803930
0.27142945 0.09396299 0.86050802
0.03653171 -0.12193807 0.77261233
-0.31505126 -0.15438801 -0.57297754
-0.01243785 0.17714195 0.12707984
-0.23402089 -0.12025314 -0.66171443
0.30969518 -0.12840556 -0.20717375
0.45267937 0.04027298 -0.45566571
-0.40669277 -0.15364277 0.45895839
-0.18196502 -0.07600062 0.94167989
-0.24549299 0.13250419 0.83562583
-0.15557598 -0.02712848 -0.68608069
-0.19772565 0.09528271 0.32948583
0.40677372 0.05634526 0.73674905
-0.18195070 0.10851288 -0.73216867
-0.30762240 0.12773152 0.50766712
-0.11245894 0.05751134 0.71746314
0.27876276 0.14268720 0.25388494
0.40458328 0.10258210 -0.63716131
-0.27917513 0.14113516 -0.20609549
0.20541541 -0.16758682 -0.22032535
-0.32032353 -0.06420884 -0.87595367
0.15380357 0.12993331 -0.77755010
0.06941365 -0.16701955 0.19038965
-0.05506713 0.14032513 -0.21381368
0.08535372 -0.10466121 0.27255726
0.13887495 0.02102386 -0.97388178
-0.39334792 0.08271314 -0.28584418
-0.26693031 0.14287047 -0.80282259
-0.37455767 -0.09635953 0.20056310
0.29850844 0.13263077 0.50664747
-0.09993798 0.18707666 0.07685904
0.38560781 0.13347423 0.48965237
-0.23267277 0.09699874 0.64312816
0.35704917 -0.15916756 0.45063144
0.09230345 -0.17081293 -0.18820179
-0.15276591 -0.10773387 -0.30660334
-0.10642932 -0.16453974 -0.90695357
0.04376420 0.02804549 0.73435473
0.41682664 0.00489683 -0.30549493
0.35870755 -0.02002396 0.82898408
0.00177368 0.14235500 0.88940251
0.09784323 -0.11739763 -0.76177770
0.20515126 -0.15258913 -0.28783417
-0.36783084 0.02094862 0.10400863
-0.27739447 0.14543462 -0.26974949
0.36054990 0.10936303 -0.34960815
0.17926118 0.16067725 0.07665011
0.23284461 0.13381957 -0.03667131
0.21145472 -0.15174583 -0.75662768
0.44337767 0.07713097 0.41028962
-0.34977600 0.03801691 0.05987249
0.17662980 0.05715436 0.35126722
-0.35809752 -0.14990519 0.32196781
-0.45396110 -0.11587430 0.53348213
0.35115886 0.13730372 0.39811593
0.09771568 -0.01550682 -0.32540718
-0.17025352 -0.13782145 0.27108487
-0.33817190 -0.16883488 0.43602026
0.07183099 0.11820103 0.92618585
0.12491973 0.18091898 -0.08723830
-0.29365426 0.13844268 -0.35552791
0.39809364 0.08604322 -0.36067680
0.25999671 0.14159662 -0.79143965
0.19436508 -0.13275659 0.32114741
-0.20409662 -0.17911370 -0.05560790
0.02250442 0.16062549 0.16382644
-0.20707169 -0.03398910 -0.40583837
0.17358120 -0.14015357 0.72294742
0.26711175 0.14304884 -0.78323942
0.41955325 0.04449239 0.72121602
-0.10993385 0.04570533 0.96991843
-0.41876408 0.13305780 -0.53867757
0.17873301 -0.18189704 -0.11441482
0.35273343 0.12953684 0.64134187
-0.33903381 -0.16462199 0.47242826
0.35557574 0.02845154 -0.16502541
-0.30419907 0.13175569 -0.60463202
0.27315885 0.10683623 -0.01331312
0.20946313 -0.01453475 0.56243050
-0.41247785 0.03013927 0.76053721
0.20712775 0.14406988 0.14989805
-0.30788177 0.12495629 0.18820921
-0.29455623 0.13865867 0.78453398
0.35171482 -0.12674470 -0.25898549
-0.44769597 -0.07255300 -0.72663951
-0.37860340 0.14186040 0.53662115
0.10709159 0.09249105 0.27595770
0.37020993 0.12597260 -0.68946892
0.12226640 0.13938417 -0.23268069
-0.35140529 -0.15881951 -0.70668244
0.36769524 0.12889738 -0.65490752
0.43681243 -0.10789481 0.47940016
-0.43914831 0.11920782 -0.52452421
-0.11981276 -0.09890829 -0.96563721
-0.28354260 -0.10413511 -0.87960893
-0.28187761 0.10242405 -0.49182710
-0.22174370 -0.12948418 0.88385719
0.31327444 -0.11127590 0.82691765
0.36466059 -0.12321928 0.73754805
-0.48132247 -0.04509217 0.56127316
-0.02044944 0.05148575 0.97162408
-0.23577321 -0.07663190 0.45157957
0.17287704 0.00508769 0.64638531
-0.21359617 -0.15094900 0.83062333
-0.47869030 -0.05507643 0.45405269
0.15831366 -0.13310876 -0.30515602
-0.26609877 0.08164771 -0.89276320
0.30155513 0.11724537 0.17367041
0.11191530 0.10981295 -0.93699145
0.45789579 -0.03077791 -0.43995610
-0.37133950 -0.13498147 -0.29255223
0.12663519 -0.20138581 -0.03035136
-0.17413454 0.13798581 -0.79431903
-0.46600258 -0.04803455 -0.69621581
-0.24014103 -0.16347384 0.28304645
0.40825981 -0.12946700 0.45016336
-0.01415719 0.14508414 -0.89796799
-0.29799348 0.14402989 0.28055182
0.34887719 0.05159585 -0.17341003
0.19913253 -0.15981890 -0.27565938
-0.29202658 -0.14181624 -0.59855801
-0.48295417 0.05118590 0.57110560
0.30786538 0.06765170 0.00217598
-0.19920239 -0.17167696 0.13076729
-0.22050254 -0.14740564 -0.73061329
0.11821109 -0.01808139 0.32229447
0.04532883 -0.02265976 0.72118664
-0.28283164 0.12216582 -0.40334889
0.37890491 -0.12187381 0.72646469
-0.12075291 0.15840775 -0.19182782
-0.02523228 0.16408910 -0.17590848
-0.16837615 0.07519818 0.69610912
0.43134958 0.09002761 -0.51292264
-0.12178437 0.06790190 -0.97023630
-0.39698172 -0.09204189 -0.29184401
-0.12502551 0.12862028 0.78185564
0.30628845 -0.15333582 0.49445590
-0.18365486 -0.01650479 0.36494946
0.45936713 -0.00749461 -0.43334430
-0.18977372 0.16741239 -0.15101708
-0.15412387 -0.15903632 -0.83171582
0.32591292 0.12116766 -0.25892851
-0.37379792 -0.02142880 0.12034317
0.34772530 -0.11119870 -0.24121256
0.20292304 -0.09892724 0.36031470
0.08990550 -0.05723243 -0.72367489
0.25841972 -0.12984100 0.57491344
-0.30112743 -0.15961164 -0.21200100
-0.08775637 0.12897830 -0.22993949
0.32549819 -0.14460422 0.73750907
-0.03082832 -0.10721801 -0.76349390
-0.25894639 0.11405017 -0.62837720
0.18720905 0.15247339 -0.21221450
0.22692262 -0.16930394 0.07512162
-0.06632599 -0.13950227 -0.24605475
-0.44288462 0.09801381 0.51779503
-0.34396860 -0.15686090 -0.64803886
-0.12337653 0.12330686 -0.80500805
-0.36519107 0.01093214 -0.85235608
-0.07229099 0.19252221 0.03717237
-0.33546361 0.13928442 -0.31355783
0.02579862 -0.12812640 -0.78692657
0.24051087 0.08595130 0.44622275
0.31348526 0.06556623 -0.85711730
0.44105855 0.01161561 -0.35810760
0.13398008 -0.01437715 -0.97841793
0.27479395 -0.13325068 -0.07005482
-0.02824312 -0.09644175 0.75689781
0.23687883 -0.01127601 0.92092526
-0.33134890 -0.07845456 -0.02911012
-0.29498681 -0.14842479 0.14697941
0.33028156 0.14527573 -0.53802454
0.16503043 -0.05880310 0.34749085
0.08607994 -0.11335633 -0.76085758
-0.26203033 -0.11433508 -0.46393710
-0.47939751 -0.06316368 0.51745445
-0.33402228 -0.09108754 0.07152311
-0.23375022 0.04229563 -0.45391154
0.26596025 -0.15269487 0.17972626
0.16830267 -0.05887105 -0.36994505
0.08345240 0.13950257 0.88355851
0.04992373 0.01326915 0.29058895
0.39407635 0.06712862 -0.75600785
-0.22099403 0.05577660 0.92390758
0.46203440 -0.05827511 -0.49528188
0.01499000 0.01554767 -0.74531132
-0.24082580 0.13230221 0.28103167
-0.41877991 -0.14650919 -0.51298779
0.02641492 0.07391176 0.96923351
0.37499103 0.04533467 -0.79753214
-0.34433717 0.03841793 -0.07553240
0.13345718 0.05355135 -0.96752787
-0.15673710 -0.16437848 0.21306764
-0.41108045 -0.11263224 0.32544523
-0.43140468 -0.12815414 -0.48654339
0.36351001 0.12696724 0.64071119
0.12469319 -0.19101727 -0.13712245
0.12482416 -0.02335179 -0.99419039
0.28102890 0.03753944 0.88399643
-0.28113076 0.13218836 0.79410201
-0.31168133 -0.11721092 0.83958536
0.05435415 -0.09364689 -0.27748969
-0.40339231 0.13440020 0.55316246
-0.40806931 -0.12412947 0.35128066
-0.30803651 0.09092467 -0.03163496
0.39842644 0.01563102 -0.25278008
-0.27145076 -0.16311900 -0.71089816
-0.08071425 -0.19692856 0.09875622
-0.04556536 0.15146293 -0.19824059
-0.23004919 0.10665444 0.88353103
-0.04597927 0.01914589 -0.73410469
-0.25311965 0.11545972 0.64463872
0.38988662 0.10397012 -0.70031631
0.32548562 -0.06325890 -0.06502999
0.25536129 -0.10946560 -0.52922016
-0.30794495 -0.11331166 0.07761873
0.00661179 -0.06252195 0.27793780
-0.23335442 -0.16896309 -0.09035795
0.14035979 0.14056696 0.21562794
0.35526443 -0.11984979 0.75545084
-0.10290761 0.04951200 -0.98819792
-0.01086679 -0.16280697 -0.22350857
0.02194376 -0.20391801 0.07759173
0.27016270 -0.12993796 -0.47285795
-0.01713674 -0.08572621 -0.27491492
0.23210417 -0.10770538 -0.41939071
0.27255371 0.13312727 0.16663447
-0.13251546 -0.03689563 -0.70543754
-0.17338508 -0.18684065 0.08678083
-0.07741796 -0.06441346 0.28261074
-0.32479948 0.11190800 -0.17147854
0.29450318 -0.14797212 -0.46001756
-0.41616794 -0.13978979 -0.68179804
-0.41391784 -0.14584051 0.37491161
0.01278041 0.18398789 0.07259625
-0.45780602 -0.07159580 -0.40220317
0.37444332 0.11466409 0.36969936
-0.00594851 -0.01423042 0.72808689
-0.20478709 -0.16975252 -0.78684610
0.41187367 0.10410898 0.39399812
-0.18533239 -0.05745449 -0.66646153
0.42456236 0.03686527 -0.72016513
0.19992593 0.15490958 -0.19176535
0.21289973 0.08588365 -0.64792210
0.14002174 0.03175855 -0.98349416
0.01282266 0.05433745 -0.28167316
0.38862932 -0.02526042 -0.79045939
0.29034287 -0.07562335 -0.88233143
0.24383426 -0.09801432 -0.50943553
-0.20630376 0.06572214 -0.94832671
0.12614033 -0.10090030 -0.95833194
0.02135593 0.01332064 -0.99735034
0.16091827 0.12619688 -0.28160638
-0.27763480 0.14916438 -0.31767926
0.16944158 -0.02443820 -0.96691352
-0.15921009 0.00570903 -0.97722381
0.21691717 0.14481923 -0.16753884
-0.12259673 0.12732679 -0.90785843
-0.31601268 0.12744877 -0.61734468
-0.06065737 0.05367045 0.27838269
-0.27004498 -0.12256148 0.60368508
-0.24321514 -0.11832320 -0.89066911
-0.43348303 -0.13573372 0.55780387
0.45366627 0.03455589 0.41032562
0.34041750 -0.12002362 0.23640369
0.19543670 -0.04064474 -0.41683418
-0.36184335 0.13897678 -0.69397622
0.14456654 0.00323608 0.34658748
-0.48307490 0.03417886 -0.55609894
0.36836964 0.05331903 0.19990513
0.43556350 -0.10744387 0.58877259
0.13289717 -0.14687473 0.76544547
0.34547937 -0.16393343 0.44234437
0.41227290 0.02392871 0.74944186
0.01579882 -0.19805659 -0.12495036
-0.28304315 0.14370637 0.29915169
-0.16843881 0.14950064 -0.22294645
-0.17478463 0.13085021 0.24713117
-0.37827206 -0.01899442 0.81555963
0.31181917 -0.11831547 -0.17101671
-0.23168117 -0.01672250 0.52535051
-0.08305544 -0.17043895 -0.21736328
-0.05355743 0.00927813 -0.29957148
0.22142769 -0.02334135 -0.51653141
-0.30546454 0.14019348 0.22047207
-0.08187197 -0.20886835 0.03412459
0.18467407 0.14716014 0.14091276
0.28844717 -0.15495782 -0.49036032
0.24408889 -0.15650852 0.07406166
0.41075954 0.09121067 -0.63060790
-0.08160052 0.14664890 0.84237289
0.21262577 -0.05818664 -0.46233055
0.35167000 0.14087589 -0.64643890
-0.41830423 -0.13762368 -0.60043579
-0.13309860 -0.08406427 0.71954525
-0.02382536 -0.06899393 -0.75100303
-0.22976688 0.04661949 0.43525556
-0.15639679 -0.16711815 -0.85016602
-0.31636348 -0.16161619 0.26899573
0.23064364 -0.13296336 -0.86730438
-0.22083698 0.05237557 -0.94020343
0.01968754 0.03576691 0.73536688
-0.03581274 -0.20397998 -0.12680230
-0.11463814 -0.14397739 0.89973956
-0.24240658 -0.05404114 0.51837981
0.39698359 0.10802071 0.67688417
-0.27287927 -0.12107795 -0.61031926
-0.07530311 -0.08873806 -0.97466987
-0.27590379 0.09717023 -0.58377397
0.23735695 -0.07573006 -0.91012830
0.43404219 0.07030262 -0.47652480
0.42707914 -0.05376408 0.34106481
-0.27727473 0.13961530 0.70402122
-0.35167935 -0.07676595 0.12757662
0.10757455 -0.14834368 -0.23685600
-0.13386226 -0.15657648 -0.23622619
-0.22374001 0.13356705 -0.27779791
0.21657613 0.13257045 -0.85709715
-0.28451204 0.12479544 -0.06854092
-0.22155033 0.13615325 0.73154092
-0.44428584 -0.12151261 -0.55695921
0.29646346 0.12458498 0.18442324
-0.21268044 0.11310914 -0.72131181
0.39684775 0.11821990 0.64359933
-0.37810740 -0.16096561 -0.53481638
0.06815629 -0.06386740 0.98187000
0.21426077 0.12661080 0.69421875
0.45504963 0.02557258 0.63103670
-0.34647796 -0.16697840 0.58043414
-0.33540297 0.00393991 -0.87436575
0.44749004 -0.07382094 -0.63640559
0.21132497 -0.15847073 0.29768601
0.23906147 0.14483616 -0.79357326
-0.18566841 -0.12547179 0.70204467
0.04681490 -0.02619334 0.29102746
0.46177807 -0.06799154 -0.54528487
-0.49642816 -0.02280326 -0.55240965
0.26460010 -0.04536739 -0.91842574
-0.37155208 0.00475216 -0.12657541
0.38169909 0.12471744 -0.48813632
-0.11456744 0.08746346 -0.28843591
-0.39206898 0.13411643 0.43933168
0.23771399 0.14797312 0.75316882
0.22132200 -0.07569000 -0.55236304
-0.03824107 0.07733771 -0.76281333
-0.35942137 0.02904423 0.08051895
-0.01994259 -0.00756520 0.99159950
-0.32329023 0.13745773 0.45184651
-0.23782276 -0.01511911 -0.51236218
-0.26010370 0.07424757 -0.49102408
-0.05837431 0.11651745 0.22510444
-0.00306294 0.09779841 -0.78678411
-0.46624404 -0.06838048 0.62191623
0.25539115 0.11894890 -0.62954807
-0.18713655 0.09980436 0.91152775
-0.23722896 -0.11135275 0.89711761
-0.05545522 -0.07470006 0.27280203
-0.08440160 0.18512398 0.10219284
0.27293965 -0.14059526 0.42497593
0.16877000 0.06654908 -0.36240965
0.28675729 -0.15333156 -0.20671810
-0.13901389 -0.09383207 0.71872121
-0.34052584 -0.16931021 -0.62337720
-0.36980730 0.00274959 0.10597589
-0.23095939 -0.08868463 -0.92235851
0.23950273 0.14637683 0.25424185
0.29555634 0.10383765 0.12003048
-0.37648171 0.01537952 -0.16147615
-0.14692108 0.02127782 -0.69404423
0.22482061 -0.11956198 -0.65877092
0.38406050 -0.15903689 -0.56928617
-0.07414751 0.14370671 -0.83869165
0.33294159 -0.15256983 0.36331075
0.16412261 -0.14437710 -0.27375752
0.00740816 -0.07677469 -0.75313574
-0.39135900 -0.15502204 0.37786812
0.41302922 -0.11324938 0.41721395
0.17849836 -0.07117898 0.65938896
0.27219999 -0.15293097 0.56612039
0.20831223 -0.10085262 -0.39034158
0.09079818 -0.01227759 0.70231360
0.40810612 -0.13359396 0.54246253
0.46834785 0.01568365 0.44359061
-0.13808344 0.06057937 0.30016804
-0.37901860 -0.17134309 -0.58196163
0.28323001 0.09808911 0.00176330
0.00350636 -0.15287025 0.19568931
-0.16050164 0.14480878 -0.84315276
-0.14268576 0.11596851 0.25112525
-0.15060498 -0.18769789 0.12079868
0.08838019 -0.20755737 0.06756311
-0.31489012 -0.15005694 0.20154785
0.13813776 -0.19917965 0.01359546
-0.41325939 -0.14857666 -0.61437726
-0.24192668 -0.16244239 -0.76603776
0.22726610 -0.16343202 0.71518791
-0.20930444 -0.17712815 -0.16369861
0.45274088 0.04609570 -0.48817018
-0.00357532 0.15330979 0.16521247
-0.07785103 -0.01909603 -0.30071133
0.21780530 -0.05979101 0.54731190
-0.28677979 -0.16259994 0.67327535
0.22548568 -0.08828519 -0.58421928
-0.35578841 -0.13211489 -0.78574461
0.11905436 -0.14971206 -0.79537475
-0.39071238 0.10771297 -0.74511331
-0.25632611 -0.15550122 0.28850219
0.19538496 0.02062111 0.39730644
0.34350786 0.10235505 -0.79851758
0.05380048 0.19386205 -0.02646927
0.37995020 -0.11536760 0.30673125
-0.24652380 0.06207864 0.53822184
-0.16860461 0.05713370 -0.69638884
-0.26617301 0.11240914 -0.39661244
-0.23600699 0.12993057 -0.70965695
0.22983691 -0.16276076 -0.20249413
0.35835123 0.03143623 0.15384188
-0.34422767 0.09303349 0.81360757
0.02603588 0.01481096 0.98768598
-0.05990236 0.17173864 0.13618822
-0.07102869 0.17555268 0.13375425
0.04919740 -0.11966488 0.94816917
0.20898241 -0.15746163 0.82033008
0.23867545 0.09129849 0.42157879
-0.30610532 0.14275335 0.34085286
-0.39208445 -0.09578823 0.77496839
0.29967013 0.11735173 0.15530461
-0.45430225 0.06229061 0.64297944
-0.35155803 0.14563729 -0.49731952
0.18833864 0.11784870 -0.72397035
-0.33951983 0.14818330 -0.38583133
0.30162770 -0.13039450 -0.83020818
-0.38876948 -0.02208517 0.17715627
0.34754136 0.13869576 -0.62472534
-0.43373510 -0.03281135 0.73037869
0.41411904 -0.13960242 0.58196086
0.10478362 -0.13863789 -0.78520048
-0.20936295 -0.17300211 0.11162833
0.30454069 -0.16287956 0.69842213
-0.15281318 -0.16856587 0.80509299
-0.29243243 0.12038313 -0.48136204
0.30480075 -0.16385911 -0.72628099
-0.37173799 0.13999392 -0.39242405
0.43844533 0.09902623 0.49150649
-0.47070697 -0.07422732 -0.57359248
0.39439595 -0.03007775 0.78266364
0.05781303 -0.06709217 0.72516888
-0.26789528 0.14781946 0.23044947
-0.21359804 0.16190198 -0.00831711
0.27738762 0.09712487 -0.85605019
-0.33532169 0.13879099 -0.55184287
0.32054985 0.13362060 0.73792213
0.08337509 0.01880451 0.71166027
-0.29781264 -0.14209713 0.82159543
-0.35808527 -0.01410739 0.05150129
-0.06229303 0.14359094 -0.88539702
0.02306604 -0.18074709 -0.16003010
-0.17243978 0.11843970 0.74113309
-0.33198136 0.13961568 -0.33609682
-0.26410758 -0.15344666 -0.07531526
-0.04508587 -0.11523533 -0.25746924
-0.05818907 -0.00390389 0.98941755
-0.20345026 -0.08851301 0.65530497
-0.23631068 -0.14925942 0.73677021
0.39111212 -0.14720005 -0.62614346
0.17887054 0.04871231 0.64822304
0.09959817 -0.15388040 -0.82952422
0.31137496 0.14408816 0.33910993
0.37480825 -0.16310604 0.42784852
-0.36039397 0.07506578 -0.19309138
0.17631765 0.15457892 0.16665998
-0.30792141 -0.14476830 0.78011489
0.36162359 0.01568057 -0.15220211
-0.43448687 0.09570923 0.65205741
0.44343317 0.08197056 -0.54363906
-0.44123703 -0.10497231 0.38518351
0.26499128 -0.14346981 -0.11882607
0.44430172 0.07638907 -0.56349665
0.31720474 0.13981868 -0.67523223
-0.43369681 0.10362829 -0.40482491
0.35084707 -0.10839349 -0.25345656
0.23780760 -0.06372324 0.91482383
-0.16082895 -0.08735591 -0.70804632
-0.41727817 0.11811246 -0.63335288
0.09205957 -0.05761649 0.97292227
0.13109848 0.15555285 0.17596531
-0.31853566 -0.16572583 0.28614852
-0.29357043 0.10594803 -0.48634082
0.25970429 0.12333820 -0.11521412
0.16769072 -0.04230427 0.35828003
-0.00773103 0.05845045 0.97645855
-0.06645732 -0.12460096 -0.77489620
-0.11130027 0.10953008 0.75161564
0.07141268 0.16992037 0.16006696
-0.16291082 0.13934311 0.77794021
0.20513225 -0.17357008 0.06764074
-0.19830959 -0.08292176 -0.37835240
-0.40426657 0.08677019 -0.30638278
-0.01832169 -0.21137305 -0.08215241
0.39204502 -0.11997227 0.37270421
-0.03141617 0.12821767 -0.81257081
-0.26842713 -0.14838275 0.34734720
0.29071641 -0.01442312 -0.89561260
-0.22848515 0.05704426 -0.41375333
-0.11279920 -0.16432211 -0.84571487
-0.24915144 0.07092706 0.53216273
-0.06113312 0.04255684 0.28380543
-0.20817034 -0.14957927 -0.29109961
0.42335621 0.07117520 0.65350580
-0.18615597 0.12985827 -0.89057958
-0.28379565 0.10658588 -0.52009803
-0.12190406 0.00070035 0.31868201
-0.17664562 -0.13312888 0.73051125
-0.39997390 0.10497291 0.29674551
-0.39873010 -0.06555741 0.78024393
0.19238202 -0.09845579 0.92392689
-0.47241649 -0.04354114 -0.44219026
0.44798127 0.08590196 0.50884300
-0.27199191 -0.13346325 -0.43503350
-0.30493915 -0.16046362 -0.24479048
-0.14292715 -0.20111547 -0.08514665
0.04307627 -0.05533873 0.98284823
0.10507229 0.09232715 0.74347442
0.13321702 0.16737431 0.14816794
0.16526516 0.08089273 -0.93210310
-0.40858972 0.08157603 0.30564532
-0.22563274 0.07776999 -0.64539683
-0.29502985 -0.13023047 0.06917135
-0.12242151 -0.15685962 0.79801416
-0.21437934 0.03755792 0.40005744
0.29539278 0.13073246 -0.55672276
0.22076008 -0.15404765 0.69032574
0.01697008 0.12451361 -0.94473118
-0.35661286 0.13801754 -0.53299081
0.14026687 -0.14993298 -0.90375704
-0.01556682 -0.16403714 0.86372679
-0.23633796 0.05429851 0.92230725
0.24913619 0.11114826 0.85631806
-0.19870931 0.15750596 -0.20930012
-0.48704594 0.00061615 0.53607959
0.30493650 0.07169707 -0.04718414
-0.23634110 0.03518848 -0.50508881
-0.42680421 -0.03841834 -0.76312530
-0.29324347 -0.15815508 -0.78724277
-0.14500098 -0.14110704 0.90052110
-0.21576141 -0.17183816 0.15751420
0.26026687 -0.14337584 0.45020193
0.25342113 0.11397284 -0.60227466
-0.09626075 -0.04208374 0.29528326
-0.09150495 -0.00832234 0.30173710
-0.14592122 0.08795711 0.28427473
0.33207554 0.00934683 0.02366171
0.24465817 0.12889862 0.68520606
0.03811528 0.20382132 -0.00368460
0.10582980 -0.17210877 -0.20242581
-0.44965008 0.07090821 -0.66719699
-0.33370587 -0.04277027 0.86382914
-0.27392966 0.13612297 -0.31816339
-0.36468682 -0.16233855 -0.59208035
0.30115783 -0.11248275 0.10233569
0.28586319 -0.10560098 0.85346401
-0.15214883 -0.12507641 -0.94438511
0.37660980 -0.14251032 0.41595146
-0.09969521 0.07607955 -0.28977206
-0.40856487 -0.13101205 0.69800246
0.01748366 0.06733188 -0.75468719
0.40370914 -0.12377922 0.46854591
-0.17598246 -0.17131154 0.16100818
-0.15107888 0.13593668 0.77714258
-0.34099224 0.05702228 -0.07357632
0.36786181 0.05033014 -0.20762599
0.14660245 -0.07559692 -0.34197003
0.32281038 0.05740852 -0.85657316
-0.01858412 -0.11610550 -0.78168315
-0.17697223 0.14290254 -0.85022783
-0.13715729 0.00214497 0.68557215
-0.12989810 0.18815385 -0.03806167
0.37872490 -0.00526915 0.18548760
-0.30157045 0.11883326 0.12204908
-0.34848958 -0.15162723 -0.54796088
-0.07721119 -0.00036130 -0.98793143
-0.10331867 0.07057519 0.28298363
0.42362347 0.09135157 0.38345587
-0.26241967 0.13444284 0.67792189
-0.15684639 -0.11112908 0.92060399
0.22317670 0.14669946 -0.24069986
0.07653280 -0.21384054 -0.03265173
-0.16634230 -0.11374824 -0.72150844
0.03215305 0.17833035 0.12232006
-0.32166401 0.11687485 -0.19266087
0.13087763 0.11572568 0.90440750
0.24596371 -0.03417630 -0.92511481
0.33284208 0.11338515 -0.27251971
-0.39882255 -0.15314783 0.63063622
0.18797372 0.05397236 -0.65488183
0.46244973 -0.03476305 0.60541064
-0.16776638 -0.09897829 -0.70811439
0.19064851 0.11194411 -0.33886039
-0.26704243 -0.15323369 0.70982635
0.33225575 0.03986189 0.85139680
0.22876285 0.13091964 0.69347352
0.29019639 -0.16112468 0.67492628
-0.04611874 -0.03681832 0.98565757
0.19086610 0.08507331 -0.36320260
-0.35960227 -0.04178218 0.10324761
0.27181217 -0.12997364 0.07143041
0.25927025 -0.14615458 -0.06708644
-0.09265210 -0.09832907 -0.29834467
-0.22799456 0.14565855 -0.81008083
0.30315825 -0.15363638 0.53365105
-0.25772807 0.13997293 0.27152374
-0.27556074 -0.14391211 -0.65719664
-0.33527374 -0.09980922 0.12329730
-0.12802477 0.17652643 -0.12645590
-0.32600453 0.14269257 -0.39808816
0.24579284 -0.14798318 0.62468010
0.38980123 -0.13159910 0.40623111
-0.21371420 0.06407037 -0.38710213
-0.48490199 -0.02938944 0.55418193
-0.42103687 0.12253962 -0.46980825
0.12629843 -0.16168039 0.82446128
-0.21121891 0.04072058 0.93675053
0.28434870 -0.14964500 -0.57342446
0.29465422 -0.13818553 0.15642229
-0.47113162 -0.09849133 0.46979401
0.03754909 0.06381449 0.26014748
0.01637132 0.19142057 -0.10256301
0.29978162 -0.14799571 -0.25014666
-0.27668023 -0.13296336 0.83289367
0.09091732 -0.09154588 -0.73542243
-0.11228070 0.08900684 -0.75783604
0.39163712 0.09985845 -0.36627391
0.27223489 0.12926725 0.20365779
0.45243698 0.06585299 0.59902555
-0.00573128 0.18671195 0.05133365
0.19738628 0.04197025 -0.43812564
0.15784982 -0.09404558 -0.70441175
-0.35668463 -0.04522888 0.05888274
0.23720354 -0.11646818 0.41784367
0.11853226 0.12489316 0.76410556
0.06436785 0.14103784 -0.84586537
0.24507833 -0.14652175 0.63957483
-0.38973916 0.00400562 0.18344480
0.26816493 -0.15933987 -0.69911379
0.20432609 -0.14009948 -0.31494850
0.16509941 0.17223398 -0.05704840
-0.25741717 -0.16114680 -0.75979584
-0.35711962 -0.15812841 -0.69644839
-0.43701416 -0.00426674 -0.74879682
0.26738781 0.06628618 -0.90166789
0.04273343 0.12217759 0.21109904
0.41165382 -0.03999135 0.29585132
-0.47839174 0.06082804 0.53257114
-0.12427720 0.16527705 -0.17149143
0.15638402 -0.16410507 -0.24767102
0.13928802 -0.03968963 0.95984608
0.08046238 -0.18018307 -0.16257519
-0.42913446 -0.13347360 -0.57228124
0.30573776 -0.13320169 -0.21819904
0.26747701 -0.12669788 0.51890725
-0.08626777 -0.15353444 0.88452238
0.06399964 -0.04449282 0.71717215
0.41657996 0.08496647 -0.40176341
-0.21300600 0.06332513 -0.64257002
-0.04606020 0.10617242 0.23823471
0.29312330 0.01002924 -0.90001929
-0.30493215 -0.05423205 -0.89036518
0.16225278 -0.19145179 -0.01147691
-0.30528846 0.11907832 -0.53427082
-0.43583950 -0.02193403 0.72354865
-0.20595348 0.16901198 -0.07430097
-0.16685274 0.07348455 -0.32989877
0.23668911 0.08178008 -0.58157480
0.23734193 -0.10232572 -0.44169539
0.23155205 -0.15602313 -0.84809732
-0.17714949 0.06060078 -0.33620247
-0.30184925 -0.13978569 0.53454310
0.07593260 -0.16271789 0.85586226
0.22808078 -0.15514812 0.80717552
0.08276109 0.13555175 0.80126405
0.43004662 0.09457035 -0.48352039
-0.20954962 0.09253710 0.91110671
-0.11417571 -0.07838374 -0.71769220
-0.41207427 0.13580120 -0.45065957
0.18777274 0.16875337 -0.14047262
0.27468011 -0.14314967 0.41409811
-0.25430170 -0.15618265 0.11649299
-0.39011735 -0.15633330 -0.56263769
-0.26450318 -0.11902881 0.41773519
0.38065353 -0.08071914 0.24604464
-0.48569223 -0.02276528 -0.46677607
-0.09472480 -0.14052840 -0.25235373
0.27807939 -0.14143366 0.12301359
-0.04189606 0.14389198 0.86872756
-0.24654607 -0.08979225 -0.44172275
0.34435487 0.03463016 0.08311696
-0.36900452 0.14086597 -0.70926535
-0.25669220 0.11228520 -0.38277036
0.26321843 -0.15727828 0.64363420
0.05708364 -0.09254060 -0.98461491
-0.16428673 0.14896433 -0.81830353
0.02878912 -0.17168789 -0.87246478
-0.30231708 -0.16400214 0.26288593
0.32117489 0.14079417 0.33272094
0.28431422 -0.12540847 0.08877827
-0.40365985 0.06754362 0.26014322
-0.21449542 0.11629076 -0.88585228
0.38432896 0.11162193 -0.71655560
-0.33608741 0.13970697 -0.52516431
0.10479552 -0.06302699 -0.71965557
-0.16565229 -0.17819452 0.12746011
-0.01123716 0.00736763 0.98311192
0.39890563 0.03261497 0.76134646
-0.11226823 0.00216283 0.70010197
0.21774857 -0.03811226 -0.50188446
-0.35673988 -0.15629849 0.67381978
-0.23319913 0.14493629 0.22879554
0.00496311 -0.15777819 -0.85374808
-0.14711662 -0.15215035 -0.89477313
-0.18074553 0.15019754 -0.81811398
0.33436310 -0.00601676 -0.01555127
-0.23392519 0.01916443 -0.94453925
0.18310066 0.02277296 -0.63596034
-0.29539579 0.11973238 0.48518363
-0.26989949 -0.15515994 0.33210582
-0.21075924 0.03331760 -0.39126980
0.22366723 0.07635052 -0.43508643
0.16963337 -0.18148075 0.13297075
0.23771004 -0.04260421 -0.92483717
-0.39185169 0.05123794 0.77441466
-0.24543928 0.13274229 -0.31449738
-0.09964388 0.19025259 0.04052015
0.36786526 0.00560454 0.15881540
-0.04903745 -0.20347294 -0.12404783
-0.23277305 -0.02173479 0.50170857
0.45279720 0.04930346 -0.62956619
0.44008043 -0.07578980 -0.65917891
0.28446430 -0.13937372 0.79117298
0.28347257 -0.17294912 -0.28616738
-0.30108112 -0.12560800 -0.11725441
-0.19446942 -0.15600078 -0.26746860
-0.17380384 -0.06479202 0.33883086
-0.28155601 -0.12141536 0.46231869
0.05482493 -0.01767354 -0.30295119
0.44802278 0.01952255 -0.67559516
0.31657043 -0.11825842 -0.82361954
0.37004405 -0.14855668 -0.38502231
0.44205949 -0.00406078 0.68417251
0.23013088 -0.06373473 -0.92642754
-0.40371257 -0.14418934 0.37843022
0.44404823 -0.01070535 -0.70902598
0.31635973 0.13434449 -0.71517432
0.01002725 -0.21668407 -0.07805891
0.42585924 0.10939990 0.46651736
0.10526237 -0.12278768 0.92655325
-0.33775434 -0.15875323 0.50521630
0.39292803 -0.14933045 -0.50807261
-0.45439258 -0.10099643 0.61199391
0.24765351 -0.15875615 -0.18560621
-0.20135814 -0.15828875 0.85225397
-0.07444486 0.19623558 0.01350390
-0.05059437 0.14271779 0.17569241
0.22239287 0.08281094 -0.62020850
0.10354810 0.12505706 -0.78948665
0.45695812 -0.06397486 0.55470163
-0.05501388 -0.13249205 -0.95774281
0.37519252 0.12601724 -0.64386100
-0.22401954 0.05971448 0.40278986
0.34159595 -0.07877565 0.14475994
-0.40597925 -0.01882137 -0.22933634
0.39766520 0.12770914 -0.56264532
-0.39256719 -0.11709982 0.26884794
-0.16591713 -0.10917370 0.29792342
-0.38974157 0.06716640 -0.78995991
-0.17107552 0.13489322 -0.25044626
-0.23438975 0.01793365 -0.52510279
-0.26347569 0.09322098 0.56103796
0.23101409 0.14228186 0.10261299
-0.18590687 -0.14575703 0.25440940
0.20593333 0.06867703 -0.62535632
0.16284288 0.04003090 -0.68515420
-0.12383382 -0.02841579 -0.98724443
0.21313748 -0.17104669 -0.03884860
0.12521054 0.06804655 0.94235742
0.16003619 0.10962822 0.28436089
0.01933497 0.09247478 -0.96591073
0.31185886 -0.15845662 -0.48166198
-0.41802788 -0.15112874 0.45675662
-0.04545752 -0.15574951 -0.92246711
0.34323287 -0.15723424 -0.70007211
-0.10967781 0.16893019 -0.15624863
-0.24393311 0.12688287 -0.33125514
-0.04988783 0.12725495 -0.23151927
0.08451447 -0.07483926 0.28371876
-0.34873542 0.03926510 0.84608442
-0.43019706 -0.14598928 0.58294231
0.01933241 -0.19087484 0.13420862
0.33193499 -0.08592603 -0.14411011
0.37043068 0.13343662 -0.40904483
0.35812548 -0.01218383 -0.84123343
-0.31686342 -0.16086727 -0.72003603
0.34386212 -0.06053586 -0.83656412
0.07378580 0.07807678 0.96299922
0.31497175 0.13110401 0.45469940
-0.48774558 0.05768317 -0.51115048
-0.14545879 -0.14758252 0.88603783
0.34308529 0.12399887 -0.30331558
-0.23847955 0.06266084 0.43246958
-0.12455076 -0.11738380 0.74463809
0.24423458 -0.16355133 -0.74459070
0.21754116 -0.15827361 0.27782807
0.24694332 -0.15442184 -0.69939333
0.28840965 0.13335782 -0.45928851
0.00833650 0.08617043 -0.97788882
-0.24914867 0.15701474 0.19280104
0.01415370 -0.09932502 0.26101643
0.11467615 0.13933522 -0.89091057
-0.27012762 -0.04656940 0.91900331
0.25933778 0.10222086 -0.51020151
-0.48793486 -0.01285073 0.51146919
-0.27566245 -0.14743160 -0.38062519
-0.43184850 0.12839967 -0.51702768
0.34098870 -0.15080459 -0.33987269
0.12772118 -0.15978302 0.76330680
-0.03611992 0.06903770 0.74974066
-0.31614196 -0.15572622 -0.61934173
0.09535581 -0.14100437 -0.92845029
-0.43944567 0.08557447 0.38378823
0.14257120 -0.12825875 0.91394693
0.31505388 -0.15732031 -0.67537475
-0.05554505 -0.14535670 -0.23079936
0.25661531 -0.11779616 0.87051821
-0.16356841 -0.04509221 -0.68200243
-0.34358487 -0.11347448 -0.19033244
-0.27093878 0.12548272 -0.01831956
0.30864763 -0.17051926 -0.41154143
-0.34468284 -0.14043374 -0.77522773
-0.46671376 -0.05769650 -0.45246667
0.14737663 0.13616782 0.85744792
-0.23663026 -0.01085299 -0.95411593
0.42421690 -0.03876506 0.72604388
0.15157641 0.13879709 -0.26116365
0.26191691 -0.12181453 0.48021027
0.45953262 -0.05227618 -0.48042393
-0.35027942 -0.03321739 0.02427117
-0.27382520 0.05973804 -0.90419477
-0.07802816 0.18710864 0.08981527
-0.20325042 0.03330304 0.94538671
-0.23949285 0.13828576 -0.75394201
0.13457805 0.17581357 0.05192095
0.43428338 0.09020487 -0.59133857
0.26462254 0.11950271 -0.08233829
0.13298576 0.00212118 0.68147629
-0.15738629 -0.15636505 0.85090470
0.03006576 -0.01921269 0.99202192
-0.41313395 -0.11708853 -0.72295535
0.37243935 0.01337348 -0.17046893
-0.46914440 -0.08847610 0.55721682
-0.01182331 -0.05775827 0.97917622
-0.32491800 0.14551531 -0.70371050
-0.34629884 0.01702782 -0.86262316
0.18385600 0.10107645 0.90202349
0.13038875 -0.20415545 0.00243870
0.17683195 0.16357669 -0.12418202
-0.34572238 -0.04367696 -0.05718415
-0.12026086 -0.15966173 0.20467007
-0.38219598 -0.14666167 -0.70740527
-0.17303152 -0.07249340 0.94708413
0.23320138 0.15028024 -0.21520388
-0.01371330 0.07245385 -0.97029072
0.06909221 -0.09323995 -0.97000110
0.22313769 0.09423441 0.39152065
0.03142112 0.10137355 0.94878685
0.37953043 0.12995808 -0.53744191
0.31531045 0.09513228 -0.16291671
-0.37936696 0.12583116 0.34663728
0.26771256 0.10749763 0.00565775
0.45107841 0.04034200 -0.65823781
0.27981108 -0.16608895 -0.76180273
-0.19027379 -0.19091386 -0.07299779
0.11807419 0.16270383 0.15777569
-0.09637059 -0.11173252 -0.95632368
0.21293449 -0.16460480 -0.28447825
0.29009306 -0.16026314 0.47109529
0.30182210 0.14547221 0.31407565
0.19738501 0.13104780 0.85109782
0.15190579 0.17550950 -0.04259024
-0.48072985 -0.05369456 0.55165148
-0.14022890 -0.06108302 -0.70188946
0.32243529 -0.08371577 -0.10414588
0.32838848 -0.16187015 0.55812895
0.08707369 -0.21241371 0.02615989
-0.11909504 0.07370514 -0.30263880
0.35211849 -0.16125193 -0.50173432
-0.23395318 -0.15058839 0.29376966
-0.14046378 0.08947466 0.93661112
0.36183569 -0.15567262 0.46875358
0.43254721 0.00593503 -0.36367396
0.36121488 -0.15388405 -0.67376858
0.21679993 0.10948172 -0.67882597
-0.26101926 -0.10038769 0.56328523
-0.14478979 0.03165962 0.97043455
0.24963790 0.04779892 -0.91642392
-0.47132605 0.08149627 -0.58372104
0.24137451 0.08674827 0.47605047
0.04574977 0.09318065 0.24708353
0.19614172 -0.11853353 0.32934704
-0.06467515 0.19529033 0.05838218
-0.10739698 0.14033693 0.84788513
-0.28644350 0.05434384 0.88726062
0.39890379 0.05796316 0.74682820
0.23356956 -0.17050014 0.20922385
-0.42657611 -0.13811341 -0.55808443
-0.26118267 0.08256338 -0.47339320
0.18241403 -0.01339258 -0.40539169
-0.23016442 0.10421881 0.34718230
0.43256336 0.09132244 0.44143039
-0.45342594 -0.00432594 -0.35475364
-0.05381443 -0.20704363 -0.11485240
0.38472688 0.10372873 -0.72967452
0.00936714 0.19062109 -0.06520955
0.02911103 0.19266868 -0.08206798
-0.01153438 0.05602819 0.74613708
0.37740597 -0.01842219 -0.18977006
-0.33923092 0.13398401 -0.32127199
-0.47320044 -0.01759770 -0.66632628
-0.24900302 -0.11647689 -0.63992137
0.27582937 0.12836863 -0.19083440
-0.05133278 0.18689805 0.09654459
0.27326381 -0.15374883 0.59923756
-0.32505560 -0.09584150 -0.10050159
-0.00873117 -0.07785811 -0.27775714
0.36372441 0.09386550 0.74331659
0.22952461 -0.07550493 0.49318010
-0.41787148 0.09534205 0.36134821
0.27477685 -0.13296656 -0.10225353
-0.35376021 -0.15642731 0.27016389
-0.18045188 0.07566520 0.68546534
-0.47684404 -0.06561404 -0.51191640
0.21609186 -0.04549877 -0.54814339
0.21396396 -0.03939927 -0.94452024
-0.15275796 -0.01710782 -0.35186216
0.34163228 -0.12832943 0.76860130
0.17993268 0.13187356 0.26724598
0.15814793 0.05128086 -0.68434250
0.22783382 0.08991251 -0.90500003
-0.38704580 -0.10526156 0.25128323
-0.44079414 0.05084656 0.34231654
-0.01984352 0.14251326 -0.85089183
0.12093496 -0.15660186 -0.81006312
-0.32986349 0.14554399 0.35358530
-0.33042333 0.08640869 -0.13409179
-0.13479196 -0.08913292 -0.96944696
0.08756304 0.12387841 0.22670987
0.16234267 -0.04721848 -0.66206896
-0.35284871 0.01166495 0.04543070
0.25110471 0.00993667 0.91124135
-0.03329514 -0.07975016 -0.98354906
-0.16813806 -0.10845704 -0.32107469
-0.15211530 -0.01602232 0.67793411
0.20326419 0.11505838 -0.89893931
0.30203038 0.13571061 -0.29584861
0.07830213 0.18529609 -0.05469143
0.38948438 -0.14389496 0.54056758
-0.06927869 -0.18703072 -0.17517373
0.18738288 0.12999021 -0.30316129
-0.35495389 0.00154199 0.04340116
-0.06212436 0.13571680 -0.91275567
0.04121710 -0.11844034 -0.95622224
0.12742877 -0.17686154 -0.18746936
0.19368455 0.15054436 -0.02001734
-0.12098417 0.14203374 -0.85366404
-0.02300730 -0.20709416 0.10912511
-0.18411024 -0.10985181 -0.70959574
0.23217291 0.11922288 -0.35560462
-0.37661609 -0.16176428 0.40465772
-0.46255222 0.09006826 -0.49078530
0.10624977 0.07633909 0.72461331
0.09304161 -0.19934809 -0.04621802
0.33641329 0.01014428 0.05126568
-0.11515690 0.11034873 -0.25202939
-0.09737963 0.05687740 0.71892792
-0.40293637 0.00384005 -0.21196748
0.17911625 -0.16472584 -0.24655797
0.17229505 -0.07547485 -0.67484409
-0.20938616 -0.19377348 -0.09696834
0.26514924 -0.15428652 -0.18498616
0.45238972 -0.07880413 0.55028772
0.10196992 0.04679224 0.71302837
0.10932133 0.11125331 0.92095196
0.05168396 -0.05233430 -0.98867202
-0.08986560 -0.16592517 0.18953972
-0.27025497 -0.16623209 -0.77406627
-0.00365193 0.11540961 0.22523019
-0.32987866 0.14805332 -0.41349125
-0.37535968 -0.15473524 -0.57050705
-0.05348315 0.08390545 -0.96454000
0.33992839 -0.05020679 0.08812033
0.20288014 -0.13311072 0.68175256
-0.21549520 -0.16054107 0.23780392
0.43124455 -0.09346299 -0.41817477
-0.44630727 -0.06080052 0.34739929
-0.21087828 0.03424470 0.60761362
-0.22817226 -0.16680978 -0.75646907
-0.02698543 0.19231698 0.07076535
0.30834383 -0.15574402 -0.62447309
-0.02260372 0.14828752 -0.85945386
0.05167324 -0.14969575 0.80210555
0.22920923 -0.16647507 -0.05102777
0.17213912 0.11135349 -0.91038889
0.01604944 0.19666007 -0.07527214
0.31593055 0.14121728 0.70158207
-0.20300910 0.13412122 0.85877287
0.46288735 -0.01540975 -0.45854953
0.00887688 -0.12616158 -0.96847326
0.42303577 0.10442007 0.42839235
-0.41613877 -0.13119733 -0.43275467
0.09497675 -0.19815961 -0.07113289
-0.23821701 0.08199386 0.60062093
0.31883767 -0.16662668 -0.66311890
-0.35508177 -0.16874556 0.52379316
0.01189266 0.10744146 0.77388012
-0.48215938 -0.04262258 -0.46436012
-0.34230843 -0.15789263 0.68058580
-0.33185729 -0.06219446 -0.04936478
0.24038453 0.12958746 -0.84773940
-0.31896293 -0.15828361 -0.25917122
0.10754984 0.17520609 -0.11699157
-0.27057114 -0.13944101 -0.39515957
0.19927165 0.13905281 -0.86167383
0.04211955 -0.06472196 -0.99091691
-0.45571595 0.09076124 -0.61370152
-0.13083491 -0.05306406 -0.97947592
0.32170054 -0.15469009 0.74418181
-0.19511998 0.08555282 0.91760302
0.10865945 0.03674474 -0.71345657
-0.09191100 0.17625290 0.12562992
0.38767061 -0.05968101 0.23842530
0.38424891 0.08144122 0.74014354
-0.10696444 -0.16758728 -0.87156332
0.13449857 0.18110645 -0.02332571
-0.23858076 -0.06385159 0.51974821
0.11643085 0.09095951 -0.95288539
-0.22545061 -0.04885665 -0.57695925
0.37113571 0.02031724 0.18088111
-0.21073663 0.15155187 -0.23132601
-0.48354340 0.05124143 -0.55773139
-0.39582545 0.03504782 0.20587577
-0.13257657 -0.01890882 0.68400538
0.32397476 0.12924653 -0.36046100
-0.13965590 -0.12712999 -0.27468708
-0.44455689 0.00078400 0.70187593
0.21721962 -0.11825559 0.64741743
0.20621395 -0.12408252 0.87779313
0.24333230 0.05947161 0.89857024
-0.39627218 -0.08697712 0.24546082
0.35874158 0.01374952 0.14603886
-0.26473522 0.13175692 -0.08232735
0.33547622 -0.09912468 -0.81762576
0.39611846 -0.09774489 0.32772386
-0.03884004 -0.00972568 0.28934419
-0.48482195 0.03877925 -0.54011130
-0.29147050 -0.14392376 -0.14977935
0.06110839 -0.03794943 -0.99143320
0.08690374 -0.19592881 0.13233535
-0.35550275 0.14670488 0.59182417
-0.47416595 0.04898185 -0.66675550
0.21786018 0.01987601 0.50782883
-0.36982566 -0.12509289 -0.77554369
0.00931639 0.08306137 0.96382385
-0.27003407 0.09059826 -0.52201587
-0.29839021 0.11793142 0.54870898
0.37320361 0.09063694 -0.29059160
0.46894801 0.00676552 -0.54004186
0.19738629 -0.06051910 0.61841750
0.10676105 -0.05746461 0.97278017
-0.29901227 -0.11475873 -0.06167350
0.21814874 -0.06456729 -0.94404405
-0.30016837 0.10033538 -0.01768312
-0.41224489 -0.03875318 0.24258254
-0.20783758 -0.13724989 0.87430912
0.10280476 -0.19291891 -0.10364152
0.43239164 -0.10987386 -0.45373300
0.42696172 -0.12322550 0.58886045
0.34600633 -0.14062127 0.31461236
0.07345071 0.03300758 0.97926265
0.40781277 0.12096294 0.48908517
0.31798190 -0.15824576 0.71409911
-0.33349222 0.08495440 0.12304446
0.44761440 -0.09209941 -0.55750138
-0.15255055 0.13870057 -0.23997749
0.01709115 -0.18170768 0.14888991
-0.29321685 0.11210106 -0.52315742
0.01641098 0.05336406 -0.75964445
0.14952591 0.17040135 -0.05142778
-0.21327272 0.15942481 -0.17400150
-0.24613087 0.14083834 0.09233131
-0.47191462 -0.02930358 -0.42413828
0.35728323 -0.11971006 -0.76464617
0.15740031 0.05244584 -0.35834372
-0.03721375 0.05124566 0.73572880
0.03946678 -0.09771498 -0.97838199
0.36871532 -0.15513113 -0.48689121
0.29668382 0.09185909 0.84871858
-0.41062725 -0.16043845 0.54735184
0.03729701 0.04834596 -0.74889755
-0.25714615 0.14280026 -0.78551483
0.06381591 -0.19448166 0.14349964
-0.20351695 0.14744756 0.79129344
0.16685845 0.16184270 -0.20797293
0.04546229 0.12270764 -0.93487322
0.21539091 0.09977554 -0.91272914
0.43799576 -0.11460901 -0.55623639
-0.46909717 -0.06964408 0.45388234
-0.43878815 -0.05174864 -0.33969063
-0.47383326 0.02826339 0.62240142
-0.38014171 0.14000505 -0.41564324
0.06045622 0.05390916 -0.97894824
0.31617314 -0.14536373 -0.25618151
0.02757962 0.07766249 -0.76206470
-0.31934822 -0.14916812 -0.43914506
0.27915612 0.14062609 0.74004149
0.11966862 0.00552566 -0.34691465
0.06418851 0.13007464 0.90363365
-0.25925258 0.14843762 0.78493971
-0.16767325 0.12549615 -0.76468205
-0.11757336 -0.17447534 0.16735026
0.32030809 -0.08008143 0.09724337
-0.35511330 0.08168464 0.14538801
0.28194645 -0.12094934 0.84169734
-0.20166217 0.11331460 -0.72497612
0.22028984 -0.01141665 -0.51982641
-0.03219541 -0.18009603 0.14903300
-0.40216112 -0.03803799 -0.22533707
-0.30756903 0.13257509 0.46816692
0.30834529 -0.04505973 -0.88674223
0.39658996 0.12806275 0.47205037
-0.17747095 0.16095091 0.16987628
0.37470940 0.06809651 -0.77974153
-0.21854635 0.06527223 0.39544436
0.20122862 0.10272431 -0.67972702
-0.04607480 -0.10661032 0.25977954
-0.22678436 0.14913580 0.20008336
0.31539735 0.14268081 -0.70107037
-0.48171282 0.01472735 -0.61944896
0.11090385 -0.16383861 0.85983664
-0.22717735 -0.02714695 0.58474058
-0.25609559 0.09619004 0.43308285
-0.36292979 0.14882609 -0.43259349
-0.06678181 -0.16416550 -0.84245491
-0.33307517 -0.16281904 0.57621360
-0.44849956 -0.11223697 -0.60193676
0.34074062 -0.10786114 0.78896242
-0.08646207 -0.18882783 0.15124546
0.28458035 -0.12688828 -0.12474739
-0.35406536 -0.11346269 0.19079325
0.14934692 -0.05462433 -0.35891697
0.30701739 -0.14392211 0.25267923
0.27376467 0.11545502 -0.04531613
-0.06251942 -0.02010898 0.72338265
-0.07885182 0.19339624 -0.08548506
0.25541124 -0.12349675 -0.59903979
-0.09294330 0.14499702 0.83861762
-0.39496580 0.13604128 0.60494965
-0.00714699 0.02988636 0.97996575
-0.22891966 -0.17414214 -0.19099060
0.08267663 0.06972845 0.96134579
0.12024336 -0.05323304 0.97369426
-0.34028587 -0.15030840 -0.77709782
0.34418479 0.12709919 0.72277558
0.45819035 0.05739520 0.58301580
-0.17371923 0.03789870 -0.68655246
-0.34527138 0.12988685 0.29331145
0.27017343 -0.13604654 -0.52859735
-0.29316342 0.12237906 0.10819977
-0.21454312 -0.12608723 -0.90401495
0.19032960 -0.17625076 -0.06627887
-0.19373718 -0.16640262 -0.23949820
0.02139563 -0.05896333 -1.00139046
-0.29057837 -0.16424829 -0.27672419
-0.00339379 0.16833463 0.15372576
0.40937543 -0.06886651 0.73247057
-0.21987909 0.02091647 0.42095146
0.22879267 0.11173129 -0.66419268
0.18441814 0.11579747 -0.32282439
-0.43915480 0.05412469 -0.34089172
-0.22538751 -0.10471603 -0.65184152
-0.42063227 -0.14865139 0.53759372
0.20050947 0.14001459 0.75080973
0.41296214 -0.13625158 -0.47500387
0.34213874 0.02389994 -0.09878092
-0.46044520 0.02868806 0.38732222
-0.17713767 -0.18645939 -0.13341989
-0.26896441 -0.14611612 -0.37052852
0.07369042 0.13796771 -0.86986512
0.03753759 -0.16509290 0.19991748
0.36508757 0.05525574 0.79947817
0.40763864 0.10007932 0.37401175
0.35569653 -0.15656981 0.56669760
-0.06981820 0.10593523 0.24158153
0.41811255 -0.03410409 -0.29453349
0.13354918 0.17798117 -0.00993581
0.33046630 -0.16086073 -0.34899369
-0.09655171 -0.03015243 -0.30873504
-0.36840117 0.07898293 0.19153962
-0.19892509 0.12977318 -0.75324094
0.17801026 -0.14800316 0.74224997
-0.26235542 0.10927739 -0.43072820
0.14035790 0.14048323 -0.24346177
-0.27906254 -0.15644467 -0.36392274
-0.19363756 0.03995916 0.64991421
0.32232216 -0.10790210 0.81050813
-0.22008063 0.01812152 -0.43881285
0.04610450 0.05294472 0.74161607
-0.07699510 -0.15910041 0.81139213
0.29248646 0.13559355 0.22974798
-0.32197529 0.05191736 0.86276752
0.37295002 -0.09547933 0.28039521
0.42927632 -0.11176170 -0.61751932
0.05749428 0.19174956 0.08934523
0.14213109 0.13972212 0.79405379
0.22768542 -0.13619089 0.86666960
-0.37398866 -0.15415291 0.36636111
0.25922570 -0.12506494 -0.56837553
0.13164519 0.04479896 -0.70150256
0.24287404 -0.15440631 0.79126716
-0.39443165 -0.15020432 -0.53256023
-0.09860106 -0.13179934 0.75967830
-0.21177775 0.06399298 0.92382807
-0.38952217 0.14223948 0.51494896
0.31047374 -0.12502712 -0.19270554
-0.16772586 -0.05186155 0.95543915
0.44095516 -0.10063858 -0.57272214
-0.32471627 -0.07156996 -0.87079304
-0.47891879 0.04066582 -0.57779360
0.36237335 -0.09259991 -0.23625335
-0.20928539 -0.15468372 -0.86113596
0.30208313 0.12332167 0.79472595
-0.03040552 0.19511931 -0.06166775
-0.10047964 0.13170029 0.21028385
-0.29829046 -0.15067439 0.42872661
0.44448140 -0.07653227 -0.41530734
0.36656678 -0.09329510 0.23359872
-0.08462068 0.18685187 -0.10578563
0.47160256 0.00281967 0.47401211
-0.09712901 -0.21292777 -0.02250306
0.01658898 0.10615325 -0.80787867
-0.48419154 0.02065106 0.54980814
-0.28422603 -0.14523946 0.81568921
0.13527876 0.13984650 0.80802131
-0.18787292 -0.19684981 -0.03044220
