0.10530174 -0.20220423 -0.31892186
-0.55444145 -0.30166340 -0.02528917
0.00555543 0.09937131 -0.06639338
-0.14320128 -0.13899404 0.23113765
0.12556915 0.80326724 0.34261438
-0.35989347 -0.25356808 0.23289439
-0.03490226 0.27462938 -0.02124994
-0.62656629 -0.37011462 -0.16379911
0.12387253 0.66711617 0.23603472
-0.02823345 0.26846057 0.00426262
-0.37890977 -0.38441962 0.13367008
0.37967831 0.34293419 0.24424192
0.15558256 0.36683404 0.03353686
-0.34459651 -0.43813062 0.08238912
-0.53719783 -0.30114335 -0.07202050
-0.26388931 -0.57262230 -0.02549297
0.18969080 0.14389515 0.24409145
-0.02050398 -0.36210471 -0.09192303
0.01428673 0.27835453 0.02715569
-0.01031477 0.17854723 0.15032974
0.06923805 0.16245133 0.01660705
0.12503503 -0.33039513 0.04462701
-0.51999068 -0.21171182 -0.12767099
-0.25329244 -0.53923452 -0.14116304
0.14526707 -0.25849885 -0.31653938
0.22613296 0.18119231 -0.04926286
0.22850144 0.15321663 -0.14161955
0.14224283 0.64782989 0.20400290
-0.26135734 -0.35211679 0.21804431
-0.22339171 0.06720100 -0.13688229
-0.19607073 -0.31195652 -0.24830699
-0.57170701 -0.23118478 -0.00309734
0.31806943 -0.13534498 0.25243035
0.14511362 0.05737812 0.17849484
0.08062071 -0.54316187 -0.18313812
-0.49579638 -0.25868800 0.11402385
0.23039407 -0.07630955 -0.13237931
-0.36486983 -0.12881887 0.25701621
-0.24553819 0.02750225 0.19882919
0.02946854 -0.39749902 -0.09600349
-0.04884558 -0.35131600 0.12652405
0.28048101 -0.03040381 0.18778227
-0.04655768 0.14894293 0.04637656
-0.62527990 -0.37225479 -0.18779971
-0.41827506 -0.03152873 -0.16626696
0.25084919 -0.27760923 -0.22884881
-0.54665220 -0.47192794 -0.37521389
-0.52958930 -0.34578887 -0.19140631
-0.54791212 -0.31912300 -0.30509576
0.30580536 0.45122027 0.07367504
-0.21756917 -0.52214772 0.01190169
0.21223885 0.74183148 0.28952277
-0.06369427 -0.23255488 0.18425943
0.26713407 0.17720197 -0.04164912
0.37451017 -0.06128357 0.12584154
0.44578996 -0.39195853 -0.48113346
-0.61474061 -0.30494171 -0.24840009
0.03941770 -0.02269213 -0.19499545
-0.55480480 -0.20067319 0.03258139
0.05619735 0.28145522 -0.01808590
0.23297298 0.61823076 0.29630220
-0.15963072 -0.14623612 0.25777534
0.40122485 -0.37732816 -0.50540251
0.24867696 0.54798758 0.05635431
0.08461642 -0.04947032 0.18153137
0.38382694 0.02963741 0.10695031
0.43499586 -0.29746994 -0.35880393
0.30663314 -0.25863197 -0.41651580
0.09490553 -0.13865277 -0.29862535
-0.06223425 -0.36729836 -0.12423890
0.29761738 0.03997732 0.22147742
0.32009572 0.42572182 0.07078723
0.13994448 0.84873068 0.31164894
0.18103981 0.68143725 0.11476852
-0.59745574 -0.38275522 -0.22043715
0.25776193 -0.11598137 -0.08351219
0.31535453 0.40023422 0.21831174
-0.16076854 -0.04024598 0.20242439
0.28865379 -0.00744557 0.14792737
-0.52814966 -0.15552142 0.07032979
0.05674183 0.23103276 -0.02963119
0.18894815 0.69841516 0.22815585
0.23309195 0.10884024 -0.22524789
-0.08418491 -0.14847651 -0.26059884
0.32371607 0.21535951 0.03133313
0.04006565 -0.51390696 -0.06001277
0.16021982 0.73741937 0.23099566
-0.47168574 -0.27319872 -0.28563955
0.09833410 0.08017354 0.25687844
-0.16959426 0.06426526 0.16648333
0.10415712 -0.16627601 -0.31636736
-0.04676958 0.18638007 -0.22097705
-0.41984901 -0.15679595 -0.24390988
-0.00528877 0.01482030 0.38785136
-0.39188918 0.07365803 0.16930602
0.29436791 0.16312614 -0.11832660
0.46236023 -0.32716754 -0.48520648
0.33174187 -0.11805126 0.24309301
0.35131431 -0.41873538 -0.42110783
0.04523459 -0.42718542 -0.02181457
0.36796483 -0.21504691 -0.31887603
0.09372959 -0.29610336 -0.17037231
0.17441639 -0.04652141 -0.17886722
-0.44371039 -0.32764938 -0.04501855
-0.38508981 -0.45030999 -0.03693265
-0.63627672 -0.58401477 -0.32798636
0.22577295 0.22418210 -0.11809152
0.15999968 -0.28311554 -0.14195147
0.20738590 0.59634614 0.04106451
0.27033541 0.89160722 0.09940704
-0.39341310 0.04357377 0.19470792
0.11581600 0.74225378 0.23427650
0.01826550 -0.16397953 -0.26994288
0.13665177 -0.50995928 -0.15350981
-0.59441125 -0.49582529 -0.25873727
0.20008558 0.62126899 0.04871408
-0.24346043 -0.04455787 0.24172556
0.29884163 0.19792771 -0.00625824
0.17056036 -0.15318465 -0.31410703
0.03932619 0.09454224 0.31936610
-0.09601195 0.19368151 -0.19834954
0.19372827 -0.25102320 -0.16099328
0.15280920 -0.08921786 -0.25240326
0.45924124 -0.29019296 -0.43531856
0.42208472 -0.31274411 -0.49980706
0.07280876 0.22779742 -0.04474879
0.34313783 -0.37754864 -0.48507810
-0.48400122 -0.04515916 -0.06211761
-0.32879162 -0.63548261 -0.05837833
-0.15505846 -0.18162766 0.25584272
-0.31207615 0.07060219 -0.16371599
-0.05620018 0.25005752 -0.02574682
-0.23319474 -0.68665242 -0.08488422
0.22670841 0.10178809 -0.27611220
0.19271931 0.03319431 0.15794846
-0.33296072 -0.58465266 -0.04933848
-0.36404333 -0.37111336 0.15722319
0.12624533 0.85059541 0.29886973
0.18852422 0.22292352 0.21498378
0.09824450 0.72665256 0.30544659
-0.36546350 0.09439557 -0.03481823
0.25814301 0.02703185 0.26332375
0.14462987 0.20173028 -0.07185783
-0.34757477 -0.63430333 -0.15472145
0.20311069 0.08524424 -0.05985041
-0.32212257 0.04603191 -0.19518349
-0.37375858 -0.29643568 -0.31869277
0.27269971 0.15408458 -0.01015596
-0.53196120 -0.10281691 -0.02669289
0.04878993 -0.57100302 -0.17878389
0.23557049 0.11902736 -0.19395724
0.21444011 0.04041462 0.18708068
-0.02693847 0.28186786 -0.05604541
0.04624389 0.02667202 -0.14776333
0.21804795 -0.05418544 0.09416325
0.32940638 0.34019977 -0.00142999
-0.25405115 -0.54067206 0.01028406
0.08067267 -0.30170774 -0.16703442
0.21879429 0.04907200 -0.07219233
0.24654803 -0.13140839 -0.16213252
-0.52884650 -0.19095737 -0.11499815
-0.23926172 -0.57866383 -0.10754009
-0.23467720 0.05587608 0.15247020
0.27065983 0.58912492 0.30013108
0.02194175 0.07466699 0.34194851
-0.06210294 0.21548122 -0.12465113
0.33932081 0.21306297 0.06654428
0.15621991 0.00551726 0.35623345
0.24661279 -0.02997898 0.21058142
-0.24301641 0.02257836 -0.22770828
0.32246712 0.09886001 0.16566285
-0.41256914 0.06624816 -0.03294836
0.12844037 0.02557309 0.25675565
0.24536219 -0.14209086 -0.28171432
0.17854130 -0.42601526 -0.08436388
-0.19911939 -0.50571489 -0.03238513
-0.53146672 -0.17252088 -0.11591699
-0.48002875 -0.29454163 -0.03550868
-0.46365777 -0.01827180 0.12046006
0.19938987 0.42422742 0.03450618
-0.50525337 -0.16523588 -0.16586833
-0.05474076 -0.17087671 0.18715391
0.24687490 -0.12776291 0.29634750
-0.47374773 -0.33327293 -0.33582354
0.02923607 0.07707565 0.33317843
-0.33267739 -0.54379159 -0.16379116
0.40241271 -0.25644121 -0.43255520
0.34527475 0.46467063 0.30647540
0.26424098 0.10319863 -0.26929072
0.02926301 0.24185151 -0.01346603
0.00218126 0.12791514 -0.02179501
-0.44320267 -0.04130845 0.18715678
0.15269913 0.05801281 -0.09685098
0.31129214 0.20098600 0.02166916
0.27309626 0.36150432 0.22994290
0.05871868 -0.09920403 0.44962049
-0.19080117 -0.45709455 0.10670919
-0.37722149 0.08270360 0.17719886
-0.07986557 -0.41561335 0.02831503
0.30578864 0.45917338 0.16528608
-0.41317722 -0.01676577 -0.17269954
-0.56200504 -0.57334906 -0.33467343
-0.59089410 -0.28823012 -0.04396684
0.38145593 0.42550376 0.19910842
0.03832537 0.13985573 -0.24413744
0.20176488 0.17711562 -0.09390725
0.20034787 -0.11196545 0.08853721
-0.15002126 -0.00995116 -0.18602584
-0.64469063 -0.47756255 -0.29008931
0.37965494 0.35094202 0.17449057
0.19561508 0.18407026 0.21602319
-0.07183131 -0.31899691 -0.19939987
0.19182277 -0.34213370 -0.04077107
0.07496113 -0.32697329 -0.15575352
0.15434101 0.13100818 -0.28472444
0.24942076 -0.13253734 -0.13747904
0.01690201 -0.08473054 -0.23512749
0.08074163 0.03671731 0.30179155
-0.28148350 0.05907097 0.18320271
-0.45964158 0.00413981 -0.02107791
-0.45443135 -0.38958335 -0.18545614
0.21905625 0.62372029 0.07155220
0.42826405 -0.26263699 -0.38426253
-0.17102949 -0.10895473 -0.27040598
0.16646418 0.25072360 0.21429937
0.31215397 -0.11809605 0.23199749
0.16085060 0.11596034 -0.22836563
0.03631289 -0.08690886 -0.24503545
-0.44920421 -0.39482373 -0.17953083
0.06909795 0.16348426 0.17930984
0.10968511 -0.60407275 -0.19329569
0.22957614 0.62190437 0.20565519
0.04619345 0.10579580 -0.05855788
0.22915831 0.12558289 -0.18990034
0.12878047 -0.08780825 0.36915842
-0.02882073 0.00580819 -0.15170801
0.05044399 -0.08561015 0.42832690
0.26930380 0.02500752 -0.03925710
0.27212390 0.10770406 -0.26053649
0.34344208 -0.07447423 0.16190417
-0.24631055 -0.49766749 -0.14482090
-0.48079589 -0.38869607 -0.18165828
-0.01233484 0.19803421 -0.22219871
0.05345728 -0.62266672 -0.14955497
0.22701207 0.84624183 0.12935315
0.28226632 0.16406982 -0.00458287
-0.25779161 0.00913937 -0.23890901
0.11998764 -0.28016478 -0.18719034
0.23683727 0.13506076 -0.15771165
-0.28471068 -0.02693386 0.24148706
0.29009578 0.58973122 0.34986016
-0.16296235 -0.01989259 -0.22210439
0.21217161 0.44776991 0.22600009
0.16687688 -0.28196955 -0.21984415
0.31037056 0.54661644 0.33748314
-0.38426778 -0.25479490 0.22677742
0.07776210 -0.44970357 -0.00960409
-0.16031814 -0.09131041 0.22517005
-0.44364917 -0.01224124 0.17077747
0.07005134 0.29650080 -0.01486175
0.11461358 -0.44621301 -0.00156681
0.25682560 0.05465142 -0.03383029
0.04622297 0.24541417 0.12697382
-0.03441484 0.02667428 0.21676840
-0.49535221 -0.11108655 -0.15580648
0.25949392 -0.02527978 -0.06595914
-0.42979145 0.02040187 -0.10529678
0.00549617 -0.35225973 -0.09251456
0.08280605 0.04333726 0.38603821
0.31791118 0.11466071 0.05381775
0.27661464 0.42083523 -0.01633410
-0.28931201 -0.36440128 -0.16552942
0.48731050 -0.40371740 -0.44640782
-0.00054046 0.06709659 0.20023441
-0.05320796 0.25980040 -0.14235733
-0.05012286 0.23729317 -0.19153838
0.28050134 0.50386965 0.03587164
0.00987690 -0.05395007 0.45906499
0.02441391 -0.04583004 0.40497673
-0.29125506 -0.03874175 -0.25055492
-0.52947640 -0.20750916 0.07380734
0.09382471 0.36441520 0.12377013
-0.65903902 -0.51394719 -0.29797396
0.37440115 0.32667127 0.05348826
0.22340950 0.17127867 -0.10430816
-0.08940227 0.25127509 -0.05133157
0.36189246 -0.33543089 -0.48301005
-0.30130658 -0.33047590 0.21927424
0.02642503 0.17112480 0.16979319
0.23910165 0.16042499 -0.02478838
-0.41278368 0.05501692 0.16822426
-0.61354208 -0.30728593 -0.26231489
-0.30819973 0.10672569 0.02406641
-0.41835028 0.06232937 -0.05987064
-0.13525124 0.13258724 0.15402688
-0.11780091 -0.19365641 0.23000717
0.21556923 0.59445751 0.08742917
0.02905321 -0.19086239 0.15767919
0.32235971 -0.24159023 -0.23351768
0.33952558 0.38254982 0.11121343
0.10197379 0.04728341 0.27774745
-0.20287368 -0.06615818 0.22880140
0.16509944 -0.11475942 0.35779655
-0.23582508 -0.05535658 0.24499437
0.16557610 -0.06416082 0.14303601
0.38717857 0.45567077 0.22936927
0.23068383 0.65334946 0.28990752
0.21213803 0.77297097 0.26161042
-0.02358741 -0.15369943 -0.25289011
-0.24342513 0.07285457 0.11561421
0.14288731 0.05318365 -0.10013410
0.23916939 -0.19284174 -0.04757223
-0.24797277 0.04765809 -0.18608043
0.24817389 0.22074634 -0.09093566
0.29576463 0.55820656 0.33364642
0.14539120 -0.03660101 0.37832505
-0.17404662 -0.00784966 0.19575727
0.01063715 0.07581430 0.38518229
-0.34919444 -0.40091401 0.14069559
0.16912213 0.23843336 0.21273513
-0.05927662 0.27403861 -0.09205117
0.45190224 -0.29046193 -0.41246781
0.15550098 0.34992206 0.22729479
-0.20963843 -0.03743541 -0.25784111
-0.03051464 0.18057056 -0.17782193
0.03230830 0.19435170 0.07078538
-0.24398494 0.03480691 -0.20889615
-0.55830276 -0.47032863 -0.37332129
-0.28201002 0.09736487 -0.02870428
-0.23296306 -0.01391916 -0.25108603
-0.38333279 -0.38641632 -0.21171406
0.20452979 -0.24840724 0.00883440
-0.25010973 -0.58509880 -0.03711906
0.33499563 0.46606487 0.30667824
-0.24778292 -0.34909898 0.22400518
0.15455152 0.66102952 0.14802527
-0.54772115 -0.26060212 -0.09261522
-0.07677001 -0.14645699 0.19489610
0.05939882 -0.27204365 -0.20812441
-0.26565135 -0.49253035 0.06048949
0.14998613 -0.13601539 -0.29796532
-0.03102704 0.11989853 0.19028245
-0.08077671 -0.05447699 -0.19014834
-0.32904887 -0.02515349 -0.24287035
-0.49721271 -0.27624157 -0.25390777
0.04994914 -0.07979482 0.19143361
0.14770418 -0.07754166 0.14372857
0.24359515 -0.12119099 -0.15418158
-0.56651592 -0.24839658 -0.07567149
-0.19214463 0.03797086 -0.15289611
0.02342370 0.00258423 0.37531042
0.21696535 -0.09907387 0.07815958
-0.58974111 -0.36426491 -0.15010977
-0.64421594 -0.51378620 -0.41611752
0.01990357 -0.34573606 0.00500129
0.20106766 0.65206200 0.34369910
-0.53230202 -0.51908672 -0.40006238
0.24884316 0.61261261 0.25647843
0.17188901 -0.63326025 -0.08248104
-0.07547715 0.22972338 -0.09037016
0.25202286 0.12437557 -0.01229540
-0.27682933 -0.25134674 0.29778969
0.10490994 0.17505249 0.00801574
-0.36222520 -0.52712309 -0.04064784
0.13807355 0.19370863 -0.22631697
-0.30725431 -0.23932123 0.27719390
0.29654485 -0.17274737 -0.30610943
-0.11860715 0.02047417 -0.11016966
-0.24994138 -0.35239944 -0.20716710
-0.01002143 0.27910119 -0.06284675
0.27462584 0.09222417 -0.00919693
-0.48497939 -0.35005695 -0.16806777
0.24691543 -0.30954200 -0.32803971
-0.16626500 -0.47822005 0.04265795
0.08738188 -0.53051794 -0.04239688
-0.39853609 -0.36807573 0.15881549
0.12749004 0.23810598 0.21432485
0.14812683 -0.52843446 -0.05967429
-0.51860821 -0.44942236 -0.35389796
0.14591934 0.69521743 0.34174693
-0.33376533 0.10141092 -0.05113373
-0.15615350 -0.33739698 0.24390176
-0.10142317 0.20196897 -0.15378974
0.46600792 -0.30095631 -0.41349572
0.21180788 0.54970169 0.15164174
-0.59623063 -0.41241497 -0.33940318
-0.47934681 -0.03629567 -0.06321960
0.36390355 0.43009791 0.20431881
-0.46995097 -0.43880904 -0.25344032
0.37651780 -0.29384586 -0.46569368
-0.47961453 -0.33987358 -0.14245899
0.45780244 -0.31694049 -0.39362407
-0.13058178 0.24919155 -0.06559446
-0.31681806 -0.67363119 -0.14085257
0.07972753 -0.24417156 0.11294439
-0.00089162 0.15236117 -0.24562638
-0.26309866 0.01684587 -0.23364660
0.35307997 0.08087570 0.11461750
0.27997452 0.34533125 0.22613779
0.33725265 0.19821838 0.09815601
-0.26982605 -0.45039737 -0.14606214
0.07306145 0.03589058 0.18917055
0.04866926 0.05760551 0.32110924
0.06237611 0.24011062 -0.00325549
0.13700680 0.09263077 -0.06825712
0.04631519 -0.48494190 -0.04470245
-0.41321954 -0.37617987 0.12884288
0.19192350 0.59381318 0.17610039
0.19036087 0.36610484 0.00209884
0.03611159 0.14714193 -0.25331807
0.11341429 0.69835675 0.21480085
0.18442988 0.15134126 0.23509026
-0.32749629 -0.05651170 -0.24477471
-0.46256328 -0.33020067 -0.11400809
-0.27187526 0.08227392 0.09906342
0.06091672 -0.39260978 -0.13616654
0.20764908 0.60350668 0.07273686
0.23504940 0.92255646 0.17238897
0.29374999 0.10559735 -0.22451836
-0.39391801 0.08514716 0.06782687
0.25278929 -0.09886172 0.01746839
-0.32477468 -0.04706322 -0.24812233
0.09957828 0.10528097 0.21232301
0.14991151 -0.51397902 -0.05975677
0.16913944 -0.61485034 -0.13817525
0.16418684 -0.31288204 0.01944421
-0.46634871 -0.43344897 -0.32734233
0.14622159 0.03822438 -0.11137119
-0.55218112 -0.36965173 -0.19502883
0.18857875 0.65752101 0.19453628
-0.46641436 -0.10494481 0.17389837
0.06447001 -0.09833844 -0.25787687
0.03199800 -0.01982868 0.20545855
0.19729915 -0.28173628 -0.09545714
0.07474220 -0.53440064 -0.18473591
0.18096694 -0.13287917 0.37481275
0.12938468 -0.03395300 0.30772436
-0.26494080 -0.10878056 0.28667328
0.39861366 -0.33992210 -0.35746840
-0.06282778 -0.08180805 0.21180540
-0.08818600 -0.35483348 -0.15619113
0.36379018 0.42679930 0.21129036
0.08536069 -0.17015326 -0.31018260
-0.61004186 -0.49456602 -0.25974426
0.12240441 0.25535125 -0.11642335
0.11868335 -0.59218848 -0.19432510
0.28694820 0.02786500 0.10779299
-0.36410519 0.03992222 -0.19226451
0.20039937 0.76222533 0.25120524
0.17602751 0.45982829 0.18754287
0.11254624 -0.23354051 0.09580333
0.31002855 0.38355029 0.22893392
-0.24563144 -0.58958066 -0.05537228
-0.63366199 -0.50346595 -0.26998556
0.20196715 -0.12276182 -0.26710382
0.34104058 -0.22017139 -0.26359704
0.13216788 -0.28425124 -0.26333982
0.24145377 0.19820052 -0.18323392
-0.08471503 -0.40740496 -0.03763156
0.11327717 0.77529258 0.34246317
0.15052332 0.07101374 -0.08371519
0.08706602 -0.45425057 -0.00364437
-0.29026800 -0.43376124 0.12438430
-0.50239003 -0.53338242 -0.40442994
-0.42377046 -0.19550818 0.22989966
0.06909786 -0.31162894 0.07082312
0.15890969 0.80513567 0.34646627
0.07209547 0.18162739 0.24020886
-0.48189250 -0.43744296 -0.32955635
0.32065496 0.20318058 0.15775678
0.23458490 0.84306324 0.28056371
-0.38336954 -0.13352811 -0.24571589
-0.40555269 -0.34413305 -0.33023012
0.17984936 0.36701408 0.00783435
-0.66263175 -0.51998127 -0.40823913
-0.38021374 -0.42345333 -0.05143316
0.14453660 0.15337490 0.26004317
-0.05495103 0.15956591 0.09313506
0.44173625 -0.40613091 -0.45087156
0.32026792 0.12645823 0.12895648
-0.34759790 -0.51003534 -0.01696473
-0.19210824 -0.35616666 -0.19950993
0.22818103 0.84371263 0.15467796
-0.50453746 -0.26757592 0.07763512
-0.65349793 -0.35373619 -0.19166569
0.14453642 -0.52434701 -0.15163393
-0.61527610 -0.49005014 -0.42129567
0.08751856 0.13804901 -0.21532109
-0.42471641 -0.07728830 0.21572298
0.03871177 -0.43801469 -0.03997524
0.17449105 0.88842690 0.13078044
0.39164621 -0.22989139 -0.35678044
0.22915065 0.62133479 0.31806228
-0.15244867 -0.27780762 -0.27945343
0.24621242 0.14876063 -0.14387961
0.16658187 0.66049403 0.33315456
0.22426406 0.60707432 0.09912238
0.20858446 0.48563978 0.23977029
-0.14038940 -0.23891744 0.26413479
0.22143623 -0.09416503 -0.17894645
-0.46818224 -0.43252009 -0.24328847
-0.29643267 0.01907107 -0.23059095
-0.26642662 -0.36023656 0.20060113
0.07351613 0.12701301 0.28679875
0.22894123 0.09696485 -0.27014419
-0.00254270 0.19173925 -0.13283050
0.20765513 0.00754136 -0.09604331
0.14728944 0.41520539 0.18239917
0.25980011 0.08800685 -0.26409709
0.35027218 -0.21633956 -0.37017491
0.32805827 0.53372508 0.26485923
-0.31810856 -0.58713657 -0.17379957
-0.14805773 -0.37123704 0.21321803
-0.21049103 -0.08581732 -0.27107120
0.14013946 -0.61721522 -0.06470617
0.28250462 0.20072293 -0.04786058
0.10620224 0.11914027 -0.25973648
0.17603114 0.50105226 0.15488979
0.15715629 -0.36463207 -0.11729862
0.00285020 -0.00798962 0.40060663
-0.19013767 0.07195867 0.11442353
-0.49608743 -0.29032004 0.09801067
0.22699487 -0.23575127 -0.38386175
-0.42812672 -0.34042653 -0.05212333
-0.28288615 -0.40651792 0.15512581
0.26366171 0.50518233 0.13646871
0.36234105 0.36470732 0.15035005
0.15073521 0.12496334 -0.21522819
-0.12092585 -0.07695602 -0.22774515
0.26947740 0.86648011 0.07430818
-0.61065710 -0.52247542 -0.44246012
0.09121080 -0.29838634 0.08118568
0.19535947 0.21243645 -0.16268662
-0.40057340 -0.38024390 -0.04388205
-0.51591665 -0.08050174 0.03361967
0.23383802 -0.00924185 0.21346079
-0.40592739 0.00401548 -0.16609281
0.23675591 0.60997540 0.20746642
-0.45196217 -0.05702944 0.17549162
-0.00932948 -0.12449199 0.19332419
-0.22278856 0.07033133 0.02798761
-0.27047077 0.09104314 0.01175031
0.22058639 0.03076240 0.15679058
0.23010951 0.33721173 0.22985753
0.22900295 0.60966063 0.32351419
-0.00578178 -0.23659572 -0.23753518
-0.08368768 0.17419145 0.13257486
0.25728124 -0.13451067 -0.20477408
0.07626329 -0.56438714 -0.19311269
0.06871513 -0.37465179 -0.14269304
0.02343664 -0.11403120 0.19202997
-0.24848057 -0.36543459 -0.18486181
0.20103425 -0.23036882 0.02101922
0.28848141 -0.24272507 -0.38962233
-0.59731519 -0.30456638 -0.28041965
0.14102472 0.56183648 0.22508135
0.17137399 0.67761838 0.18538146
-0.25292265 0.07788953 0.01083629
0.20718464 0.70601988 0.31740096
0.35976651 0.01459521 0.08858533
0.06643167 -0.60076833 -0.17380910
0.18478554 0.90390718 0.19363500
-0.37365967 -0.39086074 -0.26868543
0.23409992 0.41899723 0.22589220
-0.42379779 -0.35088184 0.15184771
-0.22796910 -0.53433388 -0.09986579
-0.36353740 -0.38138163 -0.23381144
0.17525592 0.01395795 0.24191412
-0.18391460 -0.46490800 0.07527153
-0.40283763 -0.39346892 -0.29864159
0.30411837 0.52219701 0.29501551
0.15146555 0.04022475 0.33439252
-0.06417131 0.24947843 -0.13838679
0.09067541 0.25520757 -0.12296409
-0.15793346 -0.25791296 -0.28546339
0.12223728 0.02422410 0.27890643
-0.30093560 -0.14718992 -0.27822003
-0.20175126 -0.43988651 -0.12205807
0.24186665 -0.22593075 -0.38045231
-0.35857749 -0.44007695 0.07326362
0.19997647 -0.07976560 0.27345735
0.43568155 -0.38239521 -0.38876417
0.37440646 -0.11453936 0.19416897
0.29039645 0.05200519 0.02651495
-0.05757179 0.24092919 -0.05257737
0.22605351 -0.25961131 -0.36858344
0.01866864 0.02149896 0.20671134
-0.03475911 0.06200809 -0.09994669
0.27077922 0.17581254 -0.08411521
0.18844521 0.04374091 0.17156160
0.18747050 -0.06254664 -0.18195494
0.25389275 -0.27320093 -0.23876780
-0.07080809 0.24916837 -0.17498709
-0.47152179 -0.00946002 0.05685050
0.24943095 -0.15539628 -0.08844938
0.24033001 -0.00907370 0.30309391
0.35585082 0.39155349 0.25022176
0.20392168 0.24261297 -0.08207411
-0.00678553 0.07577276 0.20089427
-0.00839925 0.15122208 -0.23879124
0.08273587 0.06759258 0.27901575
-0.54086298 -0.13519397 -0.01714032
0.24654356 0.30540913 -0.03587100
0.28510776 0.02111799 -0.00349269
-0.05915594 -0.23980182 -0.25105423
0.11022079 -0.21112594 0.12155129
0.25091392 -0.13032824 -0.16747841
0.37245962 -0.35147282 -0.34778547
0.19933689 0.46610245 0.09348194
0.03695502 -0.45401496 -0.11975666
0.36466560 -0.31781045 -0.47674829
-0.08516552 -0.20478836 0.20443456
0.14179666 0.83770096 0.25741959
-0.11616778 -0.44276738 0.01056850
-0.20148331 0.01788303 0.17395006
-0.40604535 -0.23324364 0.22818972
-0.21414821 -0.19429231 0.29615101
-0.53233695 -0.15653387 -0.11762698
0.15032494 0.74132544 0.36064646
0.13164778 0.17866394 -0.24219143
0.27643028 0.15830620 -0.21035439
0.24695912 -0.10274097 0.31610915
-0.24111229 -0.44211429 -0.15080962
0.12178443 -0.58126163 -0.05995275
-0.19848299 -0.50842994 0.02597133
0.26908249 -0.01770626 0.03571282
0.23470861 -0.20501494 -0.14328845
-0.15434763 0.24261561 -0.09638808
-0.35207820 -0.52125072 -0.13473643
0.30903879 -0.33320028 -0.38280252
-0.40515903 0.04903590 0.18564922
-0.36680806 -0.15372851 -0.26815829
-0.29570758 -0.58716202 -0.03489458
-0.51301849 -0.39899820 -0.19434814
0.18017980 0.06485014 0.29564559
-0.09758984 0.03195278 -0.10591705
0.16440487 0.45435628 0.13016368
0.25663128 -0.10204853 -0.00691261
0.26395911 0.49033186 0.10574887
0.38159007 -0.03572395 0.16054972
0.31030163 0.21037754 0.17465177
-0.30709761 -0.64902699 -0.16477834
0.21943146 0.10181110 -0.23624170
0.27158010 0.06902400 0.22676870
-0.06041006 0.18843254 -0.17123808
0.34402025 0.26610804 0.19057441
0.33352444 0.30340731 -0.00756508
0.20142010 0.10582520 -0.03385878
0.21364769 0.76464105 0.30744416
0.18785873 -0.13137421 -0.29614034
-0.35756591 -0.58595622 -0.06696149
0.18230683 -0.05461577 -0.18872990
-0.50525492 -0.47225732 -0.29100502
0.16547802 0.16172345 -0.14411329
-0.49699202 -0.14270687 0.13295346
0.19641218 0.23730734 -0.09230682
0.15302846 -0.21482906 0.07842273
0.07726818 0.15931086 0.27906325
0.46246442 -0.34949732 -0.40773636
0.18658608 0.43961534 0.07884189
0.17570621 0.51096642 0.14966010
-0.38642734 -0.28281540 0.20808652
0.35229695 0.50549805 0.26265892
-0.23740432 -0.52099568 0.03013920
0.05595243 0.29148263 0.06342745
0.20444793 0.25579891 -0.06334866
-0.07444431 0.04531918 -0.10043716
-0.61695206 -0.38251132 -0.20549002
-0.10772052 -0.24075493 -0.26967171
-0.34549052 0.09581032 0.12307611
-0.02115313 0.24586982 -0.03022159
-0.62483096 -0.32521886 -0.12924519
-0.10981468 -0.19982404 -0.27381575
0.01775634 0.18622944 -0.14738789
0.18866637 -0.12101257 0.09164850
0.19486752 -0.21955162 0.04301922
0.25205052 0.00895055 0.17334154
-0.22047406 -0.64700711 -0.09839614
-0.20011996 -0.38358474 0.20266573
-0.01713822 0.09850106 -0.06116052
-0.15367177 -0.17314088 0.25258124
-0.01314276 -0.22568136 0.14738084
-0.12968542 0.10188692 0.03358250
0.31396049 -0.18631566 -0.33231637
0.06529212 0.00749867 0.18437102
0.24817029 -0.28020868 -0.24179392
0.25846708 0.01522806 -0.05078303
0.18657786 0.16664809 -0.12744857
0.25079328 0.86006075 0.07136406
-0.35462987 -0.67978764 -0.10195649
0.21057004 0.13780658 0.23071118
0.16127020 0.17178458 -0.12066413
-0.40107253 0.07363126 0.00996662
0.34357548 -0.27050844 -0.42273849
-0.04537030 0.28047878 -0.01927344
0.11420836 0.10615626 0.18771058
0.09376875 -0.20898256 0.12332393
-0.08809046 0.10900272 0.02397644
0.23200282 0.17174245 -0.06080572
0.18997505 0.64914143 0.08047595
-0.04414815 0.20916973 -0.11847130
0.05990438 -0.24372026 -0.25067037
0.27659750 0.52195287 0.21007223
0.24118406 0.49744639 0.10135284
0.32148311 0.00916497 0.22348690
0.22448170 0.56543815 0.02020856
0.16787398 -0.58290017 -0.08882903
-0.45672646 0.00366125 -0.00860662
0.42881051 -0.37345523 -0.49795169
0.24743173 -0.14646125 -0.07280129
-0.59180856 -0.33706811 -0.14138132
-0.47309375 -0.21898022 0.17674604
0.31387898 -0.30022100 -0.41504610
-0.26967445 -0.23630145 0.30288559
0.06655437 -0.01371585 0.18576042
0.05512270 0.14605610 -0.22711739
0.06697804 0.11498785 0.26974246
-0.07222857 0.18628784 -0.17189930
0.28783581 0.11894985 0.18026598
-0.59743166 -0.54576451 -0.39813700
0.15696032 0.65843880 0.18424191
0.22087687 0.18082976 -0.08364125
-0.14584948 0.02280843 0.20502444
-0.57001960 -0.55127525 -0.39229566
-0.25310516 0.07393538 0.12957826
0.09708777 0.36409336 0.11661972
0.01803093 0.26195228 0.01474193
0.26950046 -0.28637293 -0.24368727
0.00288063 0.25973111 -0.01198305
-0.39510256 -0.37194282 -0.17692442
0.14887194 0.11220162 0.28267348
-0.11610443 0.09293465 0.01847880
0.08386803 0.25192523 0.19349387
-0.18907911 0.06858493 0.01083404
-0.02131309 0.24324650 -0.04398060
0.18828401 0.04081176 0.20773648
-0.20238037 -0.49465495 -0.07162362
0.02006226 -0.01325847 0.38242072
-0.44536614 -0.26160914 0.19421341
-0.11636256 -0.36239070 0.20097448
-0.33034486 -0.18349299 -0.28212246
-0.27364022 -0.34320858 0.21405970
0.09396094 0.29881760 0.18895705
-0.36116228 -0.16082576 -0.27096495
0.06339879 0.22837922 0.06668411
0.03557960 0.07136893 0.30850083
-0.07145488 -0.01944827 0.21499437
0.05404550 0.17685880 -0.14326429
0.29468465 -0.08451146 0.21103753
-0.16134155 -0.39144450 -0.14511344
-0.23298395 -0.38838291 -0.16004419
-0.06772788 0.15138714 0.08185009
-0.10479930 0.23010629 -0.08279518
0.24415284 -0.18644261 -0.13369241
0.13547875 -0.39454466 0.00992592
-0.29797480 0.08836250 0.14168678
0.00319526 -0.25492412 0.12774020
0.11867712 0.07295816 -0.08860409
0.33942586 0.40920186 0.17542726
0.01119054 0.18751295 0.15058810
-0.54307657 -0.21756646 -0.08067901
-0.61993456 -0.37675136 -0.15861982
0.16109882 0.51931083 0.18112879
0.10278057 0.11283159 0.19254415
-0.37625536 -0.39299738 -0.25496536
-0.02951825 0.24926841 -0.15172629
-0.09996612 -0.10204796 0.19570534
0.14739734 0.03519250 0.34133968
0.21143675 0.89962220 0.24585646
-0.37743574 -0.34492528 -0.32159075
0.05948886 0.03514411 0.19554865
-0.15217969 -0.31290331 -0.24800734
0.22763702 0.79472041 0.25220370
0.16438326 -0.26993170 -0.15567313
-0.23415175 -0.65016472 -0.14453419
0.17082587 0.49523303 0.18244335
-0.61089945 -0.42457086 -0.26809075
-0.04850395 0.27110660 -0.10047932
0.34166655 -0.38487393 -0.47252873
-0.13048506 0.25032127 -0.15490459
-0.00024024 -0.10521290 0.19963887
-0.11417432 -0.42543858 0.12397921
-0.01120971 -0.03951043 0.21398601
0.11229782 0.81383687 0.28967306
0.05417861 0.07011876 0.19204909
-0.28455710 -0.60013080 -0.03735518
-0.59840143 -0.47456324 -0.39824125
0.30109748 -0.19080335 -0.33957490
0.34511569 -0.35414851 -0.46872836
0.35038778 0.04913951 0.16850901
0.35265681 0.26966673 0.03932977
-0.07816657 -0.03241017 0.21369778
0.02989671 0.26615283 -0.12088796
0.03359281 -0.45588475 -0.09779944
-0.19953701 0.02630356 0.16473868
0.25854900 0.54201877 0.15244555
0.26671124 0.55656636 0.23264733
0.19181854 0.63332146 0.17974186
0.05971617 -0.51522875 -0.04247080
0.33489281 0.38248736 0.23637810
0.13010709 0.19866158 -0.22048645
0.24534523 0.17508249 -0.21257110
0.29053885 0.05786214 0.20986074
-0.19662720 -0.44816267 0.11478107
-0.29849249 -0.34940854 -0.19896477
0.34431267 0.24203983 0.04732713
0.16545704 0.16838340 -0.13010611
0.19515586 0.43680960 0.21941271
0.27828881 0.48747939 0.22522178
-0.45645085 -0.24423859 -0.26830637
0.28205290 -0.15958655 -0.24626760
-0.46856838 -0.29913136 0.14713928
-0.07237493 0.13678381 0.04855995
-0.27310550 0.07080793 0.15679635
0.09888226 0.79954475 0.30034983
-0.09377240 0.11835503 0.03643910
0.01472308 -0.11533099 -0.25381100
-0.54663146 -0.29447398 -0.24739058
-0.06297442 -0.38453132 -0.04854975
0.20550162 0.33786124 -0.01385121
0.27522030 0.42753437 -0.01289549
0.08474742 0.09353496 0.34696245
0.03675136 0.15491910 -0.26979047
-0.23833734 -0.63135898 -0.19278738
0.18084544 -0.04064816 0.36020678
0.11573899 0.06654333 0.17792979
0.34897810 0.08070834 0.13279423
-0.06392175 -0.18879175 -0.26574486
0.29885200 0.11961555 -0.19415411
0.21418568 0.21730618 -0.14350249
0.31474715 0.22590329 0.18532319
-0.53672457 -0.57399958 -0.33279911
-0.05434630 0.10815938 -0.02653838
-0.07166672 0.24932362 -0.04779853
0.05381304 0.05411077 -0.12122032
0.08314495 0.17646052 0.02132712
0.19503024 0.79748654 0.33142844
-0.51595396 -0.29163158 -0.19721566
0.37386015 0.32082510 0.17933849
-0.17279637 0.09632915 0.12777352
-0.30478454 -0.00393599 -0.24879588
0.05114402 0.14023186 0.18212217
0.18144974 -0.33666790 -0.09886500
-0.43801889 -0.39925826 -0.32848570
-0.22555137 0.01334508 0.18891177
0.26045391 0.00470185 0.06117041
0.11509450 -0.07416162 0.35277012
-0.24067400 -0.11378404 0.28290474
0.00988321 0.21828163 -0.08371788
0.23386559 0.55268914 0.15288720
0.27798992 0.18243524 -0.12270744
-0.44171906 -0.26635721 0.19040407
-0.08152720 -0.17175013 -0.26527470
-0.32754010 -0.01044023 -0.23285332
-0.22417946 -0.45664030 -0.14095378
-0.37929475 -0.37400460 -0.07704468
0.26009524 -0.10869974 0.27557254
-0.12810549 0.27396861 -0.05844834
0.09671390 -0.03657901 -0.21147582
-0.10286164 0.05200985 -0.08080256
-0.18536553 -0.05445862 -0.25990582
0.20761237 0.22550303 -0.13681939
-0.66681492 -0.52082360 -0.39827520
-0.40670767 0.03044245 0.19772436
0.04172465 0.05663750 0.32861224
-0.37840077 0.09157296 0.12230054
0.25438344 0.15073228 0.19183727
0.10418674 -0.11663541 0.41162670
0.06400831 0.22041717 0.07184396
0.09093224 -0.03261138 0.33353353
-0.33908457 0.10280430 0.06382555
-0.24129091 -0.59570128 -0.14595349
0.46440753 -0.36126494 -0.39770448
0.26438859 0.52046967 0.04839863
0.00892222 0.00507386 -0.16010664
-0.03545657 0.21305345 -0.08664535
0.30218956 0.40392864 0.21874687
-0.32441831 -0.56325662 -0.16679364
0.37992251 -0.22804683 -0.38997519
-0.49959114 -0.27944306 -0.10364674
-0.40484729 0.07866611 -0.00282327
0.16405770 -0.21446133 -0.35620272
-0.50737244 -0.28081945 -0.24554735
0.41055021 -0.39322054 -0.39173615
0.31551555 0.36894870 -0.00361086
0.32453769 0.28796345 0.20538405
0.26529172 0.35111880 0.22673938
-0.12835400 0.20502359 -0.16842307
-0.59614348 -0.45420653 -0.37568456
0.18945125 0.89118242 0.24542573
-0.18253493 -0.13542488 -0.27991635
0.39833370 -0.29827645 -0.31820321
0.01367274 -0.34643325 -0.00430628
-0.01330876 -0.29553300 0.13000058
-0.20046693 -0.34107316 -0.23788062
-0.49467593 -0.23336667 0.13022180
-0.18560757 0.07964584 0.11362778
-0.08095587 -0.34304935 0.19659330
-0.29273164 -0.55840105 -0.01884356
0.10202943 -0.28577715 0.08060160
-0.11728331 -0.23349464 0.23567677
0.18227512 0.87860900 0.11847633
0.37233558 -0.29987520 -0.46383837
0.04717848 -0.44869661 -0.02795624
-0.25444824 -0.43747908 0.12108743
0.14995641 -0.08860701 0.33455691
0.13762508 -0.55219251 -0.05703957
-0.54733562 -0.43134838 -0.36367732
0.21312022 0.47950208 0.08799716
0.16983822 0.71975696 0.21573433
-0.00223356 -0.08852166 -0.23318398
0.10633481 -0.00969991 0.39160135
0.14279667 -0.61618769 -0.16677518
0.24942365 0.82236010 0.23302579
-0.46063253 -0.00753182 -0.06276932
0.15774934 -0.48966885 -0.13291875
0.12640843 0.06069101 0.24706665
-0.53934628 -0.45790213 -0.36055583
0.38475016 0.00780885 0.16536327
0.07189362 -0.16937950 0.15369481
0.05300264 0.24866244 0.07397052
0.09820262 -0.60862148 -0.17499992
-0.58118820 -0.52998489 -0.27708653
-0.26612756 -0.56553072 -0.02535099
-0.31279984 -0.00021873 -0.23763624
0.34410790 0.41632596 0.21375479
-0.50544912 -0.06101380 -0.02253446
0.00997970 -0.08050214 0.45179921
0.41496333 -0.32761234 -0.35182559
0.14135294 -0.10250346 0.35383230
0.36736012 -0.39725524 -0.39157701
0.39366919 -0.37953645 -0.38602117
0.18313709 -0.40463769 -0.07384754
0.09588274 -0.02654256 0.18010135
0.09289645 -0.56973654 -0.05193153
0.32335266 -0.09492004 0.25623897
0.26986527 0.49329150 0.10680216
-0.33490938 -0.46018404 -0.11157080
0.36444482 0.35514736 0.05213288
-0.07624517 -0.11392775 -0.23263294
0.10105735 -0.25700179 -0.27901953
-0.05572036 -0.00075038 -0.14583725
0.16942483 0.84762055 0.20432377
-0.38221601 -0.44165653 -0.02622217
0.08640610 -0.28735870 -0.17307775
0.08531435 0.09311039 -0.06905040
0.13447665 -0.17805395 0.11583380
-0.34203464 0.09553601 -0.12275859
-0.30432397 0.09516724 -0.11411754
-0.13292709 -0.43369257 -0.04857907
-0.10050727 0.12361962 0.18953115
0.13668384 -0.45956218 -0.13811320
-0.23630217 -0.37897760 -0.17531070
0.21004555 0.84379375 0.13942611
0.20947120 0.61209488 0.05311961
0.07829025 0.03334109 0.30672404
0.48581728 -0.38659358 -0.46461421
-0.01826837 0.27607977 -0.06333460
0.35685906 -0.09269452 0.17414799
0.04272115 0.15700521 0.01502333
0.00750800 -0.35790429 -0.03491020
0.02810346 0.27308843 0.04163675
-0.02248605 0.27179372 -0.00810264
-0.39626491 0.08011864 0.00709213
0.03278116 -0.37942278 -0.01588047
-0.22409102 -0.44064087 0.11901192
0.24337754 -0.05697708 0.24154729
-0.48594454 -0.09275472 -0.15405378
-0.04409090 -0.31663579 -0.19637510
-0.10757761 0.12766464 0.07060044
0.08424732 -0.52707845 -0.18589900
0.30316290 0.47845328 0.02217299
0.20856807 0.71389920 0.26655817
0.11330976 0.11351848 0.20635433
-0.56341547 -0.26516390 -0.08440313
0.32268840 -0.07159732 0.25901362
-0.01976881 0.27150133 -0.07274678
-0.17548239 0.01035610 0.18478420
0.12142667 -0.56925619 -0.19433615
0.34683165 -0.05059612 0.13058507
-0.14587322 -0.36574006 -0.19286741
0.19894218 -0.24767295 -0.12477913
-0.27978659 0.09531634 0.06254605
-0.54926103 -0.49166548 -0.38321406
-0.04613671 0.12072913 -0.01567571
0.12925643 -0.51504660 -0.04355523
-0.12483595 -0.33430135 0.23489660
0.10510267 -0.61993623 -0.14737497
0.19807386 0.04356810 -0.08490410
0.04835796 0.25193989 -0.14560366
-0.14958727 -0.19637057 -0.28899449
0.02997990 -0.06372026 0.20053774
0.08269896 0.32351586 0.13115747
0.24014106 -0.17661068 -0.33220980
0.11626343 0.65497369 0.28215116
0.03746162 0.16153859 -0.25602287
0.04810099 0.26995662 0.07129461
-0.50080574 -0.29038599 -0.13865419
0.12321843 0.14833361 -0.00866002
0.43450621 -0.33909637 -0.51982677
0.09479573 0.21990520 0.21590872
0.24860457 -0.03194419 -0.07990254
0.04186225 -0.60215372 -0.09760638
-0.04841522 0.25586987 -0.02771741
0.14923391 0.85882694 0.29617918
-0.12837711 -0.42893887 0.11794610
0.13310272 0.22469911 -0.16530953
0.32163638 0.02171217 0.09604341
0.46942016 -0.36140263 -0.50883663
0.07632057 0.08624476 0.28594336
-0.15452573 0.04342894 -0.05859240
-0.28768271 0.09183734 0.12803426
0.23247012 0.58870661 0.08863086
0.05573665 -0.09141628 0.18535322
0.12744409 0.66076279 0.23218772
0.27321532 -0.14303046 0.30631575
0.13529976 -0.62115318 -0.14707051
-0.58787024 -0.33130342 -0.29607141
0.19630003 -0.15514076 0.07386220
0.21000493 0.43837947 0.23131056
0.41662344 -0.31866077 -0.34200704
-0.44010589 -0.35380489 0.02540118
0.04320033 -0.62466490 -0.12660083
0.03953759 0.03431024 0.19699293
0.24375939 0.59956276 0.21737629
-0.58656168 -0.56503695 -0.36177322
-0.37509373 0.09136006 0.10540005
0.04695491 0.11123325 0.35074362
-0.05112060 0.22170949 -0.07936856
0.15651871 -0.08084431 0.13662276
-0.53223503 -0.17905802 0.08933064
0.04723063 0.15678202 0.18059117
0.19283187 -0.31594872 -0.00672447
0.29784620 0.17198044 0.13750093
0.17717373 0.11916478 0.26748326
-0.41571698 -0.14328659 0.23463196
-0.59410214 -0.48928732 -0.25484073
-0.31483912 -0.56006515 -0.02028685
0.22554690 -0.21588489 -0.06435723
-0.07086035 -0.38072234 -0.10582534
0.23398679 0.60712469 0.29213750
0.13984728 0.10979509 0.28573498
-0.49368882 -0.04457967 0.01658464
-0.23298268 -0.41138762 0.15286078
0.05110289 0.06710134 0.39041510
-0.49186811 -0.26795661 -0.25662580
-0.37437508 -0.34988660 0.17879824
-0.18294340 0.01157725 0.18438679
0.15453385 0.14162546 0.26078355
-0.08126643 -0.41793573 0.07568004
0.33532980 0.41463476 0.21658848
0.12205485 0.25957134 -0.10615221
-0.32905906 -0.39071220 -0.10863667
0.23904231 0.12945819 0.22038212
-0.34598419 -0.18773547 -0.28196815
0.35508612 0.36694086 0.09797607
-0.39492264 -0.37127817 -0.07823445
-0.58767939 -0.39387745 -0.25030482
0.20601341 0.53998327 0.15069991
-0.13910091 -0.31175199 0.25355157
0.24220422 -0.10964938 -0.13561615
-0.35044718 -0.07645449 0.25594363
0.28647119 0.39039794 -0.01949295
-0.04460476 -0.38636732 -0.00975707
-0.00240760 0.12804818 -0.00870214
-0.03892048 0.16606720 -0.22978924
0.08627997 0.14210679 -0.01601365
0.27949911 -0.11360458 0.24627662
0.35499698 0.27277982 0.17284767
-0.17274591 -0.40339142 0.16747195
-0.34603482 -0.56962824 -0.05522248
0.40175745 0.36277127 0.19997014
0.14830548 0.06975275 0.22133505
0.14879870 -0.20842826 0.09269813
0.31237087 0.18445618 0.12327038
-0.37479240 -0.47437805 -0.01278436
0.29279733 -0.11737701 0.24016243
-0.55154610 -0.55091101 -0.31468999
0.18834704 0.89506769 0.24037012
-0.09499969 -0.07749134 0.19849639
0.04800989 -0.45920086 -0.02292843
0.00694741 -0.35067531 0.00614373
-0.56687081 -0.18589577 -0.03386339
-0.14716038 -0.09904546 0.20714414
0.30594409 0.54485130 0.26974407
-0.38224047 -0.37540478 -0.30996037
0.11147682 -0.22079977 0.11006887
-0.57659626 -0.51413858 -0.44284225
0.08866732 -0.38994980 -0.14686044
0.14146164 0.41188791 0.17881183
0.24031165 0.48602718 0.07967202
-0.39153334 -0.39123499 -0.29767326
0.19381666 -0.13775611 0.35536557
0.05218744 -0.61282611 -0.07913855
-0.02315761 -0.24372321 -0.24483876
0.17428488 0.45060039 0.18737105
0.04240791 -0.07081096 0.40764213
0.20757884 0.14263953 -0.15989472
0.07172684 0.11180794 0.18227272
0.16074669 0.18248940 0.22470585
0.12732859 -0.19760108 0.10929531
0.26535779 0.86017364 0.08422963
-0.55995142 -0.31174567 -0.30181634
-0.00002472 0.18155172 -0.25230157
0.03252670 0.10160515 0.35773045
0.09376974 0.11201133 0.22345845
0.23892403 -0.04585277 -0.09451143
0.27738029 0.07302336 -0.01886065
0.08599225 -0.56205207 -0.19496562
0.24747896 0.85127467 0.16509219
0.33169571 -0.00812197 0.11681928
-0.05973250 0.15498351 0.09208784
-0.50041223 -0.05310357 0.03654444
-0.21340543 0.02274904 0.17709570
-0.57865012 -0.36376941 -0.16772461
-0.09515616 -0.09624805 0.19381306
0.26480979 -0.13319850 0.27920142
0.12777194 -0.60184109 -0.18786159
0.12929088 -0.61514682 -0.05891815
-0.46851361 -0.37743556 -0.17388099
-0.25819963 -0.50596339 0.04240317
0.05681585 0.14820801 0.16619059
0.15376887 -0.43424374 -0.02565666
0.06280744 -0.32015091 0.06312832
0.04297353 0.22495264 0.10136726
-0.28795886 0.05857410 -0.20207168
-0.03616488 -0.24102849 -0.24215430
0.08096814 -0.64777017 -0.06430627
-0.14641511 0.23961230 -0.16253088
0.20830035 0.15691023 -0.14375375
0.20046043 0.61090171 0.10530352
-0.62059271 -0.44299948 -0.35701528
-0.31907451 -0.44879001 0.08955054
0.22583631 -0.06462245 0.24772376
0.35035104 -0.26379657 -0.42787600
-0.24312983 0.00051893 0.20538634
0.04569896 -0.41876495 -0.00957047
0.13714989 -0.19942796 0.10301235
0.06477974 0.17562792 -0.15846857
0.24407649 0.51587272 -0.02613803
-0.39382684 0.08244210 0.13551044
0.36090630 0.23889351 0.09257498
0.30317032 0.33991146 -0.02018447
0.48471752 -0.36117992 -0.42676538
-0.13529950 -0.05576362 0.21115164
0.05307353 0.27508867 0.09531250
0.25123629 -0.07309966 0.22984116
-0.59036720 -0.51765919 -0.43935272
-0.52275860 -0.47679383 -0.33870855
-0.18344206 -0.10128133 0.23294392
0.32711127 0.40205228 0.11413631
-0.56455767 -0.38891488 -0.34684983
0.30969715 0.56246519 0.35335931
-0.01544618 0.10781521 0.19491112
0.23589537 0.83007354 0.27024558
-0.35074183 -0.42272240 0.10813096
-0.33985925 0.09957059 -0.06695201
0.26941773 0.18119457 -0.03674159
0.24686134 -0.10606880 0.03164417
0.12027806 -0.10460642 0.35865536
-0.21644819 0.07333471 0.02051984
-0.56893671 -0.57269108 -0.35196063
-0.04472880 0.24251898 -0.04349622
0.26015338 0.86037368 0.11122435
0.13004568 0.02899761 0.26242268
-0.02911662 -0.15958741 0.18885292
-0.24866965 0.01343524 -0.23616754
0.17658907 -0.62134677 -0.08956105
0.29989168 0.25051132 -0.02814483
0.30058372 -0.33473119 -0.35995504
0.20854735 0.56299198 0.16719656
0.17645255 0.48072788 0.20003287
0.35309604 0.53226954 0.34095085
-0.03173464 -0.19766471 0.17326327
-0.50815821 -0.39127481 -0.19316621
-0.15832016 0.11413981 0.15007001
0.21867588 0.18544228 -0.04422610
0.15873896 -0.28874499 0.04909494
0.33277491 -0.02139552 0.13215680
0.10957041 0.71768862 0.23199499
0.09902471 -0.09983672 0.39240843
-0.13330781 -0.22558805 -0.27945682
-0.13609833 0.10294653 0.18577892
-0.12108763 -0.43647206 0.09190086
0.37280911 0.33530825 0.05940111
-0.23493905 -0.60365230 -0.08901282
0.23815179 0.15041105 -0.02333455
0.35474426 -0.25593081 -0.27996999
0.24954298 -0.26260948 -0.22276473
-0.19440460 -0.06698857 0.22419241
-0.59311736 -0.33926865 -0.10136233
-0.64573157 -0.33969352 -0.24787921
0.04514131 -0.39184183 -0.12532508
0.31771046 0.41737452 0.13846622
0.06671724 0.28653860 -0.02336806
-0.04577830 -0.13270167 -0.23838760
-0.06356061 -0.03439625 -0.17352554
-0.05775357 -0.04186726 -0.18557158
0.34645790 0.27089661 0.17267378
0.09976740 -0.47308123 -0.01182592
-0.45515949 0.01450157 0.08244596
0.10431713 -0.03684174 0.33478248
0.36511829 -0.23850098 -0.28366399
0.28326434 0.02217788 -0.01461843
0.37867376 0.34134230 0.05226211
0.28892955 -0.01721478 0.16724810
0.07049195 0.12107693 0.25902462
-0.25017565 -0.67958272 -0.10879261
0.28664705 -0.31998736 -0.36714548
0.37361509 0.31191939 0.16009067
-0.14686376 0.09291433 0.18818077
0.25554973 0.00312752 0.17348279
-0.00855078 0.18790039 -0.15621033
-0.50826514 -0.53685677 -0.37768126
0.23084924 -0.28327918 -0.24080800
0.23017663 -0.05156763 -0.10451894
0.24562708 -0.29884467 -0.26929992
-0.26477396 -0.26758793 0.29453140
0.20660725 -0.03598835 0.24211851
0.36834231 0.44618785 0.22581445
-0.62175548 -0.33416331 -0.10521960
0.24474806 0.51222354 -0.00493996
0.36835954 0.34571218 0.02687930
-0.54308754 -0.27127144 -0.08682200
0.34698933 -0.04584590 0.14098984
0.26071820 0.17949061 -0.06667411
0.17656144 0.89235556 0.21039174
0.03165776 -0.53895783 -0.07700627
0.41580340 -0.02470380 0.12102757
0.16171762 0.28919083 -0.02841739
0.27832225 -0.02530913 -0.01217856
0.30893120 0.29417586 0.21710749
0.10413361 0.73995465 0.24824169
0.10519600 0.19607633 -0.09596632
-0.47459936 -0.27143526 0.15394424
0.39135492 -0.25753963 -0.32329491
0.13798150 -0.19271156 0.11044733
0.25469324 0.47453913 0.05224084
-0.34809127 0.09227438 -0.08026181
-0.27582443 -0.32061049 -0.25955638
-0.10130191 -0.39198577 0.14859514
-0.14171696 -0.44882798 -0.02137904
-0.16184370 0.00009456 0.19716178
0.27130985 -0.00189486 0.16745737
0.27845514 0.49718028 -0.03164233
-0.11645205 -0.35203004 -0.18253163
0.27425605 0.51176798 0.13513784
0.04316229 0.28945580 -0.01067560
0.25345746 0.15027079 -0.14460734
0.31068838 0.42339087 0.11771852
0.05285573 -0.24084911 0.12660021
-0.05687857 -0.16610971 0.19186455
-0.06471361 0.23322089 -0.06987077
0.08105573 0.05075415 0.29315978
0.33396161 -0.35570580 -0.41993219
-0.33403361 -0.10493319 -0.26198390
0.16385397 -0.04979146 0.14264327
0.29971001 0.05606680 0.20593023
-0.19845612 -0.34108216 -0.24528179
-0.36178857 -0.39858466 -0.09087193
-0.39240345 -0.39089459 0.11047018
0.05898890 -0.09564765 0.43457088
0.13763444 -0.12590501 -0.29158807
0.04941432 0.23998359 -0.16414395
0.00145109 -0.35138121 -0.02921032
-0.53789037 -0.29264501 -0.30082634
0.29837650 -0.01544394 0.15242259
0.27221009 0.31811932 -0.02618525
0.33276176 0.48382759 0.26790249
0.26925117 -0.06759226 -0.01416098
-0.12627356 -0.42027748 -0.05631396
0.08161081 0.26841715 -0.08491124
-0.01109467 0.05610800 -0.10296293
0.18351123 0.91747576 0.13682669
0.17698184 0.71281183 0.21573909
-0.05886173 -0.26022550 -0.24165504
0.05336305 0.03884952 0.18693237
-0.46759227 -0.02415293 0.12641603
0.35618961 -0.30901212 -0.46903887
-0.23723039 -0.57681590 -0.09376365
0.31590334 0.41763172 0.18605383
-0.36399782 -0.05980144 -0.23271947
-0.10022759 -0.40045524 -0.09351442
0.31003639 -0.11667612 0.21151181
-0.23295440 0.05272643 -0.17078088
0.11849064 -0.11459741 0.40945509
0.30293542 0.17007452 0.02217665
0.26170671 0.18545561 -0.04794608
0.28392065 0.13811061 -0.14228213
0.45797321 -0.29397282 -0.45214766
0.19109377 0.64808661 0.16363381
-0.29714057 -0.55342805 -0.01741357
0.26998335 0.01273659 0.05793810
0.41796508 -0.34632409 -0.36033159
-0.37474012 -0.10966411 0.25103906
-0.31579012 -0.33996412 0.19452260
-0.27173346 -0.01226653 -0.24681340
0.05024850 0.28825623 0.06501102
0.05081055 -0.38384593 0.02624712
-0.25508833 0.06363828 0.16627294
0.26362008 0.11135000 -0.24774012
-0.46664241 -0.31971851 0.01899092
-0.10074373 0.20237620 -0.21137555
-0.36497188 -0.54358923 -0.08251764
0.30081189 -0.14534858 0.26594028
0.05447543 -0.42053485 -0.14969458
0.38475525 -0.39095163 -0.38306719
-0.04170013 -0.03813553 0.22128733
-0.06219706 0.12424894 0.00724887
-0.33981854 -0.26087958 0.23240378
-0.38864356 -0.36973685 -0.18639973
0.24083048 0.85328722 0.09921975
-0.36980265 -0.48192769 -0.06552120
-0.18935388 -0.48888344 -0.03398274
0.39171308 0.37031153 0.18011898
0.25543243 0.85680753 0.10313514
0.16239248 0.18962067 -0.01267753
0.27167064 0.54443705 0.04649255
0.34695345 0.08743554 0.12107626
0.21186766 0.57965422 0.06546583
0.13496357 0.33486432 0.21448120
-0.30598092 0.01602120 -0.23114471
0.15771544 -0.48222888 -0.11724580
-0.18788289 -0.09869571 -0.27014661
0.22783250 0.63197821 0.31173077
0.28941846 0.03542447 0.09074131
-0.61297190 -0.34112516 -0.11131118
0.28463605 0.12673327 -0.18562457
0.04378210 -0.06174666 0.40066564
-0.11301100 0.04150388 0.21378873
-0.00462063 0.23053943 -0.05332419
0.32830831 -0.09719878 0.18930495
0.19552082 0.60046291 0.30311519
0.15278399 -0.33649591 -0.11492147
0.23640159 0.80214304 0.25550106
0.13863476 0.10982746 -0.24310625
-0.15341297 -0.32828611 -0.24521197
-0.03478776 -0.38216442 0.03855516
-0.00237122 0.04760759 0.40968981
0.14456435 0.30599883 -0.00542053
-0.56376439 -0.32615820 -0.20508058
-0.55735755 -0.57385015 -0.34457424
-0.32566667 -0.34860358 -0.27416518
0.02885197 0.18796782 -0.13648233
-0.26116642 -0.04041007 -0.26265174
0.03378724 0.04570064 0.19611816
0.13969594 0.08140653 -0.07715122
0.22604859 0.62644547 0.32444379
-0.61222839 -0.36776155 -0.28596905
0.44576207 -0.40431952 -0.44403127
0.14725365 -0.38874185 0.00610070
0.09639181 -0.00879903 0.31079200
0.16928887 -0.15992543 0.09285758
0.17210349 0.19269405 0.21519250
-0.38941836 -0.06905314 0.23494694
0.11551394 0.13117114 -0.21240799
-0.46860740 -0.32004490 0.07237672
-0.62448394 -0.46230304 -0.37231022
-0.48272827 -0.43201214 -0.22159816
0.21734995 -0.13911000 0.32877603
0.00706872 0.27054834 -0.11061422
-0.45591441 -0.14135706 -0.20940548
0.25002635 0.48951751 0.01050137
0.15923162 0.70661765 0.35511538
0.13798952 0.12428596 -0.23729202
-0.51703280 -0.42783850 -0.21661142
-0.25892371 -0.49102360 0.07078302
0.18683422 -0.33689114 -0.08870272
0.12781741 -0.15906304 -0.31773368
0.44445321 -0.29527617 -0.39497066
0.20827332 -0.09324813 0.08797921
-0.52598715 -0.10424979 0.00778893
0.15060672 0.85839987 0.30426413
0.28627992 0.16572519 -0.12618592
0.26618123 0.59912682 0.26376483
-0.06209762 -0.23282003 0.19302262
0.22334400 -0.05087969 0.33088231
0.07029691 0.11457525 0.24876663
0.17917448 0.22302236 -0.14063746
0.05051143 0.22389324 -0.05060623
-0.47330323 -0.35410246 -0.15501350
0.13219415 -0.62268180 -0.13928047
0.19245663 0.17331295 -0.09370539
-0.38298464 -0.30848709 0.19581595
-0.00073583 -0.33448181 -0.13693573
0.25794986 -0.09842467 -0.03301751
-0.28984267 -0.33288667 0.22110085
0.32658589 0.38807547 0.02061111
-0.10988493 -0.42220581 0.11494030
-0.11277325 0.24960154 -0.06199966
-0.08807624 -0.22440857 -0.27121645
0.15351884 0.16312350 0.24346873
