-0.49212918 -0.35494590 -0.02411471
0.36620587 -0.17156734 -0.50387430
0.27764338 0.73829412 -0.14901485
-0.31240815 -0.10411628 0.19937758
0.40868685 0.01231174 -0.42098424
0.04754090 0.53563094 -0.17206752
0.17077258 -0.08007731 -0.12160711
0.50695658 -0.13924541 -0.09024388
0.24448490 0.14255962 -0.22673824
-0.41359049 0.14082056 0.38540623
0.18356483 -0.18971138 0.50951552
0.03993761 0.47228491 -0.41272771
-0.58256447 -0.02388512 0.16498983
0.12072252 0.59913164 -0.32972959
0.13577138 -0.23269774 0.62827539
0.05325859 0.72943681 -0.36217344
0.13586634 -0.16472726 0.61798829
0.24808025 0.63247293 -0.21742529
0.05039901 0.77963358 -0.32300457
-0.44623387 -0.15788542 0.34220919
0.14656712 0.06076518 -0.14292023
-0.45856407 -0.13202094 0.45479342
-0.48525763 0.21123350 0.47663400
-0.27490067 -0.23358817 0.12704371
-0.00137077 -0.34145635 0.60573488
-0.22557288 -0.26337993 0.47871068
-0.51685554 -0.26318789 -0.06664968
0.09115690 -0.02085845 0.43222317
-0.18508482 0.23824582 0.26575309
-0.04659257 -0.04948686 0.09958331
0.32510459 0.20159809 -0.33031300
0.15591086 -0.20294003 0.41287544
0.15486403 0.35191989 -0.32662934
0.33049789 0.23021616 -0.53206408
0.09639058 0.09887195 -0.20284915
0.27284673 0.49953783 -0.21724799
0.19869095 -0.25605631 0.14334992
0.37435454 0.42211026 -0.43804330
-0.21421452 -0.24647094 0.57688248
0.28906190 0.43499640 -0.48403251
-0.30622673 -0.15921350 0.05198048
-0.40650564 -0.21814652 0.48820317
0.38409635 -0.07652868 -0.10648112
-0.14327365 0.25733468 0.23349798
-0.11740734 -0.32177871 0.36057866
-0.25367630 -0.31047612 -0.24351314
-0.36471006 0.21752682 0.52142334
-0.16885747 0.30158848 0.28287423
0.18171521 0.42030603 -0.17198354
-0.18354918 -0.24264874 0.12708084
0.29112303 -0.01548538 -0.47033179
0.23387748 0.44725740 -0.22839174
-0.46774527 0.14996095 0.55481136
-0.03693850 -0.08352037 -0.26437241
-0.02347567 0.67648405 -0.43039796
-0.36172986 0.09110506 0.53498983
0.27006367 -0.32162821 0.18457660
-0.02051961 0.47149503 0.04730923
-0.35700566 -0.10384874 0.32375714
0.50184238 -0.22384219 0.17798612
-0.02841710 -0.02762371 0.35065010
-0.00747362 0.71846968 -0.38532531
0.31048608 0.51305717 -0.18849848
0.25268567 0.40544230 -0.45911974
-0.06478991 0.48569274 -0.46501482
-0.34765762 0.38609368 0.39427072
-0.29200590 -0.27668214 0.20318319
-0.08750218 -0.08410777 -0.25158769
-0.10573559 0.46669453 0.05576143
-0.62854326 -0.06613071 0.19190913
-0.53370190 -0.01333611 0.19387506
0.01939276 0.02949230 0.51059043
-0.27951744 -0.16438197 0.21607283
-0.66305941 -0.08920337 0.13730019
0.22778818 -0.31978178 -0.18537255
-0.56552988 -0.06168993 0.00276130
-0.16372834 -0.11638440 0.29530108
0.18374778 -0.28277606 -0.30316779
-0.13678867 -0.02264774 0.60198480
-0.05088592 0.42112279 -0.07725097
-0.52220434 -0.03620817 0.25546578
-0.12179095 -0.09610201 -0.47815186
0.04789049 -0.43937457 -0.38903844
-0.14087889 -0.01116946 0.41871563
-0.06404386 -0.46482182 -0.27060965
0.06850250 0.28682846 -0.21856868
0.35462001 0.27175486 -0.56386238
-0.13672498 -0.15108643 0.28764552
0.16027410 0.76872122 -0.24209371
0.37207416 -0.02653924 -0.57055175
-0.09475535 0.50240648 -0.49948514
0.01600132 -0.14512937 -0.13753289
0.39911938 -0.33044863 -0.17509842
-0.48511565 0.09877209 0.47602344
0.38638523 -0.10419799 -0.57415235
-0.17763366 -0.27809292 0.61669439
-0.07439207 -0.32976741 0.35479107
-0.03306030 -0.21945976 0.70187491
-0.49775353 0.00037821 0.09771216
0.24550706 -0.11439820 -0.20913970
0.27767938 -0.43932062 0.02524600
-0.59039986 -0.27596116 0.31055114
0.27043784 0.00971319 -0.44662705
-0.08087625 -0.11307169 0.20855305
0.13339704 -0.26678681 0.57811230
-0.45821857 -0.01831014 0.04875443
-0.17622316 -0.16057222 -0.51542902
0.16321750 -0.20195256 0.00661040
-0.16340984 0.80819070 -0.50749046
0.02834111 -0.06521274 0.33517048
-0.62751687 -0.15872626 0.28672883
0.05489978 -0.33084637 -0.19067951
-0.45384043 -0.16692840 0.46536162
0.37441248 0.73552853 -0.07877603
-0.12674056 0.73993093 -0.50818527
-0.04766614 -0.10550238 -0.05091439
-0.00886517 -0.21502472 0.29648364
-0.39517248 -0.23492400 -0.05476974
-0.18083987 0.26298973 0.13973153
-0.45633534 0.04532230 0.57952231
0.27501336 -0.05465697 0.00984465
0.56327981 -0.23604725 0.09348883
0.05139159 -0.29267401 0.03931208
-0.48397610 -0.42397439 0.14565703
-0.09489740 -0.36708581 0.44294891
-0.21498708 0.31345138 0.12654001
-0.44766009 -0.26633400 0.34349716
0.35218304 0.40642536 -0.49882156
0.10595307 -0.19147973 -0.28075257
-0.09676045 -0.20026167 0.69974583
0.06930542 -0.35829395 -0.08124745
-0.11692594 -0.20810904 0.04046349
0.11465386 0.69093132 -0.32428047
-0.14229394 0.43886083 0.04017746
0.16076271 0.71249634 -0.25266191
-0.03097482 -0.00943862 -0.02993362
0.12685278 0.69697392 -0.27382424
0.51544493 -0.34360307 -0.08763246
-0.27864924 -0.32281893 -0.28757164
-0.25169414 -0.32474262 0.26597691
0.05102690 -0.18044315 -0.19432388
0.29380000 -0.03021492 -0.37659004
0.52057642 -0.12109165 0.08099657
-0.17190306 0.68625176 -0.54561830
-0.18492199 -0.18922101 0.64061385
0.12462024 -0.28172559 -0.34736538
-0.08775358 -0.30864865 0.13936943
0.19533923 0.66799319 -0.25841495
-0.42086235 -0.10053642 0.30517018
0.52855670 -0.23030500 -0.11868587
0.45505840 -0.40527034 0.11859910
-0.19571131 -0.30636078 0.46416739
-0.40827224 0.08079603 0.57820678
-0.31757596 -0.01451404 0.48242146
0.39821118 0.37121698 -0.48817623
-0.21792366 -0.37205464 -0.23397559
-0.54269713 -0.41833806 0.11612518
-0.66606343 -0.15860756 0.25558907
-0.10494730 -0.06467785 -0.42262214
0.52572215 -0.37346995 0.07401859
0.37665340 -0.12875082 -0.40052503
0.09594691 0.42226428 -0.26390716
-0.31311488 -0.05916922 0.47759804
0.51159781 -0.39167637 0.00002354
-0.69522560 -0.22827573 0.07641836
0.47529835 -0.22296701 -0.16175891
-0.17013177 -0.30964285 0.13606775
-0.58089370 -0.04612221 0.23225346
-0.68031663 -0.30282587 0.18300246
-0.63380343 -0.25232995 -0.00091433
-0.14574869 0.37565008 0.04290805
0.49130428 -0.31041944 -0.13285154
-0.49148336 -0.39321858 0.02146360
-0.15074638 -0.21961586 -0.16064419
0.15099238 -0.26768231 -0.02112383
0.20342010 -0.32531673 -0.12383913
0.25179020 -0.29013371 -0.22780457
-0.02591266 0.03366500 0.47460401
0.10097539 0.49875546 -0.32238832
-0.08522182 -0.23589931 0.21215077
0.13832387 -0.00027242 -0.29559156
0.27348444 0.54659438 -0.34400830
-0.24257185 -0.34342575 -0.47064018
0.03135875 0.30219340 -0.14977099
0.11783038 0.24220309 -0.30016053
-0.24584304 -0.14594360 -0.42094386
0.17906472 0.22382145 -0.35435840
0.22313261 0.41355205 -0.22437528
-0.13573723 -0.30561519 0.25402772
-0.03072982 -0.22381981 -0.06367191
0.34359992 0.71895748 -0.13167727
0.10060287 -0.26210701 0.63996869
0.30693901 -0.23930673 -0.18725467
0.12635744 -0.30143672 0.46198773
0.06926492 -0.07625584 -0.19801420
0.44560599 -0.27943265 -0.17158630
0.13945051 -0.03096266 -0.28094506
-0.68459994 -0.27043867 0.07231627
0.07486795 -0.11922659 0.33249095
0.39072350 0.03590578 -0.39950502
-0.09044649 -0.25947428 0.67430711
0.10867266 0.46997523 -0.34052613
0.11216074 -0.21483175 -0.39998335
0.01541691 -0.02946295 0.05689473
-0.14313117 -0.21977584 0.67125297
0.02187324 -0.12845175 -0.47612131
-0.22628005 0.41466713 0.28284121
0.40130410 -0.15924709 -0.16886617
-0.62121350 -0.28754663 0.28191313
-0.33541846 0.30618450 0.48118013
0.27431437 0.29949576 -0.27125770
0.47868043 0.08204436 -0.60019457
0.32421950 0.40804410 -0.33941609
-0.42586556 -0.27785170 -0.06042263
-0.33636019 0.11815625 0.49598184
-0.56081188 -0.31586027 -0.03093448
0.45152402 -0.08184801 -0.60320938
0.18931378 0.00913876 -0.32329515
0.21371260 0.19558440 -0.39267105
0.05115686 0.42697054 -0.01038261
-0.10552832 -0.15736903 0.30346355
0.06177852 -0.01594074 -0.19382650
-0.21011455 -0.15820856 -0.22026101
-0.03224062 0.00440848 0.60901666
0.43866485 0.01997510 -0.62471187
0.41977438 -0.22834347 -0.19175018
0.34452000 0.61009532 -0.11542377
0.21545345 -0.38157904 0.06306506
0.47394109 -0.28364110 0.19845241
0.43750262 -0.43757463 -0.02895835
0.08673669 -0.16977008 -0.24696612
-0.01183335 -0.32263625 0.63717449
-0.50046033 0.07735437 0.50247556
0.07867624 0.29350385 -0.10415813
-0.48362732 0.16826278 0.46850288
0.27424613 0.50967222 -0.41755635
-0.21921745 0.34746152 0.12969878
0.35050407 0.42749327 -0.46814460
-0.28517964 -0.32000947 -0.41384205
0.55051607 -0.34742051 0.03971770
-0.15495461 -0.09429331 -0.26322162
-0.67267025 -0.12682556 0.07359041
0.14072521 -0.14643373 -0.28127715
-0.02444891 0.38408351 -0.11323014
-0.47237438 -0.12576850 0.33221316
-0.06799244 -0.41541171 -0.50637537
0.28179947 0.63768077 -0.16271673
0.39380956 0.68186945 -0.09612083
-0.13933855 -0.47682780 -0.36349148
-0.41883314 0.34517425 0.41608235
0.43950745 0.28556964 -0.52384245
0.15680435 0.57374805 -0.33358452
0.36171761 0.55485642 -0.13815923
0.22382203 -0.40257013 -0.00527125
0.08412142 0.78582805 -0.29822817
-0.00439589 -0.10948958 0.10745469
-0.32186756 0.11004567 0.43459040
-0.01023483 -0.33533317 -0.02249113
-0.31636268 0.21142395 0.47037721
0.22511193 -0.18706883 -0.15645929
-0.48156741 -0.41933072 0.18972711
-0.02242319 -0.06835224 0.32037362
0.36336929 -0.25906283 0.23951389
0.03387886 0.32409763 -0.17863983
-0.28767857 0.41544199 0.31760386
-0.21195255 -0.07695313 0.15338673
-0.06967091 -0.15969579 -0.53574228
-0.39516023 0.04319127 0.57413900
-0.43688667 0.15615876 0.41285440
0.08227274 0.31855315 -0.23936093
0.14761026 -0.23756807 0.59816641
-0.16706488 -0.06858821 0.61829060
0.33767834 0.51330245 -0.13815889
0.07128158 -0.32733279 0.41127005
0.47799677 -0.08049487 -0.05687768
-0.12623543 0.43466932 0.01000061
0.06092467 0.56701952 -0.35516280
-0.36352798 -0.13582508 -0.01570434
-0.01968042 -0.15594195 -0.08063827
-0.11575040 0.78998476 -0.46256238
-0.16570599 -0.04269378 0.15929395
0.22574365 -0.14556469 -0.29920697
-0.04277141 0.26492757 0.05616611
0.15880255 -0.23335434 -0.29302257
-0.47058919 -0.12841673 -0.05463465
0.02197711 0.43688160 -0.43069059
-0.40119365 -0.23933898 0.40656975
-0.58378601 -0.40896618 0.11386234
-0.08895405 -0.25415677 0.01275190
0.20125392 -0.38408977 0.01288674
-0.05055013 -0.26678091 -0.14643830
-0.06723048 -0.05156051 0.12923388
0.04226165 0.51868927 -0.40285990
0.47786462 -0.36419886 -0.11224955
-0.31129140 -0.30939394 0.21112755
0.05516136 0.52024102 -0.20097470
-0.34593040 0.18507247 0.50378621
0.25243390 0.54982764 -0.20200080
0.04869530 -0.28942800 0.34994274
0.15700483 0.46250373 -0.33537436
-0.34040794 0.20530674 0.33317059
-0.02111747 0.46788639 -0.43575656
-0.55199975 -0.02930352 0.23094931
0.35431966 0.64827752 -0.09796806
-0.09448916 -0.31992358 -0.56183511
0.05545116 -0.37466341 -0.23314726
-0.29177272 -0.25624037 -0.38829091
-0.32021785 0.13990265 0.47237614
0.25177178 0.17699936 -0.43782488
-0.43954971 -0.37024152 0.27106923
-0.49472943 -0.19496097 -0.07319918
0.44290039 -0.42427039 0.08385408
-0.04795354 -0.39012539 -0.52480799
-0.29069269 -0.11929809 0.23448509
0.18927972 -0.14697219 -0.12684999
-0.27136886 0.41473675 0.28936106
-0.28315115 -0.14940380 0.16257074
-0.14567150 0.76841968 -0.47903943
-0.03051861 -0.26344818 0.30086744
0.07942998 0.46634161 -0.04180540
-0.16000843 -0.04112326 0.21232423
-0.36421207 -0.23965849 0.34705317
-0.26601571 0.26769975 0.40833551
-0.48576611 -0.41864884 0.08061047
0.17429067 -0.18840112 -0.09726641
0.00937428 0.40371233 0.04944824
0.29533222 0.48764831 -0.31552860
-0.18140996 -0.30658060 -0.17242974
-0.39402884 -0.39536959 0.20924698
0.02149806 -0.25960690 -0.13926958
-0.19688886 0.78172189 -0.54198480
0.31340152 -0.02623454 -0.49810463
-0.36196327 -0.03858690 0.18278338
-0.05964361 -0.25778604 -0.02183460
0.32038388 0.04994439 -0.30376044
0.43690258 -0.38745809 -0.12368099
0.01057437 -0.35323900 0.40701902
0.13531405 0.52257168 -0.33393621
0.06711985 -0.14619957 -0.43522191
0.06457968 -0.11269413 -0.36741030
-0.03998308 -0.27173096 -0.56295300
0.16006137 -0.29519379 0.04929316
-0.10575904 -0.40697503 -0.19127905
0.14692228 0.07513936 -0.30415669
0.00197213 -0.37704682 0.56554258
0.24420002 0.00788984 -0.36438614
-0.16225480 -0.42468637 -0.48134047
-0.20390823 0.27427429 0.32490093
0.28193423 0.19753629 -0.27841055
0.03516526 0.81428009 -0.36095476
-0.41457665 -0.03909539 0.04015930
0.11689737 0.72635782 -0.31806356
-0.59769541 -0.21003924 0.31436804
-0.42428961 0.00097327 0.58802640
0.46242082 0.08352087 -0.48380107
-0.19019367 0.36385274 0.09328757
0.13279304 0.41084868 -0.30647355
0.46798038 0.02018118 -0.61163402
0.03663301 0.39561278 0.00708807
0.38887933 -0.45405036 -0.07123418
-0.25062656 -0.19438349 0.48406973
0.43893021 -0.07074712 0.11269370
-0.59356439 -0.38296705 0.06560817
0.45893371 0.85135019 -0.01446468
0.45663995 0.00854237 -0.47291428
0.42819843 -0.13639884 -0.42132992
0.31441504 -0.17546205 -0.17511031
-0.51304841 -0.37812763 0.00285921
-0.04443672 0.01998307 0.39936474
0.09130405 0.57624710 -0.32388055
0.06415350 0.34313941 -0.02238357
0.14081380 0.85130554 -0.26328695
-0.27597851 -0.19757275 -0.40310222
0.46209556 0.76227295 -0.00238796
-0.52179331 -0.10686122 0.31507772
-0.26508254 -0.13512181 0.20639792
-0.00430999 -0.44798672 -0.27659923
0.12515050 -0.20191602 0.36305812
0.56656921 -0.26999193 -0.01896530
0.02790557 -0.41965759 -0.44366854
0.31543264 -0.27454180 0.22202222
0.50634807 0.00478671 -0.56398183
0.44174320 0.74012184 -0.04921120
-0.23624146 0.23604986 0.29827929
0.48273438 -0.41912508 0.04094634
-0.58839273 -0.14481510 0.31924427
0.24469218 0.36047399 -0.24217978
-0.22586946 -0.12814899 0.38891369
-0.28569418 -0.19320162 0.06745143
-0.24928144 -0.23934712 0.19480883
-0.29892457 -0.31191558 0.31414235
-0.03698182 -0.06712951 -0.41624668
-0.11026523 -0.33891338 0.60373211
-0.04365756 0.55519563 -0.43615687
-0.05344707 -0.16361533 -0.03912400
0.05379605 -0.35755026 0.52217835
-0.36048409 -0.28361398 0.29983971
-0.60092819 -0.24128716 -0.03903192
0.24060059 -0.21989296 -0.18059660
-0.23750931 -0.20172523 0.54120874
0.29383191 0.35970777 -0.30218780
0.08711217 0.69133168 -0.34545517
0.10022686 -0.27281302 -0.00344984
-0.31524682 -0.25576907 0.02208556
0.25366625 -0.25345784 0.19927773
-0.06112749 0.46360099 0.08600195
-0.31413275 0.02836676 0.47019213
0.23315907 0.71450526 -0.19982888
-0.00627648 -0.22044982 0.11967240
0.06959511 -0.40725166 -0.40182185
0.38588876 0.26754898 -0.42035183
0.26127023 0.66422200 -0.20609659
-0.46050063 -0.30086738 -0.05223137
-0.14300898 -0.04749332 0.62087131
0.01963022 -0.24739720 0.08100018
-0.19158529 -0.31722486 0.27876601
0.28869474 -0.12605159 0.16236040
0.20667985 -0.15856238 -0.09837876
-0.07414004 -0.19966702 -0.01200776
0.14386316 0.80439103 -0.24787053
-0.03207820 -0.19735251 0.14492624
0.03153253 0.46040463 -0.18525983
-0.24100280 -0.24172644 0.39341280
0.23827907 -0.33939159 -0.13681683
-0.34627014 -0.11365934 0.26671451
0.03594596 -0.01430787 -0.07447270
0.25332102 0.44235945 -0.25735098
0.52196300 -0.33753943 0.12509528
0.14948852 0.65141124 -0.30124339
-0.02791329 0.67584145 -0.39898142
0.42869401 0.24771073 -0.45821345
0.00213702 -0.17889483 0.09488709
0.11918639 0.36596465 -0.29253289
0.36885160 0.02052934 -0.37348488
0.26387706 0.58307576 -0.19043747
0.42785203 0.50311106 -0.08034253
-0.15382352 0.33427879 0.05406704
0.10628480 0.35781774 -0.07070021
0.02380922 0.55194396 -0.38380107
0.11786501 -0.07827659 0.39438146
-0.30731305 0.17177598 0.43704870
-0.45330295 -0.03366356 0.57418627
0.10898449 0.53896958 -0.32675585
-0.27088386 -0.24920572 -0.25842085
-0.43519819 0.09039305 0.40936601
-0.02833725 -0.10014628 0.12952158
-0.64321184 -0.21585847 0.00238175
-0.03530124 0.42476439 0.09441506
0.11579125 -0.19396161 -0.35606226
-0.28919071 -0.28992409 -0.29277375
0.56242293 -0.22788040 -0.05542906
0.35504207 -0.42349452 -0.11128530
0.13878325 -0.22302304 -0.05454729
-0.10953312 0.37474191 0.18176329
0.15353213 -0.09119819 0.45214805
-0.14443287 0.66483206 -0.50086176
-0.69006956 -0.23670958 0.19197221
-0.38011795 -0.01019530 0.36132666
0.07725349 0.73350781 -0.34207702
0.05467621 0.50942987 -0.06196439
-0.20678672 -0.28176445 0.43240476
-0.05896083 -0.47425383 -0.31306654
0.27218488 0.26402718 -0.26885492
-0.55877030 -0.20109789 -0.06185185
0.00295376 -0.23773663 -0.15496245
0.30773756 -0.08595468 -0.48103714
0.12574427 0.02100317 -0.12060866
-0.44640106 0.25342077 0.51473367
-0.62345606 -0.07437487 0.04867908
0.10124522 0.07033937 -0.17146876
0.10239920 -0.17621829 -0.02764525
0.57210743 -0.20772828 -0.01254835
-0.57847518 -0.04098518 0.04173592
0.39950469 0.10149769 -0.60402805
-0.22062087 -0.11017148 -0.36434934
-0.35176995 -0.37306768 0.11878113
-0.00286948 -0.07784165 -0.30746418
-0.06644295 0.39841458 -0.06191876
0.09799263 -0.37138790 -0.12524335
0.32749236 -0.03907897 -0.01058208
-0.08949998 -0.09778447 0.30955806
-0.48541906 -0.26474416 -0.06677721
0.09867977 0.53364372 -0.27285129
0.22441456 0.56521410 -0.35778329
-0.61610162 -0.11228891 0.26955068
-0.19813238 -0.04320838 0.44905934
0.06298858 -0.11113276 0.67689031
0.38932782 0.18425691 -0.40704155
0.19635603 -0.18612583 0.12063566
0.47854525 -0.02353744 -0.60635722
0.16373061 -0.11372490 -0.10079738
-0.35948655 0.30314219 0.30479762
0.23597309 0.00885454 -0.31875604
0.23260245 -0.37251371 -0.09130751
0.05117990 0.01390159 0.52089208
-0.07607597 -0.06075101 -0.30843139
-0.51785380 -0.15908541 0.34555447
0.17689811 0.05352643 -0.14682381
-0.08488429 -0.00818847 0.61416245
0.38093954 0.58422959 -0.12286687
0.29297787 -0.18927483 0.20032938
-0.03370291 -0.37481046 0.50633258
-0.42759246 0.30533743 0.46543893
0.11152384 0.60887367 -0.29161045
0.18383093 -0.33761746 0.07608104
-0.02129405 -0.43382215 -0.47676283
-0.36435154 -0.07045867 0.23619963
0.10117231 -0.05508347 -0.03577802
0.18289386 0.16635959 -0.34946364
0.30831519 0.75707656 -0.12421949
-0.39872384 -0.19495396 -0.05431043
-0.11566227 -0.13707055 0.03424283
0.08647275 -0.10336672 -0.00626372
-0.34268153 0.39214391 0.29879412
-0.15662971 0.42717445 0.22618546
0.21861553 0.67273790 -0.23261082
-0.46038038 -0.39308161 0.02607135
-0.39202106 -0.33112431 0.29320526
-0.31873456 -0.10218899 0.28793198
-0.39882591 -0.17043190 0.53645676
-0.27482000 -0.20999368 -0.29524255
-0.13747291 -0.46697634 -0.42272621
-0.47697201 -0.11362086 0.50621438
0.09202020 0.06006867 -0.23666453
0.48750728 0.82166988 0.00189854
0.34274760 0.62249511 -0.14886709
0.08591901 0.22876681 -0.20326814
-0.18788588 -0.02699865 0.49093735
-0.35983047 0.32396609 0.49187869
0.32726735 0.02491620 -0.32987893
-0.04437231 0.59057432 -0.43340364
-0.32189772 0.38962340 0.27422583
-0.57235098 -0.39077562 0.21002519
0.34381852 -0.14170526 0.19783333
-0.46009284 0.05266896 0.44985777
-0.27192190 -0.19930016 0.17826594
0.00571112 0.50118011 -0.14092489
0.04854286 -0.00537886 0.41052499
-0.30068317 -0.25333643 0.46631905
-0.24356222 -0.17513181 -0.47649676
0.50585556 -0.40084052 0.02925143
0.07804784 -0.16745703 -0.28536320
-0.28090394 -0.24890618 -0.42672843
0.47185892 -0.13945000 -0.50620836
0.17888431 0.59354883 -0.32410392
0.06910986 -0.14066829 -0.19640909
0.21957332 0.46905065 -0.21138334
-0.13966745 -0.25887030 0.32339978
-0.22284038 0.34566116 0.33873311
-0.01856100 0.71719062 -0.41764012
-0.10147001 -0.03478843 0.07754183
-0.14776322 -0.25027221 -0.15629160
0.22063851 -0.09657572 0.02067737
0.00610016 0.36953548 -0.16112834
0.40469670 0.32351136 -0.43782705
0.15977645 -0.25861406 0.50457674
-0.13367613 -0.45278955 -0.45084631
0.03988700 -0.34042996 0.61073184
0.38894024 0.04431935 -0.59505147
-0.35290551 -0.22062118 -0.01986861
-0.18722479 -0.06442775 0.39709467
0.23178345 -0.39221358 -0.05823535
0.24448058 0.11540200 -0.42686149
-0.15916061 -0.44052041 -0.26825398
0.20163611 -0.12551181 -0.15028267
-0.31352338 -0.05144875 0.35126299
0.24662995 -0.28633493 -0.17006104
-0.58327442 -0.33123428 0.27962095
-0.28547683 -0.05112709 0.41802546
0.19761989 -0.14495973 -0.05425087
0.47375983 -0.41479230 0.07364175
-0.08434865 0.37895671 0.16302288
0.39365646 -0.45176238 0.02391644
-0.21112595 -0.34508348 -0.20460585
0.45138949 0.52747428 -0.07420138
-0.70145935 -0.21465789 0.10354958
0.28409302 0.19230974 -0.47152877
0.37256137 0.10388108 -0.57841372
-0.50003976 0.00102369 0.15305543
0.51463330 -0.13105176 0.10977919
0.18094674 0.49692142 -0.17469566
-0.17824769 0.28943273 0.08940496
-0.15638630 0.74814063 -0.52650952
0.18804823 0.41241413 -0.37539175
0.17371053 0.28147665 -0.15265208
-0.21781330 0.40716439 0.12878969
0.19214268 0.46625507 -0.38231370
-0.12020172 0.31500894 0.02346770
-0.26414907 0.24289508 0.37370282
0.09504418 -0.18039905 0.66793448
-0.17534903 -0.12597238 0.64411438
0.04878526 -0.12306245 -0.17223342
0.00824354 -0.45577633 -0.34944335
-0.12176832 -0.35124135 -0.16366033
-0.36023054 0.07547061 0.39778405
0.33150294 -0.08262880 -0.38380444
0.02778673 -0.03804767 0.35471100
-0.06350961 -0.05515225 -0.37979835
0.04497308 -0.42138046 -0.29033965
0.08710526 0.53310138 -0.36813498
-0.12550911 0.69913882 -0.48306781
-0.45443168 -0.08592843 -0.03492916
-0.25309026 -0.22902308 -0.23662275
0.24759096 0.01143977 -0.25748461
0.14144647 -0.37910724 -0.17700909
0.31374410 -0.37345791 0.16928105
0.00974046 0.64479846 -0.41697842
-0.13036022 -0.15147485 -0.52624506
0.43549564 0.05737795 -0.45321363
0.25932291 0.27078596 -0.45675862
0.36124349 0.83491421 -0.09185860
-0.36729968 -0.20025648 0.52282846
0.40487698 0.06326129 -0.61971593
-0.11229777 -0.11048515 0.24240771
0.19849625 0.45809329 -0.18584548
0.22823653 0.30172697 -0.41599393
-0.08006956 -0.13271390 -0.00336586
-0.02831670 0.36344528 0.09832872
-0.07080124 0.69381559 -0.43209654
0.22151232 0.26877940 -0.20293707
-0.45634940 -0.13942631 0.52520382
0.23315871 -0.05364485 -0.25685930
0.55544931 -0.17820700 0.09249163
-0.38129774 -0.31390518 -0.01459526
0.01997085 0.71500707 -0.39872369
0.29021758 0.16365606 -0.29039666
-0.09618704 -0.21708672 -0.14722171
0.34688067 0.19445758 -0.35500506
0.49714720 -0.10654826 -0.51709187
-0.07503449 -0.45760423 -0.46622568
-0.39032176 0.13639668 0.56255674
0.17246936 0.11423101 -0.33075929
-0.05379662 0.51236427 -0.45388842
0.41066754 -0.09188752 -0.11797771
0.45507890 0.62704825 -0.02970120
-0.10040770 -0.35902262 0.41166365
-0.43965003 -0.06672283 0.42939743
-0.05171637 -0.43502539 -0.48030847
-0.21849656 -0.39613813 -0.45554054
-0.13530239 0.00919771 0.52280700
0.16803169 -0.17177634 0.57008761
0.17187068 -0.32556516 0.00309114
0.22358355 0.21381681 -0.21955532
0.17533518 -0.32508755 -0.06576046
0.06773036 0.60087329 -0.33539864
0.27458921 -0.10575996 -0.12366551
0.09111595 0.21854451 -0.24045768
0.06002299 0.46673912 -0.21152708
-0.29951578 -0.11032178 0.46533310
-0.45482838 0.17626388 0.42731991
0.03805653 -0.23300610 0.05713268
0.30458620 0.58276874 -0.15442353
-0.68865287 -0.19222672 0.20634370
0.52218860 -0.16538464 -0.09977137
-0.53822690 -0.27506286 0.34253958
-0.22200236 0.21981964 0.23501171
-0.48506936 0.12079034 0.54945987
0.29508749 0.38890553 -0.51087260
0.00061843 -0.32849491 -0.11861292
-0.21342564 -0.34970379 -0.49881738
-0.40999335 0.26327074 0.53173614
0.39416981 0.21282248 -0.59334636
-0.40834659 -0.14588837 0.33081153
-0.70381767 -0.17199577 0.11403807
-0.21456289 -0.21769185 0.16102393
-0.65486914 -0.09194709 0.18135861
0.08664098 0.49755472 -0.37565762
-0.41209367 0.20067635 0.38147336
-0.39603689 -0.37051231 0.24897614
-0.28880572 0.21414791 0.41642070
0.00547362 0.52394402 -0.43038338
-0.02387911 -0.11645667 0.70042175
-0.39798775 -0.09736864 0.37671769
0.54265183 -0.19002716 -0.08264922
0.38067305 -0.44603604 0.08664155
-0.67093825 -0.30337185 0.07677883
0.38632551 0.53821862 -0.12829928
-0.07962099 -0.37993371 0.50220513
-0.62366331 -0.18710117 -0.02353162
0.15954721 -0.29524481 -0.03076135
-0.02870321 -0.31869698 0.07252441
-0.31228232 -0.19328244 0.49875370
0.55574757 -0.15119509 -0.00228220
-0.45982045 0.00028992 0.15636835
0.06943935 -0.18898363 0.02104009
0.50515556 -0.03769346 -0.55798095
-0.30671486 -0.28299928 0.27300537
0.12321055 -0.18011360 -0.31405306
0.10728705 0.48509514 -0.07344355
0.19588360 -0.05351682 -0.14734516
0.32072726 0.47222584 -0.44171029
-0.15060426 0.44922167 0.09920926
-0.18322118 0.42526400 0.26376414
0.53948742 -0.21719079 0.13185330
0.32509464 0.31595480 -0.34095496
0.43980134 -0.04557729 -0.44797075
0.28242084 -0.37853831 -0.13564041
0.47400177 -0.39629567 -0.07055437
0.26501018 -0.41766244 -0.04953737
-0.24040298 -0.27343541 0.40098503
-0.18810317 -0.12714605 0.11289189
0.00758559 -0.29963875 0.06730361
0.31455415 0.72626275 -0.12284957
-0.23014984 -0.17450283 0.57637930
0.30107683 -0.07119761 0.11325068
0.22199592 -0.37353033 0.10746653
0.46649230 -0.33112836 -0.13998514
0.30846873 -0.23516090 0.22345015
-0.27998215 -0.33318341 -0.33192083
0.32060131 -0.36552405 -0.15308274
0.18890120 0.52302057 -0.37647125
0.18499783 -0.14786638 0.03334025
-0.52077842 -0.03334218 0.02167355
-0.65883553 -0.32734370 0.19709086
-0.19598171 -0.30259788 0.55748421
-0.54972243 -0.42515254 0.16634741
0.04483490 -0.35638762 -0.13383602
-0.25021678 0.24469122 0.34560329
-0.01552692 -0.46335071 -0.32544613
0.28139561 -0.00615790 -0.35789722
0.57000363 -0.28605497 0.04012962
0.38605559 -0.38408637 -0.14917731
0.06889707 -0.28188932 -0.49902308
-0.61948723 -0.04446639 0.09239762
-0.04261275 -0.47533715 -0.37367627
0.35054669 0.66787374 -0.13671353
0.05769903 0.47566617 -0.37186950
-0.09924575 -0.05099244 0.13103476
-0.21333699 -0.09068681 0.38763893
0.03180028 -0.20413040 -0.51688081
-0.65554041 -0.34724593 0.11816540
-0.47143599 0.12293705 0.45310506
-0.00450015 0.62196982 -0.40170890
0.24177584 -0.00679484 -0.22558242
0.23681217 -0.40843076 0.05672089
0.17281510 -0.15033738 0.45013326
0.53665942 -0.33626521 0.09686156
-0.56498945 -0.31782019 0.30510440
0.31194240 -0.10717921 -0.13033073
0.31126270 0.64838761 -0.15074876
0.44830167 -0.13294618 -0.13716035
0.15362683 0.38998914 -0.12515987
0.35640839 0.68044364 -0.09794769
0.42042178 -0.40932620 0.14093566
-0.29463696 0.32961613 0.41823521
0.55276781 -0.31354499 -0.05467800
-0.14485376 0.32876721 0.24799018
-0.51170647 -0.11466573 -0.05157702
0.42319098 -0.05453072 -0.05817039
0.22762299 -0.27371347 -0.28416124
-0.03730990 0.64885110 -0.44537774
0.16475140 0.49549651 -0.34645194
0.57283604 -0.19569580 0.02824026
-0.11626315 0.28928715 0.20981789
-0.61139375 -0.33064437 -0.00306038
-0.27805150 -0.22715966 0.09659343
-0.14359075 -0.15970956 -0.18255241
-0.01672230 -0.17438148 -0.53081131
0.03596336 -0.36142790 -0.09820415
0.08427605 0.00239456 -0.09572211
-0.09803070 0.27681184 -0.00505829
-0.14656515 -0.11422457 -0.49017423
-0.06034613 0.64322704 -0.46754950
-0.10567230 -0.16693251 -0.17423463
0.12067696 0.57453495 -0.24924505
0.24935207 0.17892939 -0.23545435
-0.26720583 0.39227983 0.19302678
-0.15162718 -0.30439419 0.28844792
-0.12782601 -0.19801100 -0.15636046
0.39060846 0.63122863 -0.07035863
0.25476861 -0.39222616 0.11735085
-0.01681572 0.28143242 0.04069059
-0.36715093 0.36909309 0.41343471
-0.64763796 -0.31627953 0.24118750
-0.21424504 -0.14824723 -0.47576952
-0.31556788 -0.16547634 0.02044877
0.51808530 -0.10487665 -0.01743147
0.32773587 0.44587034 -0.46156049
-0.00806915 -0.02484393 -0.08179557
-0.43284759 -0.21597426 0.45442280
0.32947403 0.14097401 -0.33378276
-0.50618470 -0.07346417 -0.02845990
0.16642211 0.59256613 -0.26436004
0.42268631 0.30271953 -0.45651346
0.52233076 -0.25851285 -0.12843616
0.32205081 -0.07031541 -0.09134930
-0.08577727 -0.35483700 0.58593988
0.15273689 -0.32291549 -0.25692040
0.40505081 0.57345462 -0.07290973
0.48033398 -0.11095189 0.13018277
0.28285739 0.61787778 -0.19568388
-0.35164928 -0.25547349 0.30779833
-0.18727580 -0.29408199 0.34917346
-0.66252327 -0.26788050 0.02659944
-0.30515942 0.39759424 0.37786198
-0.28175402 -0.16923626 0.12116764
-0.29802454 0.21233116 0.35345998
0.07230899 -0.35837072 -0.45738149
-0.22162551 -0.27384418 -0.50687504
-0.63480413 -0.15542676 -0.00779055
-0.53704047 -0.21645872 0.34691674
-0.09524561 -0.30945760 0.07739747
0.09093001 0.40634876 -0.05376632
0.34941000 -0.04604702 0.06607588
0.22371829 0.44050449 -0.42409596
-0.04107959 0.70752317 -0.44316608
0.10766207 -0.33887959 -0.31685361
-0.14487356 -0.33785951 -0.54960674
-0.68514884 -0.15349661 0.19797263
-0.45061308 -0.41279268 0.19128926
0.14569558 0.31994534 -0.32060263
0.43074125 -0.09815376 -0.41639841
-0.17015651 -0.19151144 0.09662040
-0.23208441 -0.09087820 0.48375675
0.24186176 -0.08516036 -0.03592775
0.40114579 -0.15642948 -0.47341746
0.57193422 -0.22544591 0.05857420
0.40345579 0.54535264 -0.08708127
0.11625056 0.12641597 -0.17315577
0.12195577 -0.24901988 -0.30218479
0.41079262 0.79518467 -0.03498749
0.03439967 -0.31163269 0.36374065
0.31804690 0.11094835 -0.31370258
0.04359256 0.45393658 0.00730178
-0.06233934 -0.30342805 -0.56036508
-0.22387542 -0.10226332 0.16361836
0.11846030 -0.29944450 -0.39899865
0.34131151 0.47994787 -0.14356498
0.07514116 -0.21062176 -0.47948766
-0.01390476 -0.27385503 -0.08351032
-0.37775263 0.37331542 0.34488449
0.16182588 0.56528831 -0.20156080
0.11063667 -0.08885713 0.63493454
-0.36621681 -0.06837870 0.33168074
0.42986208 0.84911007 -0.02032766
0.02663490 -0.11345910 0.31355679
-0.01997108 -0.10011710 0.30358371
-0.24268915 -0.37212735 -0.26506785
0.37779266 -0.44405478 -0.04413673
-0.00791847 -0.18657993 -0.18156607
-0.43393293 0.27279270 0.39491108
-0.09192771 0.02462479 0.50142872
0.33079651 -0.45617872 0.02467892
0.27381441 -0.05451207 -0.03904726
-0.21228711 -0.31141245 0.30962905
-0.21089470 -0.21979915 0.59849864
0.07917334 -0.16250379 0.01070293
0.10151164 -0.11575340 -0.02863926
0.14345635 0.16273457 -0.30603373
-0.59890825 -0.04485178 0.20811020
-0.04612759 -0.35263109 0.59223819
-0.16878530 0.38550121 0.26783293
0.22044852 0.09181258 -0.39306170
0.09607381 -0.36484313 -0.09642768
0.15715969 0.31144506 -0.13320443
0.26351517 0.12952696 -0.25196773
-0.09368391 -0.22213276 0.01431813
0.02880462 0.52237195 -0.14170144
0.32011861 -0.10712786 -0.42726177
-0.14087978 -0.41146332 -0.50684798
-0.08816198 -0.13787855 -0.52160394
-0.08893119 -0.47761947 -0.32691982
0.33588946 0.27057409 -0.34719446
0.48545903 -0.08407436 0.07979079
-0.46991038 0.06981130 0.57004452
0.53975803 -0.28743154 0.13073815
-0.39938194 0.36004987 0.38362846
0.43918431 -0.04691641 0.02438299
0.46407372 -0.03327711 -0.47897589
0.33702695 -0.32878506 -0.17619492
-0.19414595 -0.11996026 0.62088829
-0.40344280 0.28512156 0.34884086
-0.16850668 -0.28482187 0.32276961
0.12677783 -0.24522589 -0.39265120
-0.36178243 0.15649250 0.52445215
0.09973523 -0.26021308 0.36392727
-0.24800602 0.36553037 0.16070254
-0.10049805 0.45246750 0.11440101
0.04053293 0.28848237 -0.11413155
-0.03689100 -0.34119409 -0.54769874
-0.18733360 -0.06065468 0.57823485
0.17950532 -0.36510909 -0.15772362
-0.23861688 -0.24711685 -0.21373776
-0.50293875 0.14905785 0.49669287
-0.19394186 -0.26935875 0.14219233
0.21688020 0.10529525 -0.19618402
-0.12449568 -0.12432255 -0.21014574
0.42149130 0.67853546 -0.03789182
-0.02900269 -0.45826393 -0.42988151
-0.06092234 -0.28955710 -0.01783471
0.01111529 0.34006989 0.05089507
0.12085517 -0.26218057 -0.03884531
-0.00653367 0.48494041 -0.40947059
0.45979553 -0.43793333 0.02401803
-0.13048476 -0.23876996 0.05761415
-0.11835306 -0.26120901 -0.14549598
0.09484857 -0.30134088 0.00113393
0.22444409 -0.34388930 0.14161614
-0.35693091 -0.34954166 0.23526250
0.23339042 0.59943473 -0.23379111
-0.10977335 0.63537621 -0.48104632
-0.01940279 0.49691808 -0.09892897
0.41109258 -0.07436071 0.12126306
-0.49872097 -0.41208750 0.21324863
0.25610256 -0.20409681 -0.20888299
-0.19603404 -0.33209091 -0.52552593
0.53825527 -0.18401225 0.12014574
0.10375251 -0.32775360 -0.42285588
0.44198614 -0.13829996 -0.45529628
-0.30149254 0.27636117 0.43910745
-0.37817258 0.02698553 0.55660230
0.02742177 -0.32260251 -0.14055911
-0.25818607 -0.17322417 0.42690584
0.11994341 0.50456131 -0.09496899
-0.69180602 -0.26811290 0.12520748
-0.24079022 -0.29364055 0.20760940
-0.15163296 -0.23076476 0.08375280
-0.17886233 -0.08831863 0.30521536
0.35119414 0.45390108 -0.40108904
-0.06339011 -0.04331580 -0.04093860
0.31393164 0.33326864 -0.51824677
0.23969084 0.26877841 -0.22933736
0.44779563 -0.37274617 0.16885419
-0.23255086 -0.08775787 0.30786118
-0.13474053 -0.40343255 -0.19923325
0.31688344 -0.12317543 -0.15476042
-0.38924089 -0.02255090 0.56738710
-0.53146875 -0.31796718 0.32048881
0.29333574 0.00132148 -0.33132118
-0.11385046 -0.03656870 0.36050427
0.21965474 0.81470221 -0.19127657
-0.22418290 -0.09426178 0.53831351
0.21369517 0.04358721 -0.37242192
-0.36072424 -0.18750210 -0.02742676
-0.41748846 -0.01842307 0.18754469
0.51513153 -0.31522763 -0.11309864
0.26803362 0.09053091 -0.24938765
-0.40458509 0.30056107 0.49993569
0.40425465 0.71309412 -0.04836112
0.30178109 0.41701788 -0.50310534
-0.65838879 -0.17057241 0.02139897
0.18565574 -0.35467577 -0.08170529
-0.04411980 -0.18301229 0.29198983
-0.31045365 -0.32830673 0.12346703
0.02993431 -0.06334268 -0.15819721
0.45550489 0.59821457 -0.03369667
0.34114981 -0.11529593 -0.52381188
0.36980438 -0.08853592 -0.55489582
0.34292054 -0.28886139 -0.19193609
-0.34196329 -0.05772044 0.17288405
0.27926072 -0.29748183 -0.17535441
0.29322830 0.58625329 -0.19370073
-0.08618574 0.31479734 -0.02329846
0.01824539 0.59750366 -0.41009864
-0.25089103 -0.18918155 0.19793648
-0.29597163 -0.28722382 -0.37879425
-0.25295782 0.33376953 0.17326909
0.02678633 -0.37637246 -0.20686966
-0.44105220 -0.40175807 0.22833622
0.34666687 -0.38033652 -0.14933132
0.08954215 0.25518146 -0.14978966
-0.00463884 -0.06997876 -0.38465327
-0.01657787 0.32622710 -0.09947677
-0.42047027 -0.01577736 0.39858633
-0.18350807 -0.34409553 -0.19030212
-0.68680578 -0.13848253 0.16548465
0.09583855 -0.33386600 0.51311207
0.01865077 -0.34917194 -0.04745983
0.46559554 0.21392427 -0.54907101
0.33761242 0.56818908 -0.14961076
0.19409129 0.34838668 -0.17899489
0.12969403 0.06251831 -0.28239748
-0.58358264 -0.39325786 0.17704622
0.08999944 -0.33151084 0.47341758
0.26824462 -0.09272905 -0.09582417
-0.09333196 -0.28942990 0.20942669
0.45312309 -0.26406735 0.20997594
0.27720299 0.50519890 -0.18843506
-0.15867707 -0.08006610 -0.42563936
0.02301366 -0.35694909 0.38111752
-0.50434554 0.02261980 0.52438998
-0.43996483 -0.20860751 0.34501764
0.50699067 -0.38732296 0.09115858
-0.47463062 -0.24868689 0.35416213
0.37587106 -0.05725704 -0.37416720
-0.43896532 0.11882413 0.58024448
0.37492794 -0.33838457 0.20996062
-0.17859083 0.66354686 -0.52903748
0.17563675 -0.22510190 -0.33119774
-0.21113113 -0.11466299 -0.28673100
-0.36831754 -0.10750498 0.28433311
0.13605087 -0.10507692 0.39051923
0.25634259 -0.16553403 -0.16782813
-0.21945018 -0.18883462 -0.20859769
0.19284973 0.58512151 -0.23905280
-0.08501646 -0.16903614 0.21498595
-0.28272831 -0.18812470 -0.33536679
-0.00289147 0.74939662 -0.37778899
-0.31445751 0.32499611 0.45809788
0.43720493 -0.42716682 -0.05670667
-0.05911623 -0.36252737 0.40507737
0.31436071 0.50571489 -0.36572793
-0.00844921 -0.41160727 -0.49329895
0.37829405 -0.17680769 0.21659477
-0.32068044 -0.33614165 0.17993279
-0.35125795 -0.35578740 0.06379717
-0.25628018 -0.13808988 -0.35921070
-0.16135991 0.25801501 0.16039513
0.07471944 -0.41055125 -0.32974562
-0.16105857 0.25011203 0.25516853
-0.04188534 -0.36844921 0.54822350
0.06822630 0.76105314 -0.34385347
0.30122408 0.06910861 -0.28742132
0.26300851 0.34537816 -0.45740938
-0.05744242 -0.30856180 0.00406184
0.08115508 0.02407025 -0.14405914
0.05179526 -0.07410826 0.03001879
-0.36891335 -0.28114247 0.39268339
0.04500181 0.57217735 -0.38146594
0.26404738 0.22875303 -0.25767115
0.05751405 0.34868228 -0.21088654
0.20631006 -0.34617168 -0.20576715
-0.02938896 -0.30575812 0.11619724
-0.35360232 0.12817886 0.51771718
-0.04777795 0.51058900 -0.48194557
0.15228927 -0.16959231 -0.08630885
-0.12284383 -0.08573283 0.66174185
-0.29136962 0.27123076 0.22978331
0.33261105 0.69373596 -0.14165826
-0.24543680 -0.08830847 0.39661342
-0.33522588 0.36088663 0.45276067
-0.08271808 0.44701964 -0.04124863
0.04971194 -0.10428272 -0.32253510
-0.19926174 -0.28415185 0.58419943
0.13388377 0.45006636 -0.11407162
0.06147885 0.69623971 -0.36461994
0.25899294 -0.21335258 -0.28547317
-0.00928982 -0.14331724 0.71099120
0.07492860 -0.36887789 -0.14211807
-0.18535390 -0.45191383 -0.31798121
0.15297206 -0.18002374 0.59704542
-0.06618623 -0.33770442 -0.14849548
-0.40852875 0.33107471 0.44895694
-0.06595525 -0.29581732 0.16221341
-0.13043179 0.33997458 0.22590534
-0.18344469 0.74063838 -0.52080733
-0.07419128 -0.03242405 0.04383711
0.22615939 0.15605293 -0.20114353
0.19044614 0.72825289 -0.22757679
-0.40134493 -0.29350263 -0.03866726
0.19138563 0.06386927 -0.35320714
0.20502377 -0.11428393 -0.03035291
0.35922232 0.27709725 -0.37136474
-0.31049320 -0.09556486 0.15568963
0.11413398 -0.02497625 0.53555328
-0.43492129 -0.06309332 0.57988226
0.38434657 0.48147058 -0.13553137
-0.23686248 0.43032777 0.22407487
0.10027984 -0.35864997 -0.40381503
0.04167296 -0.18309994 0.70175898
-0.03576557 0.40844283 -0.10199215
0.09297535 -0.32756835 0.57037657
-0.16338861 -0.01540904 0.43668166
-0.33881617 -0.23224591 0.49565789
0.24603280 -0.12255903 -0.27558467
-0.00710831 -0.29108441 -0.54591793
0.10044067 0.00012214 -0.24169782
0.26564229 0.69739205 -0.19559467
-0.33243847 -0.08192496 0.20490006
-0.23487793 -0.15810166 -0.26335993
-0.61982012 -0.37447250 0.16291714
0.39546016 0.84360683 -0.06307729
-0.32577738 0.00250630 0.39098871
-0.24617726 -0.12296794 0.43580699
-0.05478550 -0.23639767 0.29800528
0.11982603 -0.27038169 -0.40936002
-0.41007704 -0.13818417 0.54955333
-0.16711637 -0.01299548 0.53110421
0.56248271 -0.29912573 0.00023251
0.37364051 0.30388623 -0.57197338
-0.19015181 -0.03707589 0.18555842
0.48233122 0.68169397 -0.01912389
-0.08597445 -0.10484292 -0.00414798
0.05278211 -0.22965662 -0.50664675
-0.05595931 -0.01877689 0.35820058
-0.27824256 -0.30603653 0.37524033
-0.16269857 -0.25903112 0.10434196
0.07984535 0.47376859 -0.23797354
-0.45008385 -0.41409284 0.09523843
0.28124404 0.77742255 -0.17454723
0.20306519 -0.35990924 0.08081305
-0.53388262 -0.16958590 -0.06314574
0.40746176 0.15928864 -0.42734626
-0.04468533 -0.15578042 -0.18828188
-0.06058558 -0.06740148 0.15826830
0.34451723 -0.14138319 -0.45866245
0.39984614 0.50614053 -0.12254047
0.28254899 -0.30113274 0.20078170
0.08525988 -0.34263372 -0.24188358
0.17135169 0.42698866 -0.14635482
-0.09230816 -0.12359749 0.68483108
0.15866981 -0.19880088 -0.04762100
-0.41035777 -0.05211876 0.38928649
0.49936306 -0.27203429 -0.14425893
-0.23742706 0.36169699 0.36198518
0.16833431 -0.22516404 0.47420311
-0.12475193 -0.06224091 -0.34259170
-0.04020587 0.48712176 -0.01184972
0.19333506 -0.02781269 -0.29653931
0.44434726 -0.32365745 0.19966172
0.44135952 0.67901736 -0.05881885
0.10468358 0.69964784 -0.29917350
0.23307154 -0.13775797 -0.11084202
0.08110134 0.51579094 -0.34115875
0.11854658 0.19953179 -0.27563006
0.01430467 -0.20556046 0.69971490
0.15797201 0.00210705 -0.11081582
-0.38572216 -0.23354565 0.32798338
0.35455367 -0.04058680 0.01766836
0.01385449 0.58004874 -0.38523117
0.06423216 -0.03810279 0.62592494
-0.12850794 0.38182971 0.02009605
0.22035664 0.24890299 -0.41275766
0.19823202 0.23222017 -0.17683724
0.17470124 0.21409245 -0.15528557
-0.36364663 -0.13703994 0.31281459
0.03506278 0.00959215 0.56891501
-0.58804309 -0.37307292 0.22642852
0.12566398 0.23140220 -0.14874446
-0.54283190 -0.06944121 0.28207725
0.28276837 0.66440833 -0.15340984
-0.06387375 -0.07777618 -0.27683926
-0.42136642 -0.19587116 0.40774441
0.12580410 -0.37060589 -0.13651295
0.03896442 -0.35460591 -0.49886745
-0.20235302 0.72583735 -0.54409432
0.46432269 0.73285109 -0.00767645
-0.18249518 -0.14229225 0.33415043
0.06837473 -0.27712089 0.65783626
0.52118134 -0.35830128 -0.05578797
0.33327410 0.76751232 -0.10698830
0.16611797 -0.26826370 0.08581309
0.28347832 -0.44347727 -0.03699083
0.22492141 -0.20668922 0.16446289
0.02342137 0.50066620 -0.41857490
-0.39221418 -0.02030836 0.13515148
0.10302696 0.77697062 -0.31992605
0.50344199 -0.25409645 0.18568945
-0.46823332 -0.03860332 0.46424928
-0.43510228 -0.01064952 0.42321044
-0.25668401 0.40662289 0.33450264
0.02276821 -0.01543149 -0.04953575
0.39886567 -0.02425610 -0.40373579
0.03823148 -0.06415363 0.66489393
-0.21192594 0.27176279 0.13857797
-0.06198613 0.72314227 -0.42739975
0.49455464 0.77295703 0.00209816
-0.24159184 -0.41135198 -0.37627953
0.39826998 -0.41255909 -0.10468581
0.10732190 -0.28605038 -0.45934194
0.46140021 0.19158609 -0.49604630
0.27968195 0.77117038 -0.14056274
0.52921778 -0.36987871 -0.00518262
-0.10755624 -0.20023583 0.24346609
-0.20894346 -0.05541198 0.50542861
0.38915008 -0.08276297 -0.39154661
-0.28171736 -0.17349865 0.18386294
0.22181451 0.52448732 -0.22594365
0.11244841 0.00646959 -0.09977475
-0.00392064 -0.13541351 -0.20947099
-0.24974500 -0.14711137 -0.31652269
0.40200287 -0.42980254 -0.07686590
-0.25634077 -0.17744406 -0.44972199
0.00777917 -0.03479466 -0.12736888
-0.17525056 -0.11339433 -0.25128287
-0.15558675 -0.38947785 -0.52598333
-0.33320531 0.33073699 0.27199611
0.44419193 -0.11462511 -0.60388273
0.48261321 -0.07471834 0.04944328
0.41097793 -0.07638986 -0.41153938
-0.00613898 0.37118879 -0.13585766
0.14154695 -0.28277856 -0.04834816
-0.18228985 -0.20124881 -0.18090141
0.18213652 0.65114599 -0.23935112
0.16866551 0.06378680 -0.32485190
-0.24259533 -0.21297111 0.44612810
-0.24529889 0.29931384 0.37003285
-0.27468014 0.23858845 0.40704000
0.00663324 -0.15423061 0.30002615
-0.55935067 -0.23766778 0.34434068
-0.13219565 0.53028947 -0.51334381
-0.13624626 -0.18059637 0.06594072
0.25901660 -0.16248302 0.17049281
0.50245118 0.05161443 -0.55907696
-0.49066412 -0.19429611 0.34858170
-0.36798590 0.26689112 0.52010703
0.42944536 -0.36527014 -0.14622153
0.19222757 0.77061176 -0.25249657
-0.26211071 -0.37774193 -0.33615756
-0.61190367 -0.08417352 0.00831090
0.09986819 -0.16656677 -0.30291441
-0.12677577 0.00133924 0.56803429
-0.00478993 -0.29803956 -0.15132384
0.43152189 -0.07704522 -0.09250554
-0.55039120 -0.12281199 -0.05130097
0.49712408 -0.19674926 0.17273220
-0.11790435 0.59305435 -0.51704663
0.09010801 -0.07018988 0.64709061
0.45110422 0.25028136 -0.48994589
-0.05388740 -0.36629969 -0.54558426
-0.19237013 -0.39218318 -0.22373599
0.11166954 -0.08457337 -0.25292954
-0.03660367 -0.18757017 0.70759839
0.07579543 0.52787024 -0.11329758
-0.06808958 -0.28576827 -0.13575171
0.13754213 0.08509286 -0.15924117
-0.11358266 0.43164438 0.18483105
-0.01957347 -0.25114447 0.13676672
0.16193740 -0.36231512 -0.22279164
0.16103928 0.74069887 -0.23778501
-0.32223704 -0.32242244 0.23382524
-0.28239757 -0.07499258 0.43383878
-0.41832206 -0.10980825 -0.03341196
-0.39229548 -0.08611305 0.56617951
-0.50207591 -0.42028314 0.10822513
0.39111096 0.10723677 -0.40343750
-0.05023510 -0.11644168 -0.21988237
-0.01460418 0.30317032 0.08921200
0.09203365 0.64640588 -0.33166236
0.18806626 -0.14065768 0.00370639
0.29784173 0.10353595 -0.48319036
-0.35852695 -0.05317162 0.08139083
-0.40407279 -0.02466699 0.07908194
-0.36677760 -0.13936989 0.54502445
0.15633138 0.61303276 -0.28219745
0.02891515 0.29993650 -0.03103170
-0.21118708 -0.44365036 -0.35767499
0.22185317 0.76190746 -0.22553229
0.31367722 0.07918920 -0.50459754
-0.07560962 -0.36872852 0.54333258
-0.13920411 -0.25074762 0.65642458
0.39662895 -0.21048601 0.22795786
-0.42658907 -0.19474559 -0.05539402
0.42989916 0.18844213 -0.45463896
0.04806936 -0.37236220 -0.47650862
0.41487917 -0.30442369 0.22458918
-0.31401005 0.37891036 0.43218854
-0.04216503 0.57885045 -0.46162683
-0.46227041 -0.01155418 0.20138121
-0.09126902 0.76212686 -0.47141236
0.30503076 -0.06081645 -0.39809632
-0.32363179 -0.28375971 0.42309022
-0.15338996 -0.00372727 0.47790512
0.21884063 -0.15972506 -0.12820254
-0.47524482 -0.21417694 -0.06813163
0.44052237 0.60399252 -0.08017814
-0.59912771 -0.27066749 -0.04375188
0.31246352 0.02535859 -0.49569571
0.14030178 0.29581019 -0.10822952
0.36246434 -0.36063296 0.19492398
0.41672313 0.25581348 -0.57396930
0.06027980 0.73013073 -0.31991437
-0.14328851 -0.16460238 0.67975670
-0.20704685 -0.41511160 -0.26744184
0.28671032 0.03011525 -0.29060006
-0.07359948 -0.18053503 0.19239382
-0.25521660 -0.18287839 -0.26501554
-0.19886951 -0.06885926 0.26982266
0.05127557 0.63424826 -0.37709096
-0.12664995 -0.07218383 -0.28462535
-0.58438849 -0.15279941 -0.04495612
0.07715747 0.37918544 -0.03239357
-0.10084368 -0.48582882 -0.40886468
0.08010076 0.03820388 -0.22435334
0.08778001 -0.05965205 -0.01106324
-0.27879047 -0.09058769 0.28332192
-0.15684654 0.56775910 -0.53677082
0.37309411 -0.20104267 -0.18630487
0.02676416 -0.20787512 0.29923922
-0.16090086 0.38788560 0.06441467
0.06579499 0.80471951 -0.31602892
-0.19383733 0.30729645 0.10384423
0.35233662 -0.07026435 0.12918374
0.25928202 0.34169024 -0.26033872
0.14698449 0.67886084 -0.29806525
-0.08593839 0.41021699 0.15914629
0.34228677 0.17112672 -0.54480052
0.00103772 0.47545594 -0.15017512
0.03976405 -0.15871792 0.05340354
0.09238079 0.30539429 -0.08320694
0.26663396 -0.37721622 0.13898000
0.34800920 -0.06359784 -0.37226278
0.29737678 -0.42307466 -0.08694121
0.26413447 0.40063590 -0.26680478
-0.19745189 -0.07435708 0.12992570
-0.15227950 -0.31514984 0.15683329
0.35710660 0.69196218 -0.12313068
-0.27347705 0.32458299 0.20184785
0.02899656 -0.40245026 -0.46533847
0.24458823 -0.42452914 0.03290754
-0.25693077 -0.13403030 0.17406830
0.31354252 -0.44507277 0.06096385
0.34446579 -0.00948097 -0.53007317
0.19965339 0.13328926 -0.17864341
0.04816931 0.41308635 -0.19988707
-0.28048924 -0.28477651 0.40965059
0.31671679 0.19066589 -0.51180828
0.21622378 -0.02603909 -0.28002468
-0.11797518 -0.37249500 0.49364093
0.49503720 0.10585377 -0.53346938
0.37876546 0.08101854 -0.38443068
-0.06630108 0.47073931 -0.04349970
-0.16135463 -0.34011638 0.52366489
0.09448938 -0.34355789 -0.26806420
0.49330050 -0.00469214 -0.51465392
-0.45249748 0.12068385 0.43312040
0.09789042 0.55551326 -0.19950014
0.23147002 0.34749064 -0.22169840
0.31614631 0.16615450 -0.31678393
0.02664391 -0.08866520 -0.14769502
0.42524925 -0.05025907 -0.02936260
0.07845052 -0.02027991 0.57944423
-0.27553979 -0.25559592 0.44316480
0.19838181 0.43245015 -0.39132074
0.12315805 -0.25176084 0.38780811
-0.29961506 0.37037262 0.22465558
0.03093455 0.76473457 -0.35625032
0.13427514 0.46788764 -0.31722668
-0.10316138 -0.16794129 0.69344574
0.25470826 0.49905783 -0.23804006
0.05749634 0.48456472 -0.02188402
0.08708690 -0.28551233 0.37546962
0.23295283 -0.15222304 -0.17716707
-0.38724726 0.10900979 0.56080031
0.02547313 0.64108282 -0.36820179
-0.05298490 -0.44252676 -0.24323815
-0.21716282 -0.42721117 -0.41026574
-0.50265330 -0.32947165 -0.04003901
0.01731644 0.67016643 -0.40209246
-0.49860200 0.06077570 0.54631627
0.47371894 0.59165722 -0.01408431
0.00848898 -0.20525713 0.10020229
0.29966071 -0.04692279 0.02077819
-0.07322834 0.29534477 -0.04479570
0.27415872 0.27753913 -0.47894955
-0.55582738 -0.34105533 -0.02102923
0.21525288 0.30859211 -0.20058586
-0.00429527 -0.29265702 0.31300330
-0.22542788 0.21823724 0.18443032
-0.09893279 -0.27064162 0.03240331
-0.14633787 0.63659090 -0.50722319
0.19259088 0.17411834 -0.16085260
0.34773827 -0.13078843 -0.15958264
-0.10441013 0.26286030 0.07186165
0.21138224 0.56747770 -0.22333691
0.12764429 -0.04033716 0.46858940
-0.15279959 -0.07577468 -0.32256663
-0.38620511 0.07450190 0.37877107
0.53445059 -0.12283020 0.01705091
0.35502180 0.13596353 -0.55531311
0.15765908 0.25557843 -0.14017774
-0.38415489 0.35230309 0.32646066
-0.33315262 0.17881033 0.37317193
-0.29131290 0.36443883 0.41957691
-0.07980005 0.55656177 -0.50122476
-0.68521726 -0.12819229 0.11764878
0.18593700 0.11028829 -0.35434893
-0.65757191 -0.08575194 0.10471204
0.03710882 -0.16786204 0.30087376
0.23772997 -0.07439874 0.00226611
0.21574757 0.04162841 -0.17773770
-0.01508616 -0.21184917 -0.09645905
-0.13556463 -0.29165053 -0.15093854
0.22568959 0.67738390 -0.20001942
-0.65761846 -0.34048080 0.15384902
-0.11695501 0.00810495 0.43854964
-0.06443969 0.42547330 0.13516733
-0.24862514 -0.16582383 0.47044864
-0.02453816 -0.46342212 -0.39044040
-0.15264586 -0.17637278 0.30941004
0.20324156 -0.32733351 0.12765166
-0.50309211 -0.25404483 0.34777883
-0.43003699 -0.08995236 0.41690436
0.28358287 0.47742516 -0.18407458
-0.29279655 0.23159716 0.44444174
