-0.34784824 -0.28169167 0.12195477
0.46785757 0.69508612 0.10244019
0.06989601 -0.38669497 -0.19027817
-0.34790331 -0.27723098 0.17081216
0.41993740 -0.06248213 -0.05336062
-0.00594894 0.44290543 0.24259967
0.04927430 0.19121355 0.24354330
0.19176847 -0.20837921 -0.12018047
-0.28268272 -0.59982657 0.12206402
-0.28170046 -0.29400170 -0.41630578
0.06245916 0.12726204 0.24613664
-0.38998982 -0.01096740 -0.46914417
-0.40737695 0.03154266 -0.47305194
0.52579355 0.37829795 0.15876597
0.04324317 0.48147362 0.24314553
0.46977261 0.05895853 0.23937389
-0.37613484 0.18581848 0.16826382
0.10256931 -0.21539560 0.24290490
-0.36526084 -0.27621546 0.21323118
-0.00357051 -0.43854344 0.21069226
0.16700663 0.63850939 0.10972103
-0.39068699 -0.04841027 0.24356657
0.32718274 0.02342048 -0.09379879
0.00100181 -0.27279288 -0.41899663
-0.49974057 0.10609689 -0.08191123
0.27441818 -0.26516625 0.24457598
-0.69592071 0.02533524 0.10151339
-0.25085488 -0.46412727 -0.38418725
-0.69081342 -0.03884628 -0.35866371
-0.03167306 0.49594101 0.06982970
-0.34237355 -0.49301443 0.00308381
-0.29387486 -0.03449126 -0.46027690
-0.06455195 0.17275602 -0.01371553
-0.04421194 -0.54772913 -0.27852449
0.47716358 -0.31798002 0.23840556
0.05465363 -0.24603572 -0.34966117
0.17251016 -0.36762789 -0.02687069
-0.69466639 -0.04762784 0.09762506
0.13083915 0.07625070 -0.13793802
-0.40714458 -0.22226456 -0.29754537
0.12340172 -0.01689848 0.23762798
-0.60104668 -0.12993789 -0.24202295
0.08212307 0.12045170 0.24319488
-0.65888345 0.08652815 -0.13490367
-0.69426358 -0.04954472 -0.24418950
0.23309422 0.06171272 0.24173084
-0.17236310 -0.01889277 -0.46472430
0.10460342 0.61657274 0.17579105
-0.68986917 -0.04329070 -0.03871965
-0.50048578 -0.13293275 -0.11008324
0.49001834 0.60221076 0.11197093
-0.67134154 -0.03883461 -0.46299544
-0.33089125 -0.52182984 -0.09511831
-0.08944650 0.40769076 0.24551922
0.35238132 0.49535128 0.09054127
0.59667075 0.10249329 0.20114490
-0.09767865 -0.42255279 -0.39169168
-0.44936967 -0.16040620 -0.03688805
0.33239320 -0.38589340 0.11981407
-0.52214038 0.05978251 -0.37667659
-0.43965119 -0.15420581 0.16646969
-0.14343457 -0.33429095 -0.41059703
-0.38917407 -0.23386064 -0.18865597
-0.14565304 0.06965122 -0.23066743
0.34204954 0.14243561 0.08762901
-0.32775238 -0.54354322 0.23568583
0.26015767 -0.26953876 0.03837377
0.04215804 -0.43173233 0.23768046
-0.05586193 0.43783364 0.24188316
-0.54394305 -0.13228393 -0.23526663
0.57218122 -0.16366379 0.12372278
0.10588504 -0.03332835 -0.41257820
-0.35823095 -0.14165267 -0.44598523
0.50137937 -0.30994475 0.14366406
-0.36511323 -0.27410626 -0.10857560
0.44371971 -0.01914106 -0.04531008
-0.60777581 -0.13061945 -0.25015169
-0.43083516 0.15750816 0.08983313
-0.16132602 -0.62426102 -0.11815997
-0.35833502 -0.08501978 -0.45312434
0.02589744 0.05163843 -0.37671962
-0.02496246 0.36199582 0.24456981
0.46952221 0.07806046 0.24262875
-0.15529382 0.21487105 0.24289319
0.16153535 -0.21046686 -0.40518162
-0.32115510 0.21226756 0.12233250
0.27158841 -0.28887069 0.24394542
-0.33524409 -0.46929595 -0.09469743
-0.30810356 -0.58216119 0.21920142
0.47425517 0.02438023 -0.04955905
-0.27617252 0.03561364 -0.45938808
0.19453298 0.11039476 -0.04422958
-0.33697149 -0.51277363 0.13027866
0.14014344 -0.23647556 -0.30538011
0.54268694 -0.29051507 0.15172061
-0.28451914 0.22197445 0.01487221
0.51950669 -0.35671303 0.24412993
0.14010288 0.01785200 -0.13642471
0.05209398 0.12111324 -0.06253420
-0.42431661 -0.13582905 -0.44544226
0.32123989 -0.38871723 0.24071980
0.18180797 0.64611077 0.23540282
0.10626742 0.57402086 0.07876283
0.31135270 -0.39966801 0.09628569
0.58192039 -0.12776560 0.00584602
-0.37000924 0.03641708 -0.48095664
-0.51892948 0.12271531 0.07285257
-0.04689996 0.07313097 -0.29440475
-0.26444900 -0.63995600 -0.28889459
0.45948416 0.16947493 0.24206990
-0.41094172 -0.23990580 -0.42337269
0.15776505 0.54474926 0.07676123
0.32740524 0.13598171 0.06804074
-0.29188657 -0.39505938 -0.39710847
0.16675994 0.41075090 0.24320051
0.09794141 -0.06214177 -0.46069252
-0.52598929 -0.14841940 -0.44575989
-0.35494158 -0.28577164 -0.14524381
-0.69123602 -0.00088426 0.17693645
-0.19189984 -0.08603072 -0.44746035
0.38161054 0.21705332 0.15203059
-0.34827843 0.08802418 -0.15446603
0.35481736 0.37672320 0.23743209
0.07418162 0.01814931 -0.23744152
0.31116569 -0.17607792 0.02827610
0.06895051 -0.43383062 -0.14621300
0.21722120 0.10791084 -0.03505854
0.07476035 0.38326219 0.04991697
-0.06583880 0.21413510 0.24355242
0.08334059 -0.15136953 0.23829779
0.44874853 -0.18126760 0.24531066
-0.34166339 -0.31664747 0.02502494
-0.69371831 -0.11031252 -0.05594085
0.45019573 0.03465169 0.00786184
-0.35007748 -0.32965320 -0.35528743
-0.15475768 0.37365270 0.21223632
-0.13586102 -0.63891995 -0.25022596
-0.31453279 -0.44921741 -0.38577932
-0.59779704 -0.06111316 0.23271713
-0.08952001 -0.60470152 0.01801574
0.38246274 -0.31155905 0.24531436
0.20194493 -0.22102946 -0.02490938
0.28886217 0.11522518 0.00173254
0.56360078 0.22728798 0.24023840
0.30861735 -0.07055485 0.24300987
0.43577549 0.04641442 0.02502826
-0.33607641 -0.46074983 0.19763979
-0.04109267 -0.45579621 0.23264846
-0.09690721 0.07495123 -0.22120216
-0.69174004 0.03383053 0.19690824
-0.06142084 0.05898476 0.24067882
-0.27295369 -0.39009434 0.23946312
-0.33499756 -0.47426245 -0.16481891
-0.48118892 -0.15261051 -0.19609728
0.13693458 -0.25786418 -0.40909043
-0.27001590 -0.62744713 -0.18151090
-0.18831375 0.05619805 -0.36047220
0.20908387 0.05716698 0.24170339
-0.56682754 -0.11787643 -0.08078985
-0.55085301 0.08937478 -0.18180576
-0.63100994 0.09533011 -0.09386511
0.16742703 0.34948933 0.04454765
0.05556679 -0.29282469 -0.24604680
-0.14774196 -0.42482978 -0.39727890
0.10742913 -0.31353906 -0.12051275
-0.16004039 0.01281816 0.23635578
0.10463251 0.12649162 -0.03530394
0.03057414 -0.19439235 -0.42985311
-0.38226131 0.10029522 0.24134445
0.46980897 0.09385332 0.08032086
-0.11367781 0.00808410 0.24070823
-0.51028115 0.13134238 0.21580240
0.17730759 -0.02949317 -0.31944799
0.24875370 0.13809212 0.24719709
-0.14824760 -0.30609635 -0.41984013
0.16459721 -0.22753349 -0.22836947
0.00979665 0.42639560 0.06156741
-0.04361413 -0.47410062 0.01054724
0.52582502 0.51936805 0.24180979
-0.45005763 -0.12971190 -0.45132947
0.17419404 -0.00944313 -0.28197700
0.31092727 0.67668021 0.23887134
-0.69168925 0.00576904 0.19538718
0.35708845 0.33335161 0.24129611
0.40415868 0.71595633 0.10980998
-0.25647342 0.05728998 -0.39145425
-0.44439730 -0.17328385 -0.16673607
0.59205019 0.42858973 0.15823269
0.14919434 -0.20992154 -0.15131767
0.58434308 0.52279305 0.13438843
0.13842334 -0.11027288 0.24169761
-0.38221496 -0.24992180 -0.26868024
0.13022675 0.53563714 0.07651587
-0.06132860 -0.45755330 -0.38250241
0.45166185 -0.12325071 -0.02498430
0.25265342 -0.34834060 0.24671328
0.06701230 0.21492518 0.01555407
-0.18757629 0.01212192 -0.47318399
0.47317109 0.33630595 0.15252340
0.13592222 -0.42384398 -0.00761496
-0.10462213 -0.25645766 -0.42358887
0.04795153 0.41091520 0.04796828
0.47253558 0.65664101 0.10112861
-0.02463405 -0.42158464 -0.39622462
-0.42407894 0.06225559 -0.34743160
-0.28732824 -0.60704648 0.00738379
-0.29168481 -0.11026902 -0.44983807
0.25737551 -0.36820525 0.06059729
-0.17348048 -0.56573403 -0.36762217
-0.05731848 0.35053986 0.24165130
0.53475428 -0.33649671 0.24393037
-0.69379210 -0.01531086 -0.09300076
-0.24118455 -0.58126545 -0.36210454
0.58168113 0.30851334 0.17147940
-0.05997447 -0.08430299 0.24510637
-0.33556557 -0.36961433 -0.11304773
0.10246119 -0.30237651 -0.13879366
-0.34536606 -0.34207132 -0.25971568
-0.31786674 0.21877950 0.07149127
-0.32274717 0.21234858 0.22946984
0.60247946 -0.03647123 0.10063343
-0.04196506 -0.47710243 0.13036817
0.00523567 0.46910772 0.06341350
-0.63427699 -0.12640178 -0.24668531
0.34337008 0.16405568 0.24146891
-0.34835258 -0.29851955 -0.01653033
-0.05098484 -0.02061567 -0.46425909
0.55856121 0.26321906 0.24031693
-0.05184430 -0.49667045 0.06866333
-0.69193304 0.07045802 -0.13791633
0.45428061 -0.39329231 0.21602464
-0.07264513 -0.24957526 -0.42474192
0.20968534 0.00788305 -0.16050798
0.47822478 0.74206185 0.12324470
0.18053839 -0.41413179 -0.00352129
0.36410794 0.16291463 0.13918029
0.00046556 -0.22494966 -0.42594582
0.11149117 0.16493501 0.00005363
0.23016584 0.67479610 0.23375353
0.59739435 -0.03536231 0.06004420
-0.33324403 -0.38500208 0.11595592
-0.34605241 -0.34171021 -0.35441917
0.05027606 -0.16030517 0.24691972
-0.36098909 -0.28841078 -0.24340159
-0.33241823 -0.57278168 -0.25825590
0.46991172 -0.25783822 0.24315983
-0.04196303 0.34868541 0.04236977
-0.18781145 -0.34418407 -0.40656346
0.36661130 0.43097433 0.24383557
-0.44295123 0.05555643 -0.38409856
0.12330823 -0.09065412 -0.46331158
-0.46312726 -0.14538307 0.13057387
-0.14816844 -0.62337649 -0.14367151
0.12927721 -0.12748687 0.23962638
0.10314667 -0.42824459 0.00632416
-0.37237003 -0.24006096 0.02828762
-0.11095950 -0.10403368 0.24735242
0.43295315 0.28183925 0.15203676
-0.01943747 0.06483579 -0.33210868
0.59077108 0.67417085 0.10008824
0.18761420 0.34483331 0.24083644
-0.61641085 0.05731384 -0.39768732
0.17158823 0.12927745 0.01441208
-0.17623821 -0.12949869 -0.44459781
-0.26365536 -0.11921865 -0.44622153
0.03761256 -0.32758877 -0.30806273
-0.34075835 -0.50998855 -0.16948538
-0.42629030 -0.18028684 0.12629537
0.18869744 -0.19743803 -0.06594007
0.34870797 -0.27682948 0.24314710
-0.04793049 0.41986281 0.24329183
0.53774786 -0.18771552 -0.00955687
-0.16227534 -0.60209584 0.06162605
0.02938293 0.06156624 -0.28642881
0.22760740 0.34319270 0.05532682
0.41129738 0.64813244 0.24280456
-0.07965141 -0.58201504 0.23828506
-0.06370321 -0.45207265 -0.38341177
0.48910335 0.24294569 0.16988006
-0.23949337 -0.28384092 -0.41793180
0.34521705 -0.30738488 0.10087433
-0.31404299 -0.62630951 -0.27828002
-0.19416824 -0.41120219 0.24325293
0.30181375 0.28412738 0.24129155
0.25451225 -0.39286253 0.06031725
0.23055819 -0.11603673 0.23597771
0.26174065 -0.27166045 0.04390298
0.17758621 -0.10361579 -0.33696756
0.57664812 0.22686122 0.23821869
0.21051195 0.05014004 -0.06176687
-0.13333780 0.26090950 0.02353197
-0.68751919 -0.11685790 -0.21651384
0.12332547 -0.04755349 -0.45063534
-0.61446929 0.03982450 -0.45406365
0.51705480 0.39213625 0.24006116
0.34491304 0.28050876 0.12332411
0.23736009 0.29271173 0.23935288
0.09279303 -0.19553155 -0.43271205
-0.10152933 -0.42650658 0.24150616
-0.58651280 0.07518245 -0.24038337
0.30164447 -0.16162281 -0.11165783
0.07405987 -0.42088050 0.15024087
0.10179527 -0.42047358 0.15556872
0.23112464 -0.40092862 0.21746325
0.36639646 -0.06955551 -0.08323217
-0.37330946 0.04706917 -0.43498245
0.14332518 -0.36431590 -0.06431501
0.02148997 0.55228651 0.18274191
-0.28860652 0.24262454 0.17035407
-0.21730147 -0.50128293 -0.38626221
-0.33575124 -0.38903669 -0.31118909
-0.31471562 -0.58597422 0.16724214
0.12662657 0.09765757 0.24173334
-0.49471119 -0.11970668 0.08705467
0.42703918 -0.34173447 0.13725179
0.06379363 -0.37647688 0.23531374
-0.11174253 0.33537146 0.03662314
-0.23866713 -0.61617243 -0.09355528
-0.23760441 0.06853029 -0.30753219
0.50232935 0.74329031 0.18258500
-0.16768140 -0.47886088 0.24318993
0.15293767 0.11635058 0.24036515
0.04070299 -0.30481049 -0.31293529
-0.50978017 -0.12323135 -0.04617685
0.08638851 -0.43521208 -0.12800297
-0.16210902 -0.47373298 0.24586627
0.05877478 0.03618111 -0.27195948
-0.04904194 -0.51844680 -0.19831453
-0.44381210 0.06246071 -0.35936975
-0.15370992 -0.57587695 -0.36631554
0.18560635 -0.41456819 0.11186440
-0.24160978 0.28196180 0.07061042
0.40859911 0.05010250 0.03904265
0.48764637 -0.24651074 0.14334780
-0.17311639 0.06776204 -0.28090680
-0.05940776 -0.57311428 -0.07130590
0.12039848 0.29510060 0.03367943
-0.68473339 -0.10633701 -0.43622729
-0.41495770 -0.20173797 -0.13055003
0.20134997 -0.20648623 -0.13993238
-0.50336903 -0.11755084 0.13744782
0.16910546 -0.37962750 0.24341044
-0.38953242 0.17679028 0.20602423
-0.02442749 -0.48668608 -0.31079090
0.58531868 -0.01758007 0.24398309
-0.32333845 -0.18927447 0.24244395
0.38445544 -0.02154200 0.24422795
0.36153570 -0.37615639 0.24016961
-0.24617720 0.23066260 0.24065948
0.38636139 -0.16773349 0.24311468
0.49529377 -0.05521516 0.24467519
0.44272956 0.29501745 0.15569952
0.10552204 0.21406877 0.01195672
-0.51985359 -0.12060605 0.08262753
-0.64883935 0.05367358 -0.41846409
-0.38064015 -0.15506160 0.23777378
0.06344390 -0.02703353 -0.39119786
0.03360045 -0.02576574 -0.40397668
-0.61800313 0.07759158 -0.19226567
-0.42045414 -0.20563176 0.24332246
-0.50907457 -0.11668265 0.13462800
0.13228400 0.20207350 0.01487100
-0.32989216 0.04344911 -0.44036499
-0.53041863 -0.11093855 0.16595158
-0.32292685 -0.24585375 -0.42461115
-0.45091367 -0.16581085 -0.05433701
-0.06747603 -0.49405351 0.24181220
-0.08020620 0.12810284 -0.05467790
0.23967507 -0.22137260 -0.14430104
0.01919093 0.35594931 0.24783060
-0.09189428 0.27425033 0.02990055
-0.37251258 -0.24211922 0.00489637
0.36337829 0.47077984 0.24039006
0.59541452 0.30199230 0.19904932
0.11528409 -0.36754495 0.23950556
0.04048786 -0.35788807 0.23453334
0.40640622 -0.32617876 0.24412197
-0.69318724 -0.11416788 -0.07242613
0.31098416 -0.02137624 0.24047077
0.12748520 -0.01589543 -0.33271992
0.54462409 -0.16868947 0.12254728
0.46122310 0.67081225 0.10372141
0.23904249 0.38224396 0.05875082
-0.37819648 -0.23985925 -0.10743776
-0.43436536 -0.08385020 -0.45333654
-0.29282862 0.08583450 -0.18617406
0.50035024 0.03896504 0.24102917
0.30505010 0.14310326 0.12272859
-0.43815431 0.15158641 0.19556430
-0.68444300 -0.12167875 -0.16595794
0.13884655 0.57589340 0.08273330
0.52927172 0.15078355 0.16793159
0.37546533 -0.17683668 0.09349683
0.43133634 0.72578812 0.12391962
0.04604503 -0.24750108 -0.43172079
-0.07382632 -0.58937299 0.01778427
0.58523715 -0.16223288 0.08621463
-0.23814949 -0.26182485 -0.41952559
-0.52425945 -0.00281683 0.23899913
-0.36722368 0.04170953 -0.46486136
-0.01442066 -0.43524078 0.23978743
-0.01799826 -0.44108173 0.07395361
-0.13956535 0.09970078 -0.09490595
0.56501138 -0.15368669 0.23979723
-0.18005352 0.30158049 0.23924893
-0.32985884 -0.58421433 -0.08713506
0.58386970 -0.38474178 0.17631754
-0.23594771 0.28136784 0.07986808
-0.29708776 0.22383133 0.23201102
0.08963001 -0.23576394 -0.31178790
0.32776999 -0.38124555 0.24323669
0.59617865 -0.29273814 0.23050138
-0.38869971 -0.24570581 -0.32197750
0.00221403 0.21003254 0.24161541
-0.69068694 0.07575366 0.00275042
0.60045075 0.02960473 0.07496354
-0.69213808 0.03030480 -0.43248218
-0.24519935 -0.34886032 0.24281538
-0.28642073 -0.03340908 0.24122101
0.08505256 0.04617130 -0.21440864
-0.33661672 -0.37807137 0.20441476
0.44095907 0.73790133 0.21661031
-0.49317729 -0.12354027 0.15657574
-0.62417281 0.10018524 0.23564211
-0.08264866 -0.59437728 0.21755344
0.16551566 -0.15353180 -0.37253737
-0.31535304 -0.45737633 0.23516676
0.22626227 0.39994076 0.23726544
-0.27965516 0.22874080 0.23052540
0.42317888 -0.00561639 -0.05874222
-0.47612020 0.05698916 -0.41017327
-0.20412157 0.31201869 0.10843767
0.14727305 0.28441808 0.24378231
0.03242511 0.42577830 0.05768315
-0.69139147 -0.11167200 -0.37620649
-0.39830643 -0.19727954 0.13383572
-0.34521842 -0.30435112 0.00640723
0.04661251 -0.28036380 -0.28580493
-0.33958298 -0.34875441 -0.15142940
-0.04031707 -0.48462763 0.23868573
0.14018148 -0.39081630 -0.06268393
0.34379807 0.43774837 0.10241221
0.27966464 0.08759309 -0.02274510
0.09414767 0.10606327 -0.07807125
-0.38840070 -0.25676021 -0.38871506
0.32832727 -0.18527195 0.01240689
-0.69561732 0.02797358 -0.01467746
-0.23656857 -0.60188413 0.20948890
0.08557543 0.14284013 0.23888072
-0.46304259 -0.18783751 -0.37357715
0.49262944 0.71355879 0.24386394
0.15501422 -0.40938297 0.19130281
0.54724252 -0.12409981 0.24181393
0.01490324 0.49968210 0.07552995
0.30845836 -0.00124558 -0.13967577
-0.46394292 -0.16495880 -0.43678513
0.43629798 0.04812420 0.04111817
0.22398379 0.26510590 0.24039179
0.45680389 -0.29049912 0.24045566
0.18825026 -0.10279042 -0.29349387
-0.34036359 -0.41655356 -0.25293899
-0.57439792 0.09424414 0.23227698
0.08789048 0.41015765 0.05287848
-0.19117472 0.13100435 0.24402088
-0.33936095 -0.34441477 0.12347569
-0.41584042 0.02592912 -0.47421125
-0.37856734 0.03392862 -0.46369237
-0.42139032 0.05634188 -0.39005086
0.59228742 0.19584039 0.20560560
0.49575332 0.68524063 0.09783524
0.07405659 -0.29393664 -0.18950269
-0.00580298 0.17912585 0.00516883
0.37741709 -0.17236757 0.23991904
-0.65442014 0.10849244 0.20537463
-0.11943206 0.11713387 -0.07153707
-0.33562505 -0.44558468 -0.37673968
0.59458745 0.61170614 0.15036258
-0.16272819 0.00591591 0.23992464
0.25451058 0.40980360 0.24296582
-0.02896491 0.18564273 0.00069270
0.31190780 0.66262889 0.24071354
-0.17589372 -0.01768303 0.23767453
0.30464339 -0.03674685 -0.13471326
-0.04705177 -0.52975452 0.01353289
0.03296164 -0.04045156 -0.45215392
0.53573954 -0.02914028 0.23999912
-0.09333725 -0.25137597 0.24570003
-0.43204489 -0.00874919 0.24447250
-0.38461703 0.07630368 -0.26584119
-0.49961820 -0.17194366 -0.44728133
0.13863112 0.33091661 0.04450303
0.27747518 0.23470600 0.10525337
0.19435644 0.52875298 0.07340820
0.42811027 0.44765514 0.11794230
0.14889869 0.29990029 0.24392363
-0.11790934 0.06805677 -0.30855042
-0.64169371 0.02478195 -0.47253013
0.28391820 0.68195057 0.23620623
-0.31437981 0.03893135 -0.45579115
0.51463819 0.70031214 0.24202502
-0.24479018 -0.34384188 0.23968732
-0.35808516 -0.29367483 -0.05364100
-0.21112341 0.05444644 -0.39521363
-0.54809034 -0.12402768 -0.10698187
-0.25363556 -0.37613112 0.24299347
0.56421423 -0.31562206 0.15596637
0.04664593 0.08820040 -0.13927759
0.15861395 -0.16169837 -0.42340258
0.44019645 0.72050679 0.11788444
0.30234337 0.29743177 0.11002661
-0.17327067 0.35404831 0.15612131
-0.30076721 0.23038949 0.13940841
0.10112377 0.16100132 0.24291503
-0.17649186 0.13507511 -0.03854829
0.54125738 0.04064253 0.03579776
0.38465834 0.61704898 0.23441896
0.15135816 0.63740683 0.20726165
0.30640766 0.34605709 0.09916870
0.56064618 0.05666058 0.09234004
-0.15012100 0.01811782 0.23529521
0.06702006 -0.19734308 -0.43459257
-0.69308984 0.00917101 0.03523493
0.02769174 0.06516296 -0.25823170
-0.54279804 0.11722596 -0.00342498
0.59424937 0.05466605 0.21813315
-0.14310139 -0.63815355 -0.22968423
0.27536821 0.68927240 0.12755696
-0.63895977 -0.12216859 -0.20976886
-0.34812349 -0.31205800 -0.06774496
-0.00241796 0.19736327 0.00146373
-0.30184492 0.21665442 0.02019092
-0.55214143 -0.10622594 0.17325687
-0.23025663 0.08046497 -0.20048024
0.50134420 0.70229530 0.24091646
0.04762707 -0.28687721 0.24154758
-0.22571062 0.28916770 0.22329038
0.19802426 0.57567787 0.24464443
0.04371519 0.01860076 -0.34893128
-0.47962645 -0.08930211 -0.44745478
-0.42349660 -0.17059982 0.17061543
0.59316528 0.60403740 0.13085085
0.02472141 0.04767738 -0.38669759
0.58587825 0.56342411 0.24007782
0.47176930 0.64133990 0.24300042
0.45018923 0.72080874 0.23475924
0.28562590 0.61665928 0.24146375
-0.27316126 -0.43907088 0.24038112
-0.04685412 -0.52924371 0.24410847
-0.00991296 -0.46355984 -0.21666178
0.03208321 -0.33723933 -0.33381861
-0.47095609 -0.13945250 0.09996893
0.31348071 0.31157291 0.10909773
0.14165093 0.33380812 0.24370775
0.46606496 0.54855573 0.10684042
0.11864085 -0.23166004 -0.28114140
-0.33163893 -0.55866408 -0.18409897
0.26033437 0.13511413 0.05753513
-0.03794992 -0.45967606 0.12363020
-0.26682982 -0.22748113 -0.42383784
-0.60363901 -0.12767896 -0.26917619
0.59476590 -0.07914403 0.18447271
-0.38672119 -0.25419393 -0.31637537
-0.20519829 0.15248773 -0.02549826
0.21838653 0.10067673 0.24070674
-0.55774355 0.08550881 -0.20170666
-0.33323666 -0.49048242 0.10370694
-0.33577624 -0.59317136 -0.26892608
-0.10633804 -0.61602902 -0.05434996
-0.33920759 -0.33246809 0.04864436
0.40655166 0.14399871 0.10108793
-0.43533817 0.15335862 0.08083615
-0.07901137 0.08039596 -0.22571942
-0.69411945 -0.04470424 -0.39447317
-0.34804329 -0.30379105 -0.08237253
0.08057056 0.27528509 0.02973288
-0.30229446 -0.00854255 -0.46507689
-0.02300460 0.05514807 -0.38509718
-0.32573193 -0.03941712 0.23936322
0.48060313 0.10652237 0.24051026
0.04077368 -0.08535852 -0.45224178
0.33021095 -0.28023624 0.09199736
0.30150157 0.69987154 0.21785283
-0.12149193 0.07365355 -0.22799657
0.28240505 -0.15483245 0.24229228
0.34583068 0.69983602 0.11268789
-0.18481472 0.33542836 0.22628522
-0.04211673 -0.52409256 -0.29650274
-0.69055688 0.07897643 -0.03429402
0.07473668 0.06464254 -0.23602694
0.41114518 -0.37053722 0.14141506
-0.33656958 -0.44995961 -0.27789426
0.43106568 -0.34398809 0.14355120
-0.25731164 -0.64079940 -0.25702974
-0.16525050 0.05109684 -0.41657871
-0.31271040 0.08916747 -0.14789683
-0.59191096 0.08242353 -0.17131890
-0.09760058 0.21122514 0.01907529
-0.27584934 0.06336847 -0.31398112
0.52664316 0.35062701 0.15971506
0.45607534 -0.02014993 0.24697652
0.54579079 0.13963009 0.11444086
-0.69254041 -0.02872008 -0.38895246
-0.16813456 0.06338535 -0.31687045
0.35708568 0.42886075 0.23721272
0.45141107 -0.24613029 0.23922950
-0.33647218 0.07446955 -0.27684444
-0.47323647 -0.14592344 -0.11524536
0.25347555 -0.33643425 0.05148832
0.10210080 -0.41220257 0.23628786
-0.02089160 -0.44295141 -0.02542806
-0.59070992 -0.11978579 -0.12045703
0.44122142 0.68564212 0.23909506
-0.68748975 0.06026039 -0.32112345
-0.48865438 -0.15997894 -0.29383621
0.05112685 -0.44487002 -0.12411227
0.52223337 0.45483422 0.14022684
0.09946370 -0.05507578 -0.45110512
0.45865420 0.31683108 0.15564257
-0.60946727 -0.12403741 -0.22472781
-0.45118445 0.14395425 0.22615790
-0.32666215 -0.57934022 -0.09435106
0.48667666 -0.09814720 -0.02254836
-0.58991265 0.09235621 -0.11702233
-0.47807559 -0.13776265 -0.44259802
0.11447172 -0.29884481 -0.11984973
0.57121992 -0.30517560 0.23817888
-0.34414983 -0.50581503 -0.05231060
0.02197707 0.00068392 -0.46005118
0.18084568 0.64622307 0.10222913
0.01775732 0.54175234 0.08769925
0.12036039 0.08959739 -0.13311929
0.41282833 -0.36694038 0.24219641
-0.28457212 0.23865958 0.21499139
0.14964941 0.31935832 0.23880672
-0.62747061 -0.12004007 -0.12598346
0.04745605 0.04650512 -0.29114303
0.37435547 -0.27987188 0.24369118
-0.45713657 -0.04586766 0.24174821
0.32431149 0.03103991 -0.02120689
-0.57749712 -0.10000983 0.10461909
-0.33353072 0.20567738 0.22871220
0.18888530 0.62303162 0.24357620
0.23082519 0.01420521 0.23965526
0.30276719 -0.31355360 0.24582878
-0.64368999 -0.11106499 -0.06814566
0.29737642 -0.00924924 -0.13242672
-0.04461410 -0.50826323 -0.13990885
-0.50051588 -0.13460910 -0.08393343
-0.49044824 -0.12612124 0.04483514
-0.58096683 0.10559832 -0.05586663
0.59808886 -0.08930583 0.14541501
0.33668774 -0.28888273 0.24118695
-0.07892939 -0.60400176 0.01339120
0.12274387 -0.25215691 -0.38700444
-0.00970504 0.31871173 0.03296724
0.46998700 -0.17190349 0.06729965
-0.40355781 -0.25175357 -0.38573128
-0.57566261 -0.15292564 -0.37816772
0.30238193 0.69968748 0.15656623
0.11626478 -0.00682878 -0.26326203
-0.31934807 0.18282828 -0.00398523
-0.04599768 -0.55195653 0.08712269
0.06680088 -0.23914284 -0.28653932
-0.55665195 0.07228488 -0.25665545
-0.65732145 -0.14159316 -0.44723162
0.30223835 0.00877358 -0.12411410
0.60023737 -0.00967530 0.18560067
-0.04124743 -0.47931078 0.18864545
0.31434909 0.60160184 0.09340625
-0.69182086 0.08989098 0.20075136
0.44739902 0.29932910 0.24063942
-0.27521610 -0.39781666 -0.40156195
-0.24097873 -0.45331189 -0.39061475
0.10924622 0.29559052 0.23970738
-0.38412252 0.07220775 -0.29745543
0.02333791 0.05785542 -0.35017812
-0.11316866 0.30699795 0.03533831
-0.03905775 -0.17120379 -0.43783963
-0.22836037 0.06800437 -0.33328149
-0.46715102 0.14183921 0.06356044
-0.41022247 -0.18004687 0.09138687
0.28646019 0.43920216 0.07328013
0.15676343 0.24900503 0.02692845
0.04305238 -0.45258811 -0.15408546
-0.36028138 -0.26386479 0.08385938
0.28327185 -0.25444099 0.04842012
0.43985438 -0.06759794 -0.04314684
0.10394676 -0.25479314 0.23737749
-0.16780722 0.02883044 -0.46568117
-0.18184023 -0.63220549 -0.21500100
-0.11442068 -0.56047165 0.24243635
-0.35080227 -0.31058091 -0.17715320
0.59125495 -0.18331467 0.02057441
0.47534075 0.74364817 0.19017968
-0.07835281 -0.58816445 0.22678289
-0.39919323 0.08070340 0.24078727
-0.22245684 0.29503247 0.18133745
-0.06316011 -0.58335984 -0.03532305
0.40949777 0.71230805 0.23161727
-0.16244267 0.05795480 -0.40393463
0.15201370 0.22286581 0.24041846
-0.35780495 0.06135924 -0.37564850
-0.20985290 -0.05803727 0.24537587
0.41786596 -0.38410342 0.22607526
0.51446784 -0.13658170 0.24025542
-0.42130163 0.03435459 -0.47334099
0.37204543 0.42761499 0.11035086
-0.46461147 0.06923984 -0.25977460
0.12301649 -0.21257734 -0.16822828
0.16694763 0.04273225 0.23754963
-0.06896696 -0.41708282 0.23530948
0.02163018 0.12259475 -0.05649373
-0.05343420 -0.57662416 -0.10058524
0.59767449 -0.04311302 0.18042752
-0.01684286 0.26337141 0.02879949
-0.69794059 0.01075389 0.18658209
0.05763300 0.05879720 -0.25484228
0.44571045 -0.10862727 0.24087700
0.31156760 -0.18011771 -0.08612908
0.50255275 0.15527481 0.18534729
-0.69144511 -0.08515708 -0.38993508
0.38147095 -0.17823315 0.08404577
-0.59286022 -0.10989335 -0.03754360
0.13932137 -0.30863476 0.24548545
0.00398116 0.02339460 0.23827305
0.38490298 -0.04739870 -0.07368448
-0.69453895 0.00897688 -0.45856693
-0.03205141 0.43432689 0.05875851
0.30465695 -0.39932027 0.17467812
-0.04967517 0.48337868 0.23754761
-0.50811815 0.04420732 -0.42974204
-0.69468069 -0.09044139 0.15556288
-0.44256157 0.03628068 -0.46368021
0.56351578 0.72694588 0.10703167
-0.39844224 -0.19646868 0.13973705
-0.30348897 -0.59264433 0.21112466
-0.48997447 0.05884892 -0.39075515
0.25230101 -0.04438998 -0.17997169
0.36006933 -0.40198052 0.14527926
0.16525729 -0.19601995 0.24434441
0.46107647 0.20924817 0.17362580
-0.48954886 0.03885327 -0.46660635
-0.11035835 0.31404126 0.23713845
0.04502243 -0.44030136 -0.25114459
0.59099281 0.52885258 0.22155198
-0.01813076 0.18986917 0.00378409
0.58709979 -0.15944889 0.23286614
0.33931473 0.06119820 0.23935086
0.55729556 0.36205882 0.24662274
-0.33783129 0.19764435 0.23649150
-0.15122205 -0.60281122 0.10791804
0.50134695 0.25401461 0.16705614
0.30294651 -0.05319911 0.24149254
-0.10057116 0.42827368 0.07978490
0.32391077 -0.39401022 0.19742635
-0.05871442 0.03637104 -0.46461520
0.32002118 0.37144554 0.10568732
-0.33568832 -0.43854284 -0.08550774
0.59098148 0.28803015 0.24039239
-0.04213326 -0.48397341 0.11133873
-0.13534074 -0.15160541 -0.43932351
0.06676342 0.57875419 0.11006775
-0.23201716 -0.60490429 0.18067017
-0.69516766 -0.05325177 -0.23226854
-0.01248429 -0.47919896 -0.31817693
0.30612645 -0.35346201 0.08791347
0.46939531 0.73992479 0.12677068
0.44237545 0.30474052 0.24150842
-0.56502545 0.06430556 -0.35089824
0.41548681 -0.23211563 0.11818865
0.15164962 -0.24555990 -0.06935024
-0.23874702 -0.60656512 0.02874784
0.28332067 -0.33807522 0.07208948
-0.68690681 -0.12339079 -0.23762575
0.28449142 -0.13959296 -0.13526967
-0.32270926 -0.60563588 -0.35905701
-0.18450624 -0.62001657 -0.11014231
0.59251404 -0.05245910 0.22349116
-0.35490420 -0.26207292 0.15301341
0.52787042 0.71267939 0.10274522
0.02602339 0.12076053 0.24347126
-0.17689507 -0.46661523 0.24269196
0.21203569 0.40190613 0.24140975
-0.34591705 0.16804734 0.24142763
-0.43116814 0.00717690 -0.46666089
0.56320632 0.39769101 0.24152052
0.59837031 0.62442052 0.18549111
-0.24145050 0.27307808 0.23586863
0.03261896 -0.38047838 -0.37606055
-0.03627962 -0.45089194 0.22971129
0.53599083 -0.06691851 -0.01254217
-0.33941656 -0.52748823 -0.24715601
0.03673168 -0.27285916 -0.40115568
-0.66294312 0.04326932 -0.45482472
-0.23497412 -0.48010376 0.24422479
-0.69173729 -0.06144119 -0.40032661
0.17334935 -0.25963175 -0.02748026
-0.04257215 -0.53895915 0.06406273
0.43852046 -0.10745396 -0.02683446
-0.05360295 -0.56442130 -0.02108686
-0.33454534 -0.48479787 -0.11193051
-0.24701092 -0.42699131 -0.39035833
-0.69340765 -0.04476693 -0.07174636
0.03193462 0.10677734 0.24427557
-0.42693022 0.07007474 -0.31357300
0.55664361 0.68217301 0.10385261
0.06155005 -0.01885534 0.24046490
-0.33773285 -0.35125688 -0.06754002
-0.34246603 0.18822564 0.23594773
-0.04966216 0.32564574 0.23722279
-0.30118430 0.11527430 -0.07163852
0.19386293 -0.41111168 0.08552736
0.05895957 -0.15183809 -0.43337294
-0.41191244 -0.18013886 0.08476639
0.28800121 -0.36949059 0.23835284
0.59294021 -0.04072069 0.23118803
0.52329493 -0.12990259 -0.00845228
0.13393942 -0.32073930 0.24197555
0.43647197 -0.37078348 0.24155179
-0.32519022 -0.56542838 -0.00305622
0.50237477 -0.37321779 0.24214390
-0.46695513 0.14956832 0.17547792
0.28078124 -0.10339421 -0.14401954
-0.40456307 -0.11181834 -0.44752011
-0.10441082 -0.60665751 -0.02050316
0.50761342 0.13186616 0.09406768
-0.08385864 -0.62791204 -0.24912299
-0.18975370 -0.64812350 -0.31359375
0.21145853 0.14627987 0.06233844
-0.41700807 -0.19725865 -0.21562029
0.56653178 -0.24014443 0.14696968
0.54907858 0.63590801 0.24325973
-0.42633614 -0.16603994 0.04259999
0.27245528 -0.30717856 0.05680744
0.28305236 -0.19923702 -0.11343870
-0.49853364 0.12938252 0.11568090
-0.32441348 -0.26176846 -0.42385548
0.55652785 0.72549105 0.10243654
-0.38379270 -0.21855846 0.02388874
-0.42055306 -0.10130659 -0.45257443
0.29363504 -0.18077880 0.00240178
0.54192781 0.36572856 0.15224645
-0.33050299 -0.57197440 0.08110090
-0.06007129 -0.58970273 -0.15489776
0.42061406 -0.04046772 -0.05339848
-0.15264109 -0.60760701 0.11703221
-0.66169918 0.08526728 -0.20476457
-0.33627388 -0.47149220 -0.29135245
0.04475709 -0.45902744 -0.24809802
-0.46955892 0.13560528 -0.01686846
-0.49482924 -0.14815611 -0.18128292
0.17641135 -0.41939932 0.01157986
-0.69035089 0.07481398 -0.17479774
-0.19393295 0.32207698 0.06066808
-0.31656215 0.15384208 -0.02988908
-0.67365718 -0.10261820 0.10611202
0.16984297 0.63896084 0.23878932
-0.41147444 -0.19823241 -0.09638178
0.58560050 0.36093050 0.24191201
-0.15567705 -0.18305160 0.24353287
-0.43105483 -0.02306254 -0.46079427
0.13492885 0.37856501 0.05093589
0.12745553 0.06152959 0.24400347
-0.26031908 -0.12857100 -0.44205731
0.36965811 0.14004669 0.07855728
-0.17170551 -0.40976682 0.24413726
-0.22756371 -0.44691893 0.23791879
0.52884269 -0.16041546 0.24409404
0.38737446 -0.15407407 0.24056464
-0.60300624 -0.11289534 -0.44781628
0.20477729 -0.01125093 -0.24907564
-0.48905954 -0.02847268 -0.46958852
0.13414496 -0.21551239 -0.09623732
0.04069630 -0.40209562 -0.31948692
0.35698879 0.02122988 -0.06990089
0.10988560 -0.31225017 0.23994544
0.33427674 0.33707109 0.23730189
0.47049502 -0.39311340 0.18416986
-0.33452448 -0.48096237 0.18412691
-0.48383063 -0.16311282 -0.31068045
-0.33427274 -0.61523378 -0.32853746
-0.16657652 0.29584062 0.24118879
0.41805884 -0.38249338 0.15219712
-0.02058591 0.08049372 -0.21431348
-0.15037480 -0.64681947 -0.28524089
-0.41445985 0.16185173 0.11097479
-0.34819138 -0.56587517 0.15853420
0.60851848 -0.24761805 0.20210972
-0.52794480 -0.17192341 -0.41563925
0.56629586 -0.18083696 0.12682578
-0.24683799 -0.16483690 0.24392903
-0.37442899 -0.27860984 -0.33708090
-0.38455248 -0.26883885 -0.40699500
0.52229893 0.23612000 0.17420888
0.14088479 -0.41747746 0.07453200
-0.15135419 0.27764362 0.24069631
-0.26232561 0.10076648 -0.08789649
0.32709381 0.69053876 0.10948439
0.45266426 0.08152041 0.24566630
-0.59373975 0.07022720 -0.30591813
0.08423706 -0.23179448 -0.19396940
-0.67040145 -0.11997786 -0.13798539
0.48054829 -0.18105648 0.03804161
-0.06267283 -0.62045264 -0.27598956
-0.39673278 -0.20179486 0.21077558
-0.08146662 -0.59402061 0.08628033
-0.12897350 -0.16778538 -0.43407163
-0.46517760 -0.17748399 0.24054575
0.34799084 -0.18452850 0.06684192
0.07405231 -0.23774821 -0.21469283
-0.32853594 0.06186027 -0.34319431
-0.33656707 -0.42645904 -0.09284890
-0.42595765 -0.16874228 0.00574137
0.40206301 0.12067427 0.24070886
0.19878952 0.13651112 0.24526122
0.16759653 0.25455767 0.02733259
-0.28212351 0.05776267 0.24280563
-0.13206261 -0.09458558 -0.45284891
0.21152547 -0.12218606 -0.23473656
0.03587671 0.56151903 0.15991139
0.59409463 0.41045946 0.21906036
0.38089061 -0.33191717 0.11812131
-0.17177720 -0.27843532 -0.41983172
-0.19425517 -0.13159022 0.24312553
0.58903646 0.38677561 0.16414011
0.16754019 0.62052083 0.08966726
0.43228498 -0.37154657 0.23750216
0.38087392 0.58213151 0.09005764
0.09583893 0.29471380 0.02926363
0.44674954 -0.28003517 0.24099857
0.23952088 0.08886103 -0.04042386
0.25149691 0.41494811 0.05709888
-0.32589349 -0.59943593 -0.07667607
-0.40486321 -0.20768362 -0.13563812
-0.16087103 0.08631419 -0.17150269
0.35209721 -0.14627400 0.24403924
0.12348343 0.54276586 0.24298754
0.07428636 -0.28704762 -0.19314432
0.14770579 -0.25282431 -0.41090441
-0.42066979 -0.17376550 0.20981643
0.07435533 0.08126612 -0.12998104
0.13092522 -0.36632141 0.24390799
0.25657651 0.17852297 0.09665488
-0.04481531 -0.46466383 0.03106876
0.60387516 -0.05323898 0.12877367
0.01012016 0.44951391 0.05917124
0.53204072 0.23398440 0.17748380
-0.27776593 -0.63444316 -0.24352227
0.13625087 -0.41004696 -0.06469043
0.21544555 0.56714964 0.08482921
0.44526988 0.22735752 0.16399974
0.56501698 0.74308085 0.20083046
-0.04536880 -0.53001416 -0.02436512
-0.08720306 -0.42668572 -0.39019156
0.19347836 0.23225760 0.04781808
-0.63805413 -0.09792767 0.14311463
0.02131543 0.06473813 -0.27154326
0.50518286 0.27089959 0.24093342
0.11364149 -0.24522746 -0.43427932
0.45508209 0.17327583 0.24687648
-0.33009240 -0.57451487 -0.21332175
0.02074302 0.37572962 0.04740128
0.01185693 0.33662969 0.03441156
-0.33772287 -0.49332067 -0.23373809
-0.24250285 0.27270466 0.20762771
0.41827360 0.39695796 0.24022093
-0.62635195 -0.00184008 -0.46804738
-0.00238944 0.27617937 0.02973436
-0.38989800 0.01773423 -0.47050536
-0.32968724 -0.58377087 -0.20799100
0.08355968 0.26800060 0.02529371
-0.17546752 0.33736473 0.04598457
-0.03608575 0.48425844 0.23345906
0.57606554 0.29838955 0.17262957
-0.69553959 -0.05430876 -0.25899208
-0.62047374 -0.13036688 -0.28531998
0.16676857 0.35559654 0.24041829
-0.26107880 -0.61438406 0.11674266
-0.50611591 0.11576515 0.23832503
-0.13298258 0.39397597 0.09223492
-0.16157228 -0.61115408 -0.04780228
-0.38463938 -0.02109887 -0.46511218
-0.17458884 -0.57289815 -0.36434090
-0.28045133 -0.44095185 -0.39169213
0.17254065 -0.18499365 0.24711126
0.19555753 0.14354807 0.05336878
-0.41931567 -0.19431221 -0.12194640
0.58102345 0.32859290 0.24241877
0.20842995 0.06313696 0.24289644
-0.46093544 -0.02736121 -0.46062958
0.42134592 0.32818073 0.14388835
0.07315946 -0.22987729 -0.25019133
0.41986603 0.14423594 0.24425220
-0.51153862 0.04451891 -0.43878019
0.44581407 0.65206170 0.09794787
-0.06793812 -0.61928332 -0.18216860
0.10920136 -0.05496602 -0.45693678
-0.35101753 -0.30141217 0.23092943
-0.30719408 0.22615053 0.21398485
0.12513556 -0.41625661 0.03312470
0.16531524 -0.08316354 -0.39604744
0.03860588 -0.03268352 -0.45311421
0.01994635 -0.15360798 0.23994192
0.41501617 -0.37974113 0.14405304
-0.51287723 0.05120352 -0.40373877
0.09420486 0.56813443 0.08768477
-0.14983922 -0.60708523 0.08364648
0.03859629 -0.42077485 -0.33139956
-0.63058794 -0.10846777 0.01439846
0.58743131 0.64040887 0.10898985
-0.64261496 -0.08549957 -0.45473263
-0.24876682 0.13520274 -0.05179433
0.03949917 -0.29569560 -0.30478287
-0.33839610 -0.49836364 -0.16851649
-0.57422483 -0.08804320 0.23888496
0.40093949 0.45600682 0.10929787
-0.69507658 -0.07224043 -0.43159428
-0.07655720 -0.57988703 0.22854716
-0.24517787 -0.40147358 0.24440780
-0.41787326 -0.17559867 0.08101867
0.42547321 0.21841359 0.16311240
-0.03945194 0.05131475 -0.41884282
-0.69158804 -0.08797750 -0.31794310
-0.35760513 -0.29497203 0.22947145
-0.33555564 -0.49863669 -0.35933605
-0.24101876 -0.29355770 -0.41455734
0.59873462 -0.05480806 0.07482502
-0.05620363 -0.50774026 0.23609930
-0.66437101 -0.02836916 -0.46119881
-0.33229658 0.06835683 -0.27177286
0.18586247 -0.15060557 -0.29682505
-0.02546427 0.50623095 0.14778808
-0.04922623 0.11856469 -0.06732132
0.00737179 0.09747717 -0.09123094
0.14278941 -0.41645113 -0.00258982
-0.11625024 0.08762315 -0.13823153
-0.03687915 -0.32795736 -0.40648562
0.59397376 -0.23670492 0.14851746
-0.04428061 -0.54106486 0.04048313
0.25224373 -0.33334771 0.04235838
0.44966641 -0.25544035 0.24114496
-0.55798316 -0.14260413 -0.33740216
0.42781800 -0.32637671 0.24396250
-0.41043320 0.07992304 0.23910257
-0.38308692 -0.23447594 -0.11020838
0.17166615 -0.01821584 -0.28249049
0.44338831 0.32651666 0.14570042
0.47682396 0.16283047 0.17751732
-0.61605299 -0.09846662 0.19957095
-0.33506396 -0.38652602 -0.04931073
0.58624947 0.24506986 0.18583572
-0.20027006 0.31951076 0.14419374
-0.61155009 -0.11823778 -0.12272087
0.57860076 0.11027388 0.09263307
0.14329809 -0.22203633 -0.08596396
0.45485252 0.27940467 0.15947506
0.31592736 0.42225045 0.23908898
-0.31918669 0.07615070 0.24631289
-0.59516251 -0.01299757 -0.46999454
-0.69446540 0.02781220 -0.18742104
0.12552463 -0.41746461 -0.00849124
0.59576058 0.68717849 0.21293649
0.26571557 -0.12430361 0.23806033
0.02003944 -0.46781853 -0.28195882
0.19780968 0.03138066 -0.08830322
-0.07639555 -0.03872370 -0.46135876
-0.46846771 -0.18725590 0.24435249
-0.48378700 -0.13000870 0.11151771
0.17012592 -0.04996060 -0.35299075
0.50109994 0.69573975 0.10653973
0.55648088 -0.24641514 0.14245030
0.49791840 0.15701625 0.23565117
0.28802186 -0.15793443 -0.12584558
0.09158911 -0.36775243 -0.14702106
0.32966524 -0.21080628 0.07697129
0.59165633 0.70324707 0.17479089
-0.13453966 0.16371304 -0.01354003
0.60106266 -0.00974742 0.11664020
-0.25982094 -0.16389675 0.24448898
-0.56137419 0.06626301 -0.26316634
0.10585225 0.11158052 -0.06253525
-0.39192981 -0.20727620 0.02609295
-0.03233823 -0.44907746 -0.02634530
0.53493488 0.72105920 0.23471659
0.30864033 0.69251025 0.11648493
-0.03920863 0.25217524 0.02697164
-0.32246980 -0.09510243 0.24638692
-0.16485384 -0.08508655 0.24494863
-0.34167930 -0.30558768 0.14746478
-0.33740675 -0.48606941 -0.13945377
-0.41215685 -0.21748978 -0.30400437
-0.69333279 -0.10993603 -0.13244209
0.51379275 0.45853943 0.24431637
0.59196520 0.43286601 0.24153623
0.30425030 -0.29152334 0.07443270
-0.51102591 -0.12616634 -0.09257796
0.51366591 0.51299369 0.24190041
-0.07827504 -0.30297482 -0.41692770
0.18322738 -0.16516152 -0.29237691
0.56930172 -0.21266490 0.14294752
-0.21678151 -0.28865391 0.23956811
-0.48589849 0.00185178 -0.46972442
0.54113150 0.48793003 0.13587861
-0.05857674 0.10110664 -0.10134590
-0.34145838 -0.35092354 0.18888918
0.02791449 -0.40984237 -0.38190794
-0.39050898 0.00274403 -0.46659416
0.43431398 -0.23418581 0.23810035
-0.03384301 -0.49273655 -0.36745408
0.38381287 0.03115495 -0.03744461
-0.41086954 -0.10424531 0.24700755
-0.40693125 0.06246136 -0.35051131
0.36549798 -0.36192364 0.23668960
-0.23646739 -0.40895006 0.23888761
-0.14383946 -0.63910246 -0.35942927
-0.33725336 -0.38578328 0.16445100
0.09015776 0.12447573 -0.03974560
0.39905280 0.51601434 0.24094334
-0.48243728 0.08450343 -0.16266352
0.47301421 -0.10255525 -0.02347182
0.09844700 -0.16991930 -0.44112155
0.00164111 0.34546101 0.24322259
0.21143392 0.66454017 0.17574275
0.11720920 -0.42059618 0.10496709
-0.34996080 0.19315606 0.21843857
0.35143080 -0.20904294 0.08811983
0.00277292 0.17640252 0.24786076
-0.42676681 -0.11300449 -0.45676020
-0.13437843 0.19672184 0.23890528
-0.12533796 -0.64678991 -0.30317840
-0.27626619 0.12525943 -0.05228014
0.44977903 -0.34966940 0.14535469
-0.52632922 -0.10770477 0.05816455
-0.40564263 0.17216276 0.19429964
-0.69737744 -0.03210740 -0.09876336
-0.11672757 -0.16912119 0.23957732
0.13316651 0.13636443 0.00772551
0.17540671 -0.21096262 0.24062461
-0.69674671 -0.13178238 -0.42907807
-0.18122637 -0.10505456 0.24318576
-0.52605969 0.12185308 0.16547498
-0.69048285 0.07314538 0.04181609
-0.24269827 0.14667591 -0.02877747
0.49184486 0.74257255 0.17544511
-0.43032643 -0.19643298 -0.29432601
0.15578157 -0.25560835 0.24242431
0.08118366 -0.42102614 0.14724430
-0.10089021 0.44099092 0.18389341
-0.40888306 -0.22728744 -0.35184866
-0.52948391 0.11847361 0.07469037
0.56104803 0.67356002 0.23507532
0.23479569 0.51791090 0.06952670
0.15220541 -0.29606956 -0.06327400
0.08008125 0.41304183 0.05457011
-0.14746693 -0.02927793 -0.46813947
-0.26577783 -0.63591373 -0.22822604
0.32433170 -0.19773847 -0.05886116
-0.05182775 0.08280223 -0.16762346
-0.24894781 -0.03854766 -0.46134678
0.56044137 0.04591366 0.24158943
-0.22590789 0.06292963 -0.34440088
-0.04195284 -0.45847204 0.03301343
-0.43597320 0.08858501 -0.14933054
0.55061769 0.71158898 0.10423996
0.16340576 -0.21656844 -0.05989262
-0.05300116 -0.58315861 -0.10048908
-0.14218059 -0.31367236 0.24119690
0.59865355 -0.28132710 0.17270207
-0.06956905 -0.59187770 -0.05254128
0.44206643 0.12225578 0.24187276
-0.23657954 0.27766335 0.06714153
-0.64498663 0.07031887 -0.30113450
0.42868480 0.21324307 0.16415602
-0.39355129 -0.26646304 -0.35904586
-0.16493428 -0.61193097 0.04043747
-0.26307011 -0.25227192 0.24457955
-0.34479004 -0.47638103 0.01445954
0.59898055 -0.10709320 0.08875610
0.42290926 0.53323662 0.10850590
-0.64578462 0.07401527 -0.25573599
-0.01790589 0.26885760 0.24795124
-0.43845442 -0.18880774 -0.18426779
-0.04532550 -0.55007696 -0.33043289
0.12446699 0.24873754 0.02458079
-0.56851053 -0.15731563 -0.44268408
-0.17149553 -0.63777578 -0.25122610
-0.23625167 -0.60097361 0.07746854
-0.12786672 -0.60168004 0.08286692
0.08214286 -0.16445914 -0.44292048
0.58495903 -0.04764264 -0.00963331
0.44966301 -0.27008525 0.24330330
0.55192149 0.07167377 0.09425697
-0.41011736 0.16609956 0.11167414
-0.40788597 -0.22933328 -0.33519959
-0.40081769 -0.20780048 0.21842241
-0.45784271 -0.15233684 0.22215530
-0.11655388 0.03529450 -0.46448648
-0.39320195 0.08942335 -0.15259127
-0.65017092 -0.06906189 -0.46035305
-0.15354094 -0.04012100 -0.45838603
0.59998119 -0.02761526 0.06497507
0.58080029 -0.18446167 0.02458863
0.00758092 -0.46892652 -0.26801163
0.43252793 0.68408358 0.10283077
0.52502787 0.33609250 0.24632099
0.37085178 0.13355485 0.06472926
-0.15603018 0.09911946 -0.10563324
0.34347355 -0.24395552 0.09350491
0.49501112 0.31364399 0.24497840
0.44254830 0.14619774 0.15433654
-0.59250319 -0.11644305 -0.09128693
-0.05809256 -0.57006490 0.12878302
0.60108137 -0.27758306 0.22396624
-0.12226471 -0.25626978 0.23765761
-0.13224894 0.39646083 0.22574058
-0.69537616 -0.06258103 -0.41275895
0.01559471 -0.43746760 -0.03637403
-0.27153289 -0.22849295 0.24895284
0.53125584 0.35051927 0.15590003
0.29718760 0.00402453 -0.14827433
-0.29046592 -0.45288262 -0.38502622
-0.14197788 -0.54454720 0.24923435
0.21028116 0.61440742 0.24600220
0.59738219 0.12056721 0.19238874
-0.34306744 -0.34753376 -0.34150088
0.21629736 0.17953259 0.07476017
0.03084823 -0.30389181 0.24207589
0.06461923 -0.43769640 -0.01822422
0.55135906 -0.11726129 0.23737678
-0.20735569 -0.24607447 -0.42152938
-0.16000268 0.13255924 -0.02890791
-0.34988850 -0.28382608 0.07490946
0.54968691 -0.10504514 0.24329194
-0.26090479 0.08393830 -0.14392459
0.59455121 0.03717165 0.24217212
-0.05783857 -0.03628642 -0.45616889
-0.19830288 -0.64453638 -0.30634594
-0.20367861 -0.62859976 -0.36155534
-0.22572200 0.02142239 -0.46828884
-0.33641481 0.07302299 0.24441427
0.28730154 -0.07859609 0.24373391
-0.24111286 -0.55131626 0.23931864
0.59814918 0.01616964 0.13274491
-0.11757701 -0.01889026 0.24090108
-0.29001731 -0.00852872 -0.46522310
0.23911113 -0.32430139 0.24449721
-0.16850594 -0.60311604 0.18198565
-0.47803035 -0.14986095 -0.11434416
-0.46458468 -0.16585417 -0.21261281
-0.39199874 0.10929835 -0.08296840
-0.68982053 -0.07488638 -0.28834546
-0.38119775 0.17465392 0.10699219
0.33147684 0.13936132 0.07906297
-0.00221795 -0.27887031 0.24499419
-0.06157001 -0.43332747 -0.39201465
-0.20078006 -0.39599398 0.24190572
-0.36400005 -0.27489623 -0.07646428
-0.22451130 0.17926797 -0.00398423
-0.03939163 -0.46590951 0.01377858
0.18062510 -0.40254742 -0.00990701
0.12988845 0.00885335 -0.19411902
0.00497328 -0.47469321 -0.28834423
0.34921867 0.32951453 0.24253047
-0.69203997 -0.14591072 -0.43963248
-0.25612921 -0.61845028 -0.12195103
0.32656461 0.00389701 -0.11577205
-0.27956733 -0.10324202 -0.45295247
-0.60937858 -0.14406031 -0.29123569
-0.34171954 -0.48423848 0.00655703
0.03464484 -0.38238379 -0.33982444
0.43670532 -0.17819510 0.04481648
0.51010239 0.04597668 0.04021466
-0.16732365 -0.53342307 -0.37417966
-0.53181475 -0.13462496 -0.16391301
0.18755664 -0.01383016 -0.27387276
0.23315766 0.29842657 0.23803091
0.20561932 -0.09207629 -0.26667917
0.05513253 -0.26102301 -0.26500124
0.59286523 0.00690876 0.07589333
0.48131439 0.41030771 0.13566780
-0.07457890 0.44739977 0.05973497
0.29024285 0.37811705 0.08491001
-0.04469031 -0.49126938 0.07254633
0.23976159 0.12799199 0.00740983
-0.19414055 0.30671141 0.03468107
0.20587809 0.13614064 0.04162097
0.18607184 -0.21431178 -0.27156609
0.57110846 0.65135777 0.10692838
0.28025600 -0.05676577 0.24024352
-0.68932128 -0.11223160 -0.15103993
-0.30187327 -0.46372846 -0.38560838
-0.20817712 -0.53267324 0.24503675
0.35561427 0.51316458 0.08778720
-0.47713974 -0.15196545 -0.14416756
0.43034738 0.72939241 0.21624622
0.48059776 -0.16384603 -0.00375275
-0.69353366 -0.03758107 0.07935524
0.50228858 -0.39299706 0.21185863
0.59122336 0.02662148 0.04791673
0.37703437 0.24835362 0.14090264
-0.26972902 0.03741144 -0.47423714
0.41502166 0.43057668 0.24014199
0.57817650 0.25177133 0.18612397
-0.35033634 -0.30683136 -0.10387253
-0.07446443 -0.60133040 -0.03619187
-0.31514803 -0.51096153 0.24078777
-0.30483931 -0.62259924 -0.19191718
0.08640102 -0.01551832 -0.33127648
0.33492336 0.54807270 0.24894229
0.43985686 0.51857686 0.11207828
0.03632299 -0.08947197 -0.44939008
-0.09776819 -0.60075998 0.18006510
0.06770812 -0.41996861 0.20041150
0.21784508 0.66213632 0.21745878
-0.07401062 -0.63346541 -0.28212497
0.13653499 0.09790236 -0.09816401
0.20830150 0.08338146 0.24245018
0.12023290 0.25866592 0.24074721
0.01594112 -0.39345002 0.24072921
0.06998764 0.12361749 0.24665737
-0.04662269 -0.53877652 -0.06156547
-0.03720228 -0.49393675 -0.28609949
0.09186031 -0.33831549 0.23490465
-0.04333046 -0.53887963 -0.19591546
0.39539799 -0.23782825 0.24618116
0.41554555 0.14940651 0.24145454
-0.36174476 -0.26072922 0.15336731
-0.61652541 0.06036246 0.23969007
-0.15469801 -0.22412848 0.24458674
0.49030766 -0.30930227 0.15478221
0.48821267 0.02688180 0.24078700
0.59439540 -0.31224865 0.22651309
-0.36338404 -0.26155946 0.03980437
-0.11743929 0.31051421 0.23682782
-0.69258404 0.03371674 -0.29232454
0.52391648 0.74051881 0.14055634
-0.06118722 -0.59313214 0.09367043
-0.44886553 0.07646525 -0.28669310
-0.04798074 -0.47517493 -0.07508826
0.03373150 -0.37899569 0.24013698
-0.09123244 0.08113408 -0.20486704
-0.33770156 -0.38770181 -0.38630465
0.54662144 0.43825421 0.24403954
-0.08204073 -0.25380683 0.24331394
0.30207822 0.53820884 0.07884558
-0.55179262 -0.10690948 0.22368073
0.47215983 -0.17314859 0.24734512
-0.12574676 -0.00843273 0.24304178
0.31301379 0.25454944 0.11457966
0.38008016 0.49064559 0.10208242
0.27379695 0.65356565 0.23731008
-0.03611348 -0.46543524 0.21303141
0.28548682 0.23214293 0.23678640
0.46492586 0.34641311 0.24272665
-0.25348315 -0.60629106 0.08563842
-0.37927258 -0.22556207 0.04055589
-0.27982193 0.08797092 -0.16855457
0.16184698 -0.25120017 -0.37693700
-0.08634570 0.36509860 0.04745647
0.57661462 0.50248760 0.13934414
-0.26334003 0.00477358 0.24304235
-0.16999485 0.20516071 0.01458637
0.18430047 -0.00602325 -0.25499076
-0.39314872 -0.20767546 0.17531991
-0.69386959 -0.03549054 -0.13246237
0.59001231 0.69289875 0.19869691
-0.23811513 -0.41987020 0.23850533
-0.15170437 0.03770344 -0.46139002
0.12615432 0.17347489 0.00603304
0.59439230 0.14061682 0.14594242
0.16515566 -0.12692197 -0.39067191
-0.33509600 -0.52640343 -0.22827841
-0.29918814 -0.62229252 -0.10287039
0.03358332 -0.38345236 -0.34914106
0.22053531 0.54714704 0.07930732
-0.66048121 -0.09491076 0.16744313
0.39440387 0.51956308 0.24060538
-0.03293067 -0.44687685 0.16795751
-0.57918715 -0.11632095 -0.06878178
0.10771292 0.40076846 0.24216169
-0.60040331 0.11196261 0.19112685
-0.27919322 -0.59820461 0.11089477
0.44597548 0.46329373 0.12948337
-0.11648783 -0.61851561 -0.11296531
-0.14016253 -0.27575275 -0.42032957
-0.17032367 0.05446227 -0.41221142
0.40471151 -0.17737746 0.09262589
-0.19015528 -0.61814201 -0.14736800
-0.04704776 -0.17891803 0.23930010
-0.57873917 -0.13853879 -0.30827132
