0.56196791 -0.58616817 -0.19241405
0.14182541 0.48091847 -0.02961424
0.44185534 -0.58389258 -0.13201502
-0.62454587 -0.28312886 0.19049796
-0.66033530 -0.00028233 -0.34251720
0.64253807 0.11503138 -0.11330657
-0.70409602 -0.22698677 -0.38744414
0.48938105 -0.11126502 -0.08091278
-0.78664267 -0.14279270 -0.04166138
-0.00516640 -0.41662592 -0.39874583
-0.05880991 0.04382563 0.46383291
-0.20169507 0.61853349 0.05509054
-0.78163010 -0.25049517 -0.35425273
-0.77896678 -0.27774575 -0.35865593
0.30859843 -0.29684260 0.23027797
-0.36840880 -0.43601525 0.01080412
0.26048505 -0.55803376 -0.35262823
-0.51869440 -0.52703512 0.00177553
-0.18736893 0.64323026 0.04896771
0.68256235 -0.54273427 -0.17599681
-0.29772890 -0.61337662 -0.20844895
0.00487754 0.40903670 0.21649906
-0.33563319 -0.09506188 -0.29917303
0.25959760 0.62353426 -0.34538299
0.23459032 -0.61574608 -0.17020968
0.39723143 -0.42114753 0.19980079
-0.03346647 0.22776636 0.39441630
0.62419128 0.03424928 -0.37187707
0.14072335 -0.06492572 0.57876128
0.37545913 -0.11783129 -0.23210490
0.58639246 -0.10565141 0.13428073
-0.42896155 -0.16803613 -0.13627139
0.60459393 -0.53632665 -0.33173615
-0.51657242 -0.18055436 0.11673476
0.17098144 -0.59493065 -0.30004504
-0.26363003 -0.41068572 -0.10503055
0.64904791 -0.44045377 0.03309860
-0.20843074 0.62678570 -0.35506335
-0.04645656 0.28088593 0.48017618
0.38722521 -0.44448256 -0.39663821
0.47138140 -0.20031050 0.06307463
0.71696556 -0.20529908 -0.37803620
-0.04225052 0.65988976 -0.38889337
0.05637824 0.77956271 -0.03824259
-0.27595299 -0.60177416 -0.29401609
-0.74725449 -0.47810632 -0.33510545
-0.10330220 0.76905215 -0.03594106
-0.35945284 0.34484071 -0.37516075
0.49228567 -0.59932709 -0.19155186
-0.51500618 -0.08249426 -0.07193303
0.24325055 -0.38013166 -0.39599818
0.35784182 -0.07370639 0.43788803
0.40195242 0.34426230 -0.08651093
-0.08030200 0.55672681 0.22488853
-0.37322056 -0.39359111 0.25226447
0.04395035 0.35570019 0.28727043
0.48238710 -0.23376659 0.30021253
0.34572029 -0.52855456 0.00392847
0.07111246 0.48761767 0.27980661
-0.27736157 0.62672478 -0.28866914
-0.18672365 -0.30506110 -0.37191445
-0.36659580 -0.26500458 0.23947017
0.25734279 0.15082256 -0.31952006
-0.57210046 -0.10678662 0.02313924
0.60517317 -0.47925824 0.01805877
-0.00588763 -0.52438408 -0.36999899
-0.07849013 0.45922139 0.31553501
-0.33480141 0.11691839 -0.23414707
-0.77851713 -0.13795775 -0.02418737
0.22241661 -0.50606602 -0.02513444
-0.14287940 -0.26318958 0.40209705
0.10745657 0.81007284 -0.12703460
0.24435987 0.38297719 -0.40002018
0.48925471 -0.41896123 0.17080459
0.42116949 0.41834149 -0.33937287
-0.09347934 -0.53578413 -0.36651587
0.03127321 -0.01775415 0.46709174
-0.48898381 -0.57275438 -0.09282707
-0.63188267 -0.08644950 0.12309254
0.46292618 0.03263368 -0.13757095
-0.46557099 -0.34025052 0.26181412
-0.76507980 -0.54035217 -0.21492335
0.55285150 -0.10599241 -0.40314025
0.21910135 0.47977486 -0.04072179
0.57820028 0.27405718 -0.19769076
0.14667036 0.57592440 -0.39289626
-0.83090138 -0.40916008 -0.07593544
0.74219334 -0.41892344 -0.02182336
-0.55288178 -0.31972605 0.21854044
0.25729901 0.04944929 0.41679877
0.70800835 -0.12939569 0.03345437
-0.19619979 0.05164567 0.55221510
-0.06991395 0.42441115 0.34666222
0.27958360 0.07103454 0.44152597
0.21901178 0.47221485 -0.40336442
-0.16044922 0.15361810 0.52617395
-0.12638627 0.61218262 0.14396068
-0.27593943 0.13148677 -0.34595910
-0.15648006 -0.46034282 -0.39004734
-0.32469305 -0.59389323 -0.11001958
-0.00892144 0.77426088 -0.35269395
-0.08965328 0.38332349 0.38078028
-0.32158375 0.19800851 -0.39375123
-0.56326312 -0.13607034 0.27911922
0.37436405 -0.19899815 0.40222269
-0.32221991 0.05000907 -0.29038975
0.78858930 -0.51489174 -0.20668459
0.08768567 0.62050921 0.13457505
-0.84578317 -0.48837566 -0.24931875
-0.12419567 -0.34991562 -0.22390217
0.48216817 0.36755919 -0.29560459
-0.23249732 0.22506720 -0.26662171
-0.59619462 0.06981944 -0.35680613
-0.42308673 -0.21783471 0.21297523
-0.11611407 -0.61571372 -0.22647062
-0.38961497 -0.14905947 0.42729855
0.78665662 -0.14125612 -0.33006540
0.07773347 -0.23073101 0.49241510
-0.39023837 -0.59606707 -0.11830267
0.18975662 0.74682736 -0.12284756
0.12926440 0.53895438 0.19624688
-0.01250732 -0.62570322 -0.20814127
-0.00640520 0.73828238 -0.36150062
0.45747364 -0.23997697 -0.39463943
-0.36812732 0.03595574 -0.23086274
-0.51456249 -0.13907078 0.16901723
-0.00468334 -0.08829968 0.46093017
0.86974126 -0.34935740 -0.16605127
0.68605763 0.09483016 -0.24497333
0.31119147 -0.05624002 0.35881618
0.47871044 -0.40718484 0.17637053
0.15662518 0.19412594 0.47936845
0.23952153 -0.05919096 0.39505103
-0.36332691 -0.24042332 -0.17641982
0.37344009 0.26652378 -0.39943862
-0.41724783 -0.33481488 0.03308685
-0.29704449 0.57455671 -0.07162695
-0.23165058 0.07857694 0.44525617
0.40776172 -0.47383475 -0.38434881
-0.59641850 -0.50945437 0.00297505
0.50919229 -0.33957273 -0.40357369
-0.57998002 0.04909008 -0.06006803
-0.44936636 -0.39052856 0.22410983
-0.59473985 -0.28741148 0.21070267
0.15086630 0.31486136 0.33598971
-0.08504234 -0.48433059 -0.11263710
0.30436853 0.62369370 -0.15301648
-0.42470905 -0.02907233 0.38248512
0.81809461 -0.35842809 -0.07466011
0.51684707 -0.09478705 -0.05996142
-0.03859173 -0.17643243 0.57171154
0.35890281 -0.31692123 -0.40011930
-0.51298189 0.29926819 -0.26849374
0.37075269 -0.26061022 0.17943686
0.57574904 -0.17736778 0.23339094
0.24323361 0.22336423 -0.23673961
-0.61926365 -0.05333495 0.00740348
0.29258490 0.21570003 -0.20637932
0.14727226 0.33606362 0.38202643
0.45777646 -0.06411433 0.27515569
-0.73798823 -0.03754655 -0.08836114
0.02312645 -0.38928735 -0.19019628
-0.32008407 -0.02295141 0.48709738
-0.27812096 -0.61571890 -0.21944690
0.02355689 0.73545855 0.03015659
-0.02329160 0.28646344 0.35347953
-0.83655703 -0.36466780 -0.32653272
-0.18050218 -0.05916154 0.57030338
0.09719452 0.07249995 0.57206112
-0.75152689 -0.17334303 -0.35256103
0.61790776 0.16605951 -0.30969745
0.34670371 -0.10183860 -0.30896425
0.05813906 0.32306153 0.42978588
-0.04738297 0.48569429 0.09299681
-0.68552083 -0.13668925 -0.37467590
-0.77378798 -0.19684121 0.02987422
0.66465056 0.01441721 -0.35492885
-0.02717447 0.46402341 0.14529943
0.37518236 -0.42779857 0.20685223
0.20604052 -0.34908283 -0.38951409
-0.64275545 -0.36368549 0.11795648
-0.63283288 -0.41539001 0.08369257
-0.01717177 -0.59320122 -0.10278323
-0.62035877 -0.57127172 -0.14218731
-0.31403565 -0.59303838 -0.29138985
0.67361575 -0.02289018 -0.36285260
-0.66780722 0.06995623 -0.27356601
0.12954180 0.38762152 -0.39012575
-0.33427349 -0.27142501 0.27586401
0.05526579 -0.08807765 0.44761387
-0.00007708 -0.11992005 0.58508611
0.25069124 0.17645837 -0.28381014
0.36609051 -0.07419319 0.32571733
0.60364944 -0.44909537 0.06094064
-0.78260529 -0.10649806 -0.09281617
-0.08537321 0.83535707 -0.14664808
-0.15665956 0.62944174 -0.37560472
-0.65112734 -0.54794019 -0.31122145
-0.22893271 -0.26677507 -0.25579628
-0.09536429 -0.22854868 0.41916013
0.46520123 -0.37455517 -0.40083766
0.72087485 -0.33594289 0.05069634
0.30746195 0.19444810 -0.38856447
-0.39805719 0.21650669 -0.13050799
-0.84384644 -0.39594197 -0.31890056
-0.51676589 -0.17616299 0.12435258
0.03100625 0.45825362 -0.08063921
-0.53866673 -0.57400286 -0.11556141
-0.31684867 0.00859130 -0.33566236
-0.12897138 -0.60029066 -0.11498666
-0.15554245 0.66240644 -0.36479196
0.70894361 -0.42450881 -0.37050208
-0.53417671 -0.54088372 -0.34454975
-0.32129213 -0.27751163 0.27374846
0.34041145 -0.31481507 -0.39811170
0.51011670 -0.38186055 0.18183284
-0.23495780 0.31567830 -0.39767772
0.68887204 -0.54788452 -0.19189042
-0.14122376 0.55671877 0.20034921
0.34667408 -0.45265204 -0.38817656
-0.19033922 -0.32957330 -0.38096133
-0.47937059 -0.24201807 0.09106355
-0.35482907 -0.44796646 -0.00887623
0.57020938 -0.55117607 -0.33522007
0.07351760 0.83054644 -0.13613859
0.16749105 0.42719352 -0.40060455
0.84710681 -0.25708607 -0.30610338
0.17703184 -0.15233672 0.52835000
0.11930590 0.25092942 0.36717138
-0.87130362 -0.32193366 -0.09014548
0.82474524 -0.28107262 -0.07147418
-0.30766258 -0.27163672 -0.37277424
0.17942478 -0.33056784 -0.37968770
0.30663872 -0.49947250 -0.38308302
-0.56895661 -0.08901173 0.20245509
0.61985517 0.15102218 -0.31998181
-0.49219558 -0.02738595 -0.11216654
-0.56715900 -0.36292526 -0.39748609
0.80699241 -0.45840842 -0.13511461
0.06572349 0.07388853 0.58377719
-0.60730153 -0.15298292 0.22947204
-0.10399968 0.81553560 -0.28878456
0.06197082 -0.57418185 -0.08280469
0.63776320 -0.09597166 0.07821071
0.15243110 -0.41524148 -0.12781478
-0.66400707 0.01295069 -0.33110708
-0.20273028 -0.35282835 -0.18517354
-0.72403419 -0.06936440 -0.33592984
0.31641740 -0.44419587 0.07676022
0.28668833 -0.22656643 0.43352607
0.06337318 0.85171485 -0.25704801
-0.14086585 0.46714926 0.12070131
-0.54287928 -0.27318656 -0.39826232
0.64423847 -0.03818357 -0.02344921
0.76564634 -0.16012800 -0.34939951
0.43804863 -0.54573077 -0.34318432
-0.14912795 -0.60547864 -0.25896186
-0.25108156 -0.56325072 -0.34181920
-0.39018232 -0.15794599 -0.18406343
0.68096399 0.11162174 -0.19131795
-0.56069762 -0.11404096 0.01202704
0.17023511 0.21840835 0.45764783
-0.38282546 0.16540577 -0.16738528
-0.23404346 0.63786912 -0.01894937
-0.14483036 0.12570982 0.44688419
0.33949143 -0.17926383 0.28107113
-0.33106014 -0.61524463 -0.18605131
-0.06627639 -0.13309988 0.45500198
-0.56068605 -0.50444210 0.03700104
0.05052210 0.37265646 -0.38294417
0.73356700 -0.07671136 -0.34237191
0.05692499 0.61525810 -0.39544114
-0.17931989 0.55654073 0.16704598
-0.46063119 -0.17016566 -0.08250947
-0.10543513 0.22862019 0.39878741
0.10175411 0.42317882 -0.39210686
-0.28212646 -0.46902776 -0.05511963
-0.36418948 0.52687478 -0.12432387
-0.31797737 0.37084076 -0.38245898
-0.63627708 0.00256392 -0.35789630
0.09520471 0.55197304 0.20605865
0.18153135 0.67957968 -0.00169167
-0.36636385 -0.26218945 0.37545958
0.01257440 -0.60925668 -0.13299228
0.21851072 0.73951113 -0.19258621
0.50662959 0.33411184 -0.12995140
-0.44583020 0.33863074 -0.08739632
-0.42064866 0.45297945 -0.17165619
0.16761379 0.68925929 -0.00511433
0.65513259 -0.53032494 -0.31832692
-0.38798991 -0.33234391 0.32670975
0.06889684 -0.46705830 -0.10997409
-0.32844031 -0.37867010 0.25244087
0.08610269 -0.17963395 0.54052347
0.36553496 -0.11053488 -0.25531119
0.41936350 0.02934802 -0.18756250
-0.18915096 -0.53873110 -0.35833052
-0.20475471 -0.26113907 0.45066518
0.03465758 -0.03375097 0.46252966
0.66196364 0.11231381 -0.14575695
-0.43736422 0.05153811 -0.15246564
0.44718307 -0.42106974 0.18423608
-0.06700867 0.32642388 0.43498486
0.17592093 0.77552259 -0.15790778
-0.39240640 0.48176059 -0.13612059
-0.65373212 -0.46613175 -0.37372732
0.54154551 -0.12543210 -0.39574400
0.65453362 -0.50402111 -0.03672294
0.24444039 0.47998181 -0.39672691
-0.01879036 0.01677393 0.60820270
0.36728328 -0.34313294 0.31646168
-0.43679672 0.42851338 -0.18267435
-0.04793296 0.37355471 -0.37347037
-0.19982490 0.28120261 0.40599108
-0.19271030 -0.56107306 -0.34518248
0.54852825 0.08343731 -0.07147503
-0.01981981 -0.18096706 0.44461292
-0.35041231 -0.41989720 -0.02550940
-0.07336096 0.48629320 0.06627037
0.55113333 -0.53673422 -0.34854704
-0.63067824 -0.23550478 0.20032826
-0.07001044 -0.60575402 -0.28402236
-0.57924873 -0.58565301 -0.18473616
0.06712200 -0.30479094 -0.35172796
-0.34073165 -0.14934120 -0.34560022
-0.85882378 -0.37512279 -0.09739268
0.00045068 0.23735023 0.50950277
0.32484049 -0.51604629 0.00922558
-0.24127950 0.21161965 -0.27905399
-0.42545205 -0.18761489 0.23449649
-0.21796757 -0.20380110 0.37671265
0.13321400 -0.34728053 -0.21211210
0.43597806 0.06594258 -0.39892060
-0.52767646 -0.27659550 0.25802776
-0.55267596 -0.31763998 -0.40053213
0.59858328 0.22461024 -0.15532997
0.37729412 -0.24975336 0.18547562
-0.05410937 -0.46182513 -0.12348077
-0.32087034 -0.10683477 0.36494684
-0.35446435 0.36974186 -0.37194309
-0.35695139 -0.57737488 -0.07671903
0.39839372 0.52438509 -0.23505545
0.36110097 -0.47860909 -0.38697141
-0.52642846 -0.09902415 0.21776828
-0.31295255 -0.19571018 0.45166758
-0.18377483 0.25504106 -0.30595791
-0.11310564 0.41736436 -0.13155149
0.47841784 0.00320333 -0.39740676
-0.24177726 0.22048277 -0.38985211
0.48985070 -0.16665578 -0.39615548
-0.14904256 0.40676722 -0.12379909
-0.62008601 -0.39537942 -0.38829166
0.56544805 -0.16494662 0.23314878
-0.23206201 -0.30895865 0.40532511
0.33734977 0.52868366 -0.34697625
-0.83859944 -0.34709328 -0.32154012
-0.30762067 -0.57179755 -0.06947921
-0.40118745 -0.34410998 0.11091155
-0.14796934 0.33579889 0.33484548
0.75769675 -0.01848952 -0.16797084
0.07262663 0.29146016 0.45002151
-0.43088400 -0.09097913 -0.15453428
0.62610179 0.06398509 -0.06929773
-0.41564089 -0.44080758 0.17522942
0.10489083 0.71486938 0.01869705
0.56743276 0.10260796 -0.37220785
0.36877385 -0.16885197 0.41193444
-0.80839193 -0.14244148 -0.25988543
-0.38792422 -0.17846239 -0.37118778
-0.63015205 -0.30917326 -0.38940576
0.19735552 0.16262437 0.42052147
-0.13685666 0.65537542 -0.37589875
-0.22454911 -0.25852850 0.45062545
-0.80576289 -0.10688382 -0.16139629
0.42999738 -0.11057745 -0.39170262
-0.67959261 0.04655337 -0.07870096
-0.38647601 0.32146287 -0.08782423
-0.05324074 0.46273804 0.31654489
0.10359588 0.17949386 0.52283257
-0.70588040 -0.19213855 0.12497137
-0.38486692 0.48316523 -0.09684241
-0.81611663 -0.31579980 -0.34462810
0.12044372 0.41992301 0.23598264
-0.23999846 -0.35855719 -0.40050340
-0.05319251 -0.62068444 -0.19809118
0.07338855 0.67688143 -0.37972376
-0.20119166 0.73742932 -0.27675340
0.42618865 0.39999118 -0.09434110
-0.67969406 -0.48277998 -0.35125089
-0.27072507 0.35856628 -0.11483173
0.08251592 -0.30871683 -0.28959531
0.18422739 0.73158491 -0.32810503
-0.41522324 -0.29834035 -0.03665043
0.32880875 0.04074181 -0.28861859
0.12488431 -0.35880509 -0.38671950
-0.42579341 -0.58768362 -0.11370206
0.37811291 -0.10268949 -0.23549339
-0.22023556 -0.61032766 -0.24505076
-0.80875367 -0.51839399 -0.23521438
0.57510501 -0.02763475 -0.39147368
-0.25888491 -0.34803191 0.32364970
0.49884531 -0.08419910 0.24066699
0.58163607 -0.01413904 -0.04329734
-0.27014247 -0.03378272 0.52415669
0.12851331 0.25464612 0.46292615
0.86779696 -0.28279689 -0.26786199
0.41406748 -0.15995342 0.22553281
-0.29735819 -0.07835542 0.39669636
0.08411831 0.60426748 0.15280956
-0.76227623 -0.17986628 0.04674766
-0.32833710 0.08443268 -0.37457097
-0.14074354 0.48472002 -0.01516207
-0.08062880 0.85380703 -0.19073030
0.13408369 -0.52084255 -0.37279496
-0.42072171 0.29219028 -0.36724234
0.28424603 0.30679834 -0.15158761
-0.31350577 -0.29060313 -0.38598919
-0.45215914 -0.26833066 0.01547900
-0.21261273 0.24757548 -0.26727304
0.11888222 -0.16017398 0.41782266
-0.72755075 -0.37676615 0.05707202
0.58021641 -0.30106640 0.18597826
-0.08425724 0.47834343 0.08261379
0.67086196 -0.54318732 -0.15482363
0.05465902 -0.15069288 0.44458461
-0.33754224 0.49592268 -0.04936329
-0.03389965 0.46859193 -0.05568641
-0.00444446 -0.31619218 -0.33607122
0.82830292 -0.14818347 -0.23872727
0.34723452 -0.19531685 0.41828832
-0.29080433 -0.03268096 0.41227153
-0.27049258 -0.27824450 -0.23841557
-0.29589373 -0.16714135 0.35610303
0.20860834 0.70814699 -0.09906524
0.79567051 -0.21739936 -0.03640740
0.65008366 -0.11789453 -0.39070714
-0.70961952 0.02863168 -0.23925537
-0.66698158 0.00372060 -0.04116206
0.12482223 0.49110258 0.13236383
0.26895049 0.46176395 -0.38989595
-0.34200782 -0.18901765 0.44136745
0.09348830 0.49037579 0.10911381
0.21421680 0.29390982 -0.20142257
0.83269328 -0.33080319 -0.08502527
-0.70158792 -0.55140120 -0.29315874
0.27564573 0.66860777 -0.15560356
0.65925157 -0.51785487 -0.33891305
-0.36343163 0.02051786 -0.24270707
-0.75290799 -0.06775607 -0.29128000
0.01595663 0.87897688 -0.23488382
0.40351301 -0.22201741 0.18076727
0.06507429 0.62315005 0.13614897
0.44409633 0.44711262 -0.28775936
-0.03600457 -0.11528197 0.46170020
0.20037989 0.22274643 0.40995711
-0.40875959 -0.31089231 -0.04929495
-0.58702260 -0.06875023 0.00595673
-0.53196031 -0.26460502 -0.39466935
-0.03874162 -0.44197881 -0.40065658
-0.00588161 0.24767059 0.38407505
-0.32454726 -0.23749021 -0.21428949
0.06963918 0.47156566 0.14780161
0.32670829 0.61143565 -0.21843860
-0.16933002 -0.08248891 0.44941714
0.15671670 -0.26157200 0.38516515
0.38819474 -0.51727772 0.02372016
0.50085115 -0.13889199 0.15645127
0.69010282 -0.01997863 -0.06448908
0.46096736 -0.06600446 0.33115703
0.40577063 -0.47673625 0.10961447
-0.16289470 -0.62287980 -0.19415504
0.26564136 -0.21827683 0.45357487
0.58082873 -0.57890761 -0.18225935
-0.19013785 -0.17267209 0.41008994
0.68522066 -0.36885804 0.06575681
0.04155768 0.70704138 0.05532954
0.52133566 -0.15254369 0.28186256
0.46467140 -0.52509063 0.01901261
0.00431511 -0.32708120 -0.27018470
-0.21046820 -0.62472284 -0.21172389
-0.09566814 -0.09960581 0.58216006
-0.02906702 -0.03026006 0.60866910
-0.34821969 -0.20987692 -0.36219478
-0.47901770 0.30751961 -0.31458169
0.10983110 0.47554028 0.26936334
-0.06911454 0.78721052 -0.03369115
-0.20909519 0.05823953 0.54597092
-0.41583684 -0.02426235 -0.39122140
-0.58954859 -0.16234103 -0.39982760
-0.11331818 0.36692631 0.27925137
-0.31151128 -0.35894001 -0.11775188
0.19978051 -0.26151058 0.44833499
-0.77893311 -0.08618838 -0.25323027
-0.45812306 0.06929319 -0.39590591
0.64135855 -0.36713976 -0.38850275
-0.67961776 -0.27616423 -0.38816020
0.40509623 -0.34943101 0.28993773
-0.65992528 0.05072788 -0.06256910
0.08715848 0.77542436 -0.35487476
0.35746664 -0.34561926 0.07435410
0.31581220 -0.53822833 -0.36451313
-0.33825180 0.34111696 -0.08369045
0.32379770 0.59611309 -0.13599649
-0.09324057 -0.36413759 -0.38960293
0.06200049 -0.03111887 0.60256338
-0.10312140 0.36372572 -0.38790247
-0.08679616 -0.34778211 -0.23086694
0.20457962 -0.02460867 0.54430592
-0.03704645 0.43694597 0.18892854
-0.47560236 -0.19812620 0.34074461
-0.11187627 0.48743331 0.07205774
-0.08948720 0.18801430 0.42448199
0.15736385 -0.61303484 -0.26535237
-0.01323793 0.33295378 0.43536788
0.52996153 0.08149859 -0.08116709
0.76612848 -0.09464651 -0.08909987
0.25276497 -0.26283732 -0.36645782
-0.50464481 -0.43430793 0.14507851
0.06984641 -0.30535883 -0.30448580
0.08092950 0.32674330 -0.36184844
-0.35382763 0.48817810 -0.32496446
-0.23851639 -0.56323022 -0.34381717
0.31334651 -0.44646764 0.09308295
0.35424259 -0.29312083 0.16980040
-0.47037861 -0.03769973 -0.39212239
-0.08862950 -0.19014233 0.43730041
0.58098823 -0.08822230 -0.40407121
0.03128441 0.10643192 0.44314259
0.39627314 -0.28903016 0.32830364
0.15351167 -0.52792108 -0.05911261
0.06942478 0.83435959 -0.29018781
-0.24178138 0.35792616 -0.39295805
-0.11326536 -0.61458296 -0.25825566
-0.64876926 -0.53668809 -0.32960385
0.10343702 0.73341841 -0.01391867
-0.42084280 -0.17887712 -0.13393830
-0.13743614 0.48972005 0.03127291
-0.28717032 -0.17999944 0.47341266
-0.18850385 0.00006133 0.44495755
0.32726431 -0.56755775 -0.33202219
0.13206971 -0.36469525 -0.19212192
0.36533430 0.25952443 -0.39703834
0.69935459 -0.08443670 0.00020575
-0.20639117 -0.05072573 0.55844730
-0.65520120 -0.57115585 -0.24345317
-0.08674912 0.45510060 -0.39778596
-0.04408921 -0.50099510 -0.09693009
0.15310961 0.80076784 -0.17716837
0.84838498 -0.29598707 -0.30978352
0.39214861 0.19182862 -0.39708769
0.25460455 -0.58887106 -0.31004277
0.07605676 0.32535365 0.31068319
0.05926757 0.43966508 0.20551828
0.32560375 -0.15773815 0.30061376
0.53770226 -0.24609381 0.24858880
-0.44751951 -0.43451476 0.16556391
0.18275410 0.25095212 0.37243375
0.37174058 -0.19732460 -0.17994809
0.44146049 0.20641528 -0.10342360
0.40730664 -0.34515831 0.27568352
0.16783921 0.38149148 -0.39642501
0.84516549 -0.38446540 -0.31316996
0.11364178 0.45174813 0.21441826
0.22331454 0.40222815 -0.09859790
0.33242920 -0.26191989 -0.16319790
-0.60354817 -0.54019350 -0.05871648
-0.31655082 -0.26752526 -0.18931466
0.19402532 0.20176473 0.39372119
0.49234587 -0.51210672 0.01666305
0.32568043 0.46634695 -0.37860674
0.09480945 -0.59322166 -0.11997122
0.09313223 -0.48412305 -0.38981023
0.19227968 -0.55578011 -0.06798474
0.44505763 -0.09759797 -0.14387967
0.06347194 -0.32544908 -0.26955527
0.28259176 -0.27958125 -0.20831904
-0.05460633 0.65691525 -0.38563290
-0.29907808 -0.61652023 -0.23316535
-0.25605676 0.51278514 0.00748668
-0.01012731 -0.26800141 0.42871511
-0.65255702 0.11736789 -0.16839758
-0.62513596 -0.48275936 -0.36833185
-0.03353573 -0.21974930 0.42962143
-0.82310855 -0.48813629 -0.29069543
-0.51770395 -0.17000553 -0.00548310
-0.03868994 0.59491670 0.18479607
0.08806673 -0.04242484 0.44991603
0.06187941 0.33524376 -0.26238206
0.32906589 -0.25029668 0.23476531
-0.82999438 -0.50165004 -0.22795513
0.03702284 0.84943712 -0.16346189
0.78065586 -0.21090361 -0.35822865
0.15008320 -0.18966237 0.51851881
-0.39058587 -0.09854586 -0.20585081
0.04973000 0.83690852 -0.12569304
-0.09332763 0.48526782 0.08409896
-0.28544858 0.65143394 -0.22622252
0.69056612 0.08727644 -0.24907786
0.03532852 -0.10625269 0.44959402
0.01920413 0.00147460 0.46485803
-0.41347513 -0.10492106 0.30654776
-0.22358881 0.01287100 0.44145274
0.27509236 -0.35583657 0.23817347
-0.18102448 0.55238211 -0.38378584
0.05982113 0.25341737 0.36692262
-0.01982801 0.44986534 0.17198695
-0.06740529 0.09584994 0.45056829
0.54316539 -0.57862759 -0.26255324
-0.37740427 -0.26262870 -0.38152477
0.06511629 0.32284731 -0.35445154
-0.18068451 0.48292959 -0.00348315
-0.08681954 0.41546938 -0.14171863
-0.63626158 -0.12407905 0.18900812
0.61123890 -0.03964227 -0.01365080
-0.63144350 0.06015180 -0.05604964
-0.20696257 -0.47770691 -0.39393336
-0.51132697 -0.56789392 -0.08665836
0.23444882 0.68181157 -0.11043689
-0.76328802 -0.29575855 -0.36210713
0.66935861 -0.54815799 -0.14672014
-0.58788085 -0.50908834 0.00900558
0.09984495 0.65460819 0.09799498
0.36697504 -0.55360299 -0.04750918
0.57401705 -0.09872451 0.07197884
-0.17082047 -0.59497327 -0.30372241
-0.67010480 -0.49330872 -0.36004025
0.31791621 -0.30130243 -0.12433720
-0.35553262 -0.53699535 -0.01571430
-0.59435654 0.14877728 -0.30541450
-0.16300859 0.67422503 0.04395881
0.39494410 0.00658545 -0.20877799
0.56337303 -0.36507553 -0.39590678
-0.09541623 -0.58846122 -0.10114951
-0.06532232 0.39493889 -0.18615699
0.69388545 -0.50911009 -0.32633707
-0.83861303 -0.16916409 -0.21701595
-0.15070698 0.79435402 -0.26246291
-0.48151398 -0.00524129 -0.39891094
0.17065480 -0.38019830 -0.15621346
0.14030831 0.47172642 -0.05265810
-0.40709946 -0.04044679 -0.20104080
0.08121623 -0.16280308 0.43288863
0.37474260 -0.14149275 0.27387512
-0.07988122 -0.05156788 0.46572453
-0.21275274 0.45339981 -0.03626589
-0.28955543 -0.26696897 0.30415860
-0.31409213 0.26475549 -0.16068959
0.15330923 -0.61735296 -0.24433896
0.31078425 -0.43576872 0.08660424
-0.34827268 -0.31238925 0.34785044
-0.12713389 0.59584391 0.16366479
0.26856306 -0.59824687 -0.14495306
-0.20114677 0.06434261 0.54695272
0.86947107 -0.40046370 -0.23531571
-0.45207512 -0.20095834 0.19317344
-0.28090227 -0.25419620 0.32304883
-0.35384005 0.07978089 -0.38960114
0.24793552 0.30114233 -0.40030998
0.55601716 0.05298852 -0.39361408
-0.48089907 -0.17492977 -0.05122472
-0.42938051 -0.59679526 -0.12087773
0.49134240 -0.13053241 0.31565246
-0.48008847 -0.23865500 0.05431437
0.83737516 -0.19593161 -0.28487763
0.03470723 0.33671516 0.42261386
-0.33504415 -0.14294496 -0.33030561
-0.11925925 0.17139748 0.53711033
0.40193701 -0.32968265 0.29579484
0.40510854 -0.04378578 0.39689314
0.09823624 0.66002780 0.08350841
-0.78814590 -0.11488655 -0.26705050
0.60875672 -0.34799343 -0.39260924
-0.16308601 0.57641631 0.15439972
0.06420209 0.13715284 0.55670047
-0.25253019 0.69786662 -0.21838021
-0.26939088 -0.51246548 -0.37826791
-0.59388357 -0.51403326 -0.35178578
-0.34023890 -0.37309128 0.23526077
0.03707360 0.20115280 0.40253425
-0.86410278 -0.30951101 -0.09523536
0.60729289 -0.56400430 -0.28133681
0.36488447 -0.53999734 -0.35440460
-0.57502264 0.04246330 -0.05517772
-0.50522608 -0.46710426 -0.38319489
0.57600796 0.19727115 -0.11063142
-0.66606420 -0.40505368 0.07092796
0.30800512 -0.19214916 -0.32748303
0.34071973 0.59139436 -0.21924478
0.16659051 0.25147474 -0.34323525
-0.19449989 0.36508697 0.34474862
0.34993398 -0.61237407 -0.22805148
0.46236554 0.33418787 -0.09513332
0.00804374 0.86585504 -0.27476770
0.25094056 -0.59259009 -0.30302045
-0.13806856 -0.14939407 0.43298951
0.31050313 -0.29161617 0.23683731
-0.34406725 0.07105529 -0.24406245
-0.24718204 0.36988521 -0.40052104
-0.34123147 -0.05662587 -0.34570074
-0.49099031 -0.19727826 -0.03023428
0.30982095 -0.30095798 -0.38925269
0.74329025 -0.20067495 0.03650356
-0.27076331 0.30828625 -0.15843070
0.32015297 -0.23519763 0.41182068
-0.74577755 -0.06267044 -0.30997527
0.60381830 -0.09264131 0.06364788
0.33159631 0.18231219 -0.19315922
0.11285454 -0.01553755 0.44496444
0.31344417 -0.11404285 0.33130264
0.38820210 -0.17963165 0.39232707
0.79733294 -0.07568277 -0.23165092
-0.30129144 -0.28071374 0.28787386
0.69989651 -0.50023091 -0.32643640
0.52847731 -0.41010642 0.14627251
0.81479192 -0.44583249 -0.32955781
0.15237798 0.46680295 -0.40031075
-0.01348831 -0.25057825 0.49431485
-0.40391132 -0.31685150 0.15176706
-0.13558662 0.49243671 0.26655871
-0.43349940 0.27581710 -0.09273699
0.60727537 -0.50395685 -0.35799643
-0.61754954 -0.14713755 0.22100084
0.13734615 0.72719294 -0.35483694
-0.29658496 0.02986369 0.42676705
0.75381052 -0.50880706 -0.12216823
0.26724145 -0.06835191 0.50079572
-0.04789682 -0.48635966 -0.10029547
-0.71207541 0.02898510 -0.19331908
0.07976134 0.47405592 0.28568834
0.68607354 -0.55684394 -0.26067361
-0.58004749 -0.54208809 -0.35656512
0.28976923 0.65762627 -0.25618958
0.56837410 0.27020055 -0.22307414
0.59594405 0.23516877 -0.16308716
-0.26923203 0.62431329 -0.32259226
-0.16740848 -0.21778074 0.40332660
-0.37101540 -0.20730424 0.40822911
-0.16860563 -0.28806794 -0.36472359
0.01982623 0.45745939 -0.39448157
-0.22584192 -0.04826908 0.42699999
0.78940958 -0.42959774 -0.34175554
-0.57695180 -0.19134405 -0.39978492
0.52646542 0.12845995 -0.38302013
0.38012773 -0.17817041 0.24857469
0.21829407 -0.31084549 -0.22784412
0.58313090 -0.23521414 -0.39746130
-0.39964637 0.14467946 -0.40697414
0.86070627 -0.22883236 -0.27352959
0.58792537 -0.10059789 0.16079782
0.49392390 0.15862751 -0.38350850
-0.45555878 0.38543510 -0.26853284
-0.36957958 -0.56971437 -0.32924971
-0.57681245 -0.55878723 -0.08539124
-0.19956991 0.75944710 -0.23753884
-0.20829178 -0.54561049 -0.35449237
-0.23330984 -0.22971648 0.46570957
-0.23538050 -0.53352195 -0.36179814
0.20501904 0.16277571 0.40196830
0.23103105 -0.26744944 -0.36231682
0.08587275 0.50343442 0.02512569
0.27915403 -0.23106378 0.30049962
-0.28563970 -0.55613554 -0.35487708
-0.35578749 -0.03265335 -0.36861998
0.08436195 0.44927296 0.17917222
-0.81141430 -0.47121400 -0.11820520
0.50737518 -0.52846247 -0.35359520
0.54125565 0.28859863 -0.13504913
0.41887164 -0.04245469 0.36325571
-0.29884982 0.29881492 -0.14188039
-0.48496976 -0.02149844 -0.11564870
-0.00120361 0.69615293 0.08296163
0.40730152 -0.04670785 0.32577530
0.20524357 0.65537572 -0.02163774
0.15488586 -0.61123914 -0.12432434
0.37411207 0.40617079 -0.37654024
-0.39029822 -0.49308705 -0.38495415
0.33971938 -0.37396193 0.03861587
-0.32875675 -0.33183810 -0.38746512
-0.28459892 0.64350212 -0.26003140
0.71519470 -0.27184692 0.07346700
-0.15372413 0.14010802 0.53302443
-0.48724717 -0.60714573 -0.26490524
0.76833159 -0.03240162 -0.24825528
0.55386245 -0.41771722 0.12501536
0.15804613 0.36849555 0.29014474
0.81514913 -0.12028849 -0.16420782
-0.50241637 -0.59980530 -0.24799430
0.67583567 -0.01200362 -0.06183517
0.40013292 0.47763345 -0.11205055
-0.39905265 0.04379962 -0.39392141
-0.04751391 0.42073664 -0.12481993
-0.53382444 -0.19233322 0.29330242
0.36852747 -0.33619228 0.03836531
0.25900203 0.67542338 -0.13312642
0.02475791 -0.00691397 0.46210164
0.42117637 -0.22162011 0.34979954
0.72775567 -0.48838431 -0.07979061
0.05395251 0.63175380 0.12808011
-0.11280879 0.66027814 0.09819901
0.68472999 -0.16496649 0.11218856
0.30153042 0.61432099 -0.30706587
-0.37706637 0.01226534 0.42789632
-0.31838176 -0.55888897 -0.04310654
-0.30119962 0.39807785 -0.06646034
-0.23094067 0.38923159 -0.10787378
0.56096601 0.02844849 -0.39425811
-0.49019960 -0.23490989 0.02556247
0.19267264 -0.47723025 -0.05966370
-0.34441885 0.39506361 -0.36514419
-0.12236428 -0.27954680 0.43798947
-0.81792992 -0.41175056 -0.32743555
0.17006814 -0.30417466 -0.25352478
0.18570957 0.53702879 0.10253898
-0.07668483 0.84390908 -0.28569409
-0.46844360 0.02408414 -0.39857960
-0.77650362 -0.41550958 -0.02215679
0.52723813 -0.11637802 0.16757192
0.27345741 -0.31526902 -0.15637544
0.03766178 0.05566787 0.45658165
0.16823062 -0.61837989 -0.20050082
0.30629665 -0.35823908 -0.07231806
-0.32371354 0.21800116 -0.39531574
0.44875199 0.19814372 -0.38872683
-0.51232094 0.23049879 -0.33196113
-0.21772668 0.71462506 -0.11048950
0.37676877 -0.26450181 0.35336676
-0.16002499 0.24959418 0.46772939
0.56710970 -0.58300734 -0.20363832
-0.03710470 -0.25485528 0.50284362
-0.68226361 -0.39006948 -0.38502756
-0.35163686 -0.19458142 -0.21633059
-0.51258492 0.30599007 -0.25388941
0.09244139 0.49501559 0.03938393
0.54957265 0.16951698 -0.36137083
-0.21233024 -0.33112580 -0.39129484
0.10930603 0.72253919 0.00451135
0.20718245 0.38353392 -0.12389702
-0.47946045 -0.05864248 0.35071129
0.12324810 -0.36549696 -0.20985439
-0.50958741 -0.33755088 -0.40372527
0.35631737 -0.26341513 -0.38686928
-0.41479766 -0.25804642 0.17361180
-0.51512724 -0.40222752 0.17602021
0.07093602 -0.53864783 -0.36041903
0.79352468 -0.50612921 -0.23394257
0.09411210 -0.00024921 0.45353600
-0.10199233 0.33698386 0.30684987
-0.70094782 -0.14261785 0.10643103
-0.39603436 -0.38363165 0.25733864
-0.35930771 -0.18706155 0.30068660
-0.60735416 0.01644856 -0.03016122
0.14924729 0.76244634 -0.08684994
0.45838726 0.08789228 -0.13112597
-0.73380816 -0.29660726 0.07703591
-0.05011884 -0.30030110 -0.35418689
-0.47550613 -0.19748765 0.17053288
-0.16865498 0.12617417 0.44617921
0.07460275 -0.60628700 -0.15220574
-0.04318412 0.32007933 -0.35837677
-0.16769485 0.18441096 0.43012148
0.42597088 -0.57452112 -0.10491459
0.14867666 0.02072633 0.56483251
-0.50895858 -0.02977823 -0.09214711
-0.74414068 -0.53852910 -0.16208875
0.59192628 0.19303356 -0.12759358
-0.80035561 -0.14870617 -0.28906727
-0.79642981 -0.51049608 -0.15800887
0.08757208 0.25509220 0.36464018
-0.51338214 -0.58963907 -0.28366765
-0.14994285 0.55900228 0.19000152
-0.35015646 -0.39553058 0.21600211
0.55092627 -0.36715084 -0.39332074
-0.19749726 0.54123437 -0.38161358
-0.58066541 -0.09355937 0.25081819
0.31012517 0.36371589 -0.09613416
0.45423171 -0.41074222 0.19086207
0.84303415 -0.31229272 -0.10614078
-0.47959855 -0.08728282 0.26833057
-0.63686955 0.01567578 -0.35030577
0.22943275 -0.05548958 0.52750146
0.08189463 -0.17379874 0.42665142
0.44462949 0.23196563 -0.39206561
0.00583678 0.32722276 -0.31317970
0.65514457 0.09887773 -0.31505159
-0.16071115 0.79907960 -0.20793933
0.01269509 -0.00713110 0.46241614
-0.50983721 0.11475809 -0.37979293
0.39092663 0.41734594 -0.36421973
-0.74882919 -0.45725501 -0.34414980
0.22022760 0.73475975 -0.26560298
0.36261040 0.05020425 -0.22458985
-0.48626649 -0.18845767 0.33169690
-0.19753827 0.22181496 0.41437313
-0.34308162 -0.50913423 -0.01295387
0.22884452 0.48092899 -0.39635375
-0.26721245 -0.07841147 0.40428802
0.32082546 0.54049397 -0.05341575
0.50093448 0.30238995 -0.33348200
0.47708809 -0.21989068 0.31413090
-0.35369319 0.17797408 -0.39455411
0.32089153 0.05583692 -0.34354976
-0.52765524 -0.25577950 0.27712828
-0.10735503 0.72202688 0.01464072
-0.39350763 -0.13420948 0.29391271
0.87520850 -0.35022485 -0.28210619
0.26461583 -0.61186737 -0.20730966
-0.80811435 -0.34910285 -0.01577429
-0.63433272 -0.52659446 -0.05104116
0.85214353 -0.25566751 -0.13566367
0.53552324 -0.58880299 -0.19869480
-0.53042012 -0.10483059 -0.40223545
0.16183011 0.30735421 0.34687686
-0.35628036 -0.14843115 0.44647524
0.08672698 0.82135141 -0.15180251
0.21124502 0.14217669 0.46453553
0.58008134 -0.49894828 -0.36225510
-0.43287256 -0.23429748 -0.38871905
0.14203694 0.50415158 0.09686956
0.36500996 0.46641532 -0.35708711
-0.50508547 -0.16958329 -0.02935211
-0.81297755 -0.47636318 -0.14045453
0.52533853 -0.57551873 -0.13183708
-0.01035628 0.49437395 0.06432382
0.53904104 -0.01164883 -0.39511669
0.11708371 -0.59648436 -0.29296020
0.48127952 0.34812239 -0.32589245
0.44091752 -0.38073117 0.22450262
0.00999244 -0.22103190 0.42491382
0.82513261 -0.13657963 -0.22006279
0.77505708 -0.27428856 -0.35916734
-0.21694861 -0.15482217 0.51637250
-0.44677246 0.14983341 -0.11266707
-0.00338589 0.58750772 0.19789933
-0.41752833 0.45557222 -0.25560728
0.22195005 0.67786527 -0.32907018
-0.24818948 -0.08587280 0.53026855
0.03758924 0.84125847 -0.14082696
0.44901413 -0.48363024 0.08041901
0.06082636 0.40923700 -0.38991937
-0.10353662 -0.29094368 -0.31132886
0.29938719 0.27262467 -0.40408689
0.37282076 -0.26395097 -0.39667231
0.65008748 -0.24206468 -0.39644307
0.81514257 -0.20041671 -0.32132977
-0.43986735 0.33087948 -0.08031581
0.26985663 0.66136158 -0.31225327
0.33998883 0.01486132 -0.34547362
-0.69040209 -0.56197208 -0.28711125
0.56691337 -0.48247784 0.03077780
-0.00508151 -0.56496119 -0.34548625
0.41551420 -0.42134100 0.19940570
0.70634961 -0.50378507 -0.09769022
-0.11070651 -0.55235505 -0.35319814
-0.40501669 -0.46323460 0.12355798
-0.28073159 -0.54048783 -0.04184034
-0.71468532 -0.39910328 -0.36805189
-0.04568123 -0.55221212 -0.35821468
-0.50821739 0.04954668 -0.39110103
0.27862775 0.60087335 -0.34351695
0.31269178 -0.61664379 -0.21565741
-0.77621007 -0.36085945 -0.35911354
-0.23097892 -0.53548282 -0.05950983
-0.03371872 0.39691576 -0.38193220
-0.47736937 -0.16501284 0.18488251
0.05369757 -0.60883307 -0.28122839
0.32192543 -0.25196803 0.24144362
-0.20910122 0.71898782 -0.09053029
0.53670245 0.30774480 -0.14531671
-0.44745511 0.26668477 -0.09459192
-0.25852969 -0.32263097 -0.38829666
-0.29901630 0.62810218 -0.16471151
-0.84310240 -0.42187572 -0.11793135
-0.79935902 -0.22628897 -0.33618295
-0.10917888 0.33058429 0.31989080
-0.37324962 0.19442973 -0.40443468
-0.40168557 -0.05543292 -0.20218652
0.44136137 -0.04285887 0.31497282
-0.02403391 -0.44866151 -0.13362533
0.23669104 -0.56000197 -0.06468573
0.14269204 -0.09328225 0.42456880
-0.46097586 0.07957216 -0.12837161
-0.60337251 -0.57974523 -0.16205856
-0.16753720 0.44304007 -0.39805955
0.15862195 0.79961002 -0.20981175
0.62731719 0.08951396 -0.08163695
-0.27675623 0.11971550 0.45371124
0.24358055 -0.23817518 0.45155561
-0.12999183 0.57867527 0.17932738
0.37468266 -0.60916370 -0.20579693
-0.04471092 0.01646627 0.60974807
-0.47789428 -0.22277996 0.33403146
-0.07367467 0.78962785 -0.33390051
-0.11953360 -0.02725269 0.59180057
0.13769650 -0.61790609 -0.22016874
0.02583539 -0.32995161 -0.26192448
0.05690205 0.27574027 0.46294892
0.15617435 0.37900746 0.30168450
-0.20990126 -0.61643714 -0.19823048
0.60582757 0.07982077 -0.37428540
0.28229144 -0.26986834 0.40132764
0.15128401 0.64305598 0.07194734
-0.55436182 -0.55934227 -0.33017248
0.80923784 -0.19523063 -0.07981293
-0.33154392 0.18140385 -0.20189682
-0.21436885 0.31381333 -0.39585981
0.23151234 -0.56180423 -0.34532633
-0.19496229 0.30139184 -0.22296047
0.34508830 0.59063333 -0.26754850
-0.23981276 0.01759380 0.44342649
-0.01041140 0.68535250 0.08824860
-0.74394357 -0.53354287 -0.15421849
-0.30597702 0.56931245 -0.08206972
-0.09912291 0.83375829 -0.15686348
-0.43979874 0.40562928 -0.27521393
0.31888321 0.08708204 -0.26264927
0.41786036 -0.10569373 -0.17846823
-0.38245538 -0.09078377 0.33188120
0.78857982 -0.52186745 -0.19983587
0.07809568 -0.34567043 -0.22670999
-0.06859984 0.31913191 0.32872623
0.38215223 -0.01014818 0.37782386
-0.35357380 -0.54193497 -0.02490833
0.15314060 -0.14093477 0.55021429
0.39149338 -0.02952418 0.39814538
0.16694008 -0.28556862 0.37352064
-0.72095025 -0.00202700 -0.10922714
0.81715673 -0.46758515 -0.28013822
-0.54308152 -0.47169012 -0.37616822
-0.18205877 0.69991541 -0.33490321
-0.69951522 -0.26524150 0.12354831
-0.51860434 -0.18565440 0.08590269
0.69509637 0.07598141 -0.26412326
0.00301704 0.36171350 0.27520055
-0.11381091 -0.18226731 0.43717602
0.33924127 -0.00166224 -0.33566299
0.51147896 -0.55126923 -0.07111141
-0.65898937 -0.54553539 -0.12137043
-0.28075019 0.62226689 -0.31002069
-0.24997270 -0.09417266 0.40792233
0.87538624 -0.33759642 -0.18052918
0.63158906 -0.45959383 -0.37313005
0.44593269 0.36748353 -0.09854449
-0.13050944 -0.28791168 -0.29726171
-0.04854940 0.56417406 0.21285410
-0.56668365 -0.40790093 0.14020708
-0.13694204 -0.24774772 0.47750956
0.72357482 0.04472883 -0.18373257
0.14731732 0.35083583 0.31552833
0.64955086 -0.13022509 -0.39210236
0.26943123 0.30837590 -0.39212444
-0.22008286 -0.27573815 -0.26142558
-0.42372823 -0.23211354 -0.09434019
-0.34611645 -0.40211874 -0.04151057
0.28439379 0.65847975 -0.27759278
-0.70776004 -0.46223408 -0.00763765
-0.22019148 -0.17420343 0.50648600
0.47094351 -0.03868383 -0.39774013
-0.20612700 0.42963922 -0.40199816
0.39194140 0.30661505 -0.09452315
0.43857878 -0.50557345 -0.37833387
-0.71255666 0.01002090 -0.26399654
0.10310274 0.31574041 -0.27073312
0.12582541 -0.05443874 0.43843347
-0.17304431 0.66056371 -0.36260834
0.53684157 0.32290018 -0.23596257
-0.48936632 0.33357385 -0.12764268
0.69298649 -0.54403681 -0.15547779
-0.40068328 -0.30752671 0.16640042
-0.10364882 -0.61280161 -0.13714117
-0.51329005 -0.60136890 -0.22430289
-0.28810623 -0.56705582 -0.34805411
0.55468422 0.07346322 -0.06860256
0.16654153 -0.17761180 0.39417398
0.04828884 0.64453501 0.12119219
-0.31034738 -0.60787839 -0.17437670
0.41500705 -0.26513803 0.08851260
-0.15546940 0.47310588 0.08002354
0.55593163 -0.11375655 0.12500231
0.38536331 -0.08714899 -0.37758949
0.10931463 0.23173428 0.37139547
-0.68813562 -0.10213210 -0.36635426
-0.06557222 0.57340729 0.19858789
-0.16721740 0.26644427 -0.29253057
0.87797743 -0.30350161 -0.20601028
0.71298230 -0.25558299 0.07878637
-0.84835976 -0.41737419 -0.30542687
-0.85834825 -0.39138162 -0.10876007
0.68911445 -0.42400575 0.01825979
-0.60451478 -0.26538309 0.20770153
-0.80360568 -0.45932734 -0.10510039
0.06074731 0.64949280 -0.38746539
0.38309714 0.47989488 -0.09263785
-0.72891140 -0.35691547 0.06485033
0.11876292 0.22376972 0.48201588
-0.58342022 -0.28450051 0.20956562
0.72936141 -0.18214706 -0.36965916
0.40061575 -0.38051122 -0.40240389
0.84200370 -0.44266647 -0.19330460
0.88057154 -0.29493278 -0.18568599
-0.61669087 -0.09799254 0.18801996
0.38207415 -0.25381157 0.36604884
-0.34446219 -0.37057096 0.28329387
-0.01158723 -0.30561063 -0.32554275
0.07954445 0.84031785 -0.28251889
0.41436175 0.10688762 -0.40472871
-0.61596578 -0.52576917 -0.34558612
-0.24333122 0.66188842 -0.07136022
-0.19052629 -0.52878785 -0.36439717
-0.27216789 0.45382106 -0.03149234
0.08699804 -0.51184380 -0.38529187
0.59941006 -0.46594769 -0.37059522
-0.71019924 -0.05471970 -0.01698724
-0.68265772 -0.08246318 0.03897908
0.53022659 -0.11516528 -0.39729846
0.25003570 -0.30876645 -0.38629782
-0.65266323 -0.30653274 -0.38978821
-0.44194677 -0.50012249 0.07314118
-0.09474894 -0.12881470 0.57284462
0.84585458 -0.24096382 -0.29052466
0.05603939 0.26511115 0.36601380
0.45509753 0.10338412 -0.12524804
-0.23555027 0.70973748 -0.24449173
0.49472779 -0.16492149 0.30856276
0.23962012 0.28960896 -0.19314367
-0.40955007 -0.60718054 -0.19760543
0.22923724 0.20877373 -0.27069375
0.00837317 0.48584837 0.29065117
0.04567246 0.87009954 -0.23188365
0.80036515 -0.30805394 -0.35244808
-0.30557743 0.27940321 -0.39556497
-0.27241629 -0.56551725 -0.34313813
-0.44034389 0.41602716 -0.25027940
0.28302285 0.45954031 -0.38652351
-0.23735039 -0.24511102 0.35251409
-0.67221928 -0.34623548 0.11207950
0.37987006 -0.32257527 0.07212351
0.19900216 -0.36873108 -0.15874338
-0.30737457 -0.18645433 0.33461985
0.54114932 -0.09559254 0.25402886
-0.65792465 0.06360355 -0.07740821
-0.36246267 -0.60720485 -0.21381405
-0.29873469 0.57362723 -0.31373811
-0.23546460 0.53547895 0.04959410
-0.56158745 -0.57143933 -0.10559474
-0.16409443 0.43072569 0.22303800
-0.45962781 0.02023535 -0.39894491
0.53643876 -0.03905134 -0.06779678
0.63626790 -0.47445709 -0.37122664
0.53829765 -0.46195006 0.08672275
-0.20407353 0.49433097 0.11002983
0.25295514 -0.13365498 0.36673489
-0.43789211 -0.29920956 0.10581207
0.45184097 -0.56076252 -0.07165679
0.53653151 -0.49664193 -0.36858580
-0.67708433 0.09400968 -0.20238274
-0.07171617 0.12137999 0.57486868
0.11534245 0.03880210 0.57817614
0.04891538 0.27375266 0.35989437
-0.15831144 0.79003000 -0.15232661
0.15958053 -0.27970847 -0.33080935
-0.57118738 -0.25027221 -0.40029043
0.27530670 0.66059393 -0.13927302
-0.00006071 0.44061163 -0.39325184
0.03465595 0.16201518 0.42250776
-0.22075859 0.40069085 -0.10319124
0.23596387 0.22923869 -0.24039993
-0.37885007 0.10699071 -0.19093639
0.40867636 -0.17629227 0.21560496
0.68151736 -0.54621190 -0.25890157
-0.50642318 -0.01471694 -0.39643687
0.20577231 -0.32258216 -0.20946935
-0.64365345 -0.28790537 -0.39254156
0.45769653 -0.49412280 0.07560784
-0.01626900 0.76441360 -0.36250189
-0.12466636 -0.05005926 0.45650378
0.18313494 0.12632342 0.42668340
-0.66038543 -0.43674749 0.04553724
0.36471209 0.55254865 -0.17066145
-0.77594203 -0.37912774 0.00137517
-0.02767513 0.86594987 -0.26668480
-0.33355173 -0.34520024 -0.39130527
-0.55119592 0.01447897 -0.38280007
-0.25628811 -0.48547560 -0.06708276
-0.28966618 0.63376862 -0.13415828
0.66845363 -0.53654629 -0.12784195
0.07263820 0.74325472 0.00851964
0.44468409 0.36360869 -0.08960454
0.12147851 0.42292568 0.31319183
-0.41316664 -0.02587992 0.40505832
0.01556626 0.26162422 0.36651582
0.24728133 -0.35780269 0.32562053
0.12619573 -0.30344468 0.40742531
-0.28364435 0.59023881 -0.32599097
0.12782378 0.38714883 0.27223620
0.03714161 0.85163057 -0.28547800
0.05713776 -0.30528048 -0.31229144
-0.39159843 -0.25547659 -0.38106492
-0.73275620 -0.33992249 -0.37544560
0.33993083 -0.32034859 0.17292234
0.07164050 0.36973959 -0.20178851
-0.67182434 -0.36586800 0.09840295
-0.03859023 0.73539305 0.02765605
-0.34051064 0.51282060 -0.06953970
-0.15149541 -0.15198830 0.42949080
-0.81586868 -0.45669061 -0.10418321
0.44708353 -0.16511434 0.35114747
0.22716761 0.61034960 -0.36936009
0.43427077 -0.57960427 -0.12411115
0.38240829 -0.32053655 0.04114699
-0.50473219 0.31393987 -0.12376574
-0.36007565 -0.45707434 0.01304148
0.20672615 -0.38117182 -0.14803371
0.44039866 -0.22462958 0.11748099
-0.59169686 0.17812018 -0.09668218
0.46737459 -0.22037706 0.31392127
0.29710415 0.24965249 -0.39972174
-0.36050773 -0.24882463 -0.15937987
0.08609264 -0.54078358 -0.35817006
0.19089539 -0.37065715 -0.16240236
0.30468106 0.57629043 -0.06781916
0.55019236 0.06928117 -0.39478552
-0.20305222 -0.58827722 -0.08887821
-0.57162678 -0.47415721 -0.37315264
0.12972724 0.41200817 -0.11916043
-0.13452211 0.39789891 -0.14846104
-0.82099551 -0.38181138 -0.05029665
-0.43238029 -0.58815616 -0.10590743
-0.24397179 -0.23977536 -0.34632254
0.40042472 -0.36325791 0.26311165
-0.80321527 -0.52387780 -0.27022469
0.29136938 -0.28846186 0.25737911
0.28714791 -0.20266643 0.30636263
-0.39418596 -0.32353649 -0.06612706
-0.21088132 0.17270650 0.43424475
0.02602550 -0.02948654 0.45815620
-0.48284343 -0.18872559 -0.39725137
-0.23225704 -0.58201826 -0.09169108
0.85814196 -0.35889655 -0.14048113
-0.19754091 0.31488302 0.37500292
-0.32680646 -0.51751333 -0.36499882
0.72831070 -0.01645981 -0.10335237
0.02396157 0.11847790 0.43262678
-0.84548974 -0.46987188 -0.19434860
0.30501378 0.07707384 -0.32565126
-0.86777985 -0.37500453 -0.29529089
-0.17747666 -0.41975087 -0.40148818
-0.32918179 -0.32370937 0.26051888
-0.69167614 -0.05899109 0.00403161
-0.14555542 -0.58421278 -0.31539908
0.40665206 0.27444363 -0.10305442
0.85878909 -0.28546262 -0.13589746
0.08485929 -0.02236444 0.45466751
0.35784850 -0.25813502 0.20607586
0.06046518 0.37545711 -0.19827163
-0.02288998 0.00539178 0.60455680
0.17925827 0.65246958 0.02798576
-0.34095609 0.56765717 -0.22515050
-0.36349049 -0.27558923 0.37373978
0.17787100 0.27925158 -0.37172386
0.86790538 -0.24149087 -0.20568329
-0.06731524 0.39954591 0.36838758
-0.43256965 0.42397895 -0.26436976
-0.24271493 -0.28063810 -0.22975433
0.11169098 0.38583830 -0.39073923
0.53650117 0.30219480 -0.13739237
-0.38427895 0.09474082 -0.18859598
-0.21119836 0.67621273 -0.02537702
-0.36950785 -0.60698020 -0.17935044
0.18997821 0.47024614 -0.04920094
0.40515417 -0.02037998 -0.20231462
-0.46108577 -0.61049622 -0.21988067
-0.02299595 0.01128013 0.46557882
0.45512185 -0.21893218 0.09170475
-0.45200378 0.40593585 -0.19832084
0.75905347 -0.13374853 -0.03675534
0.46960086 0.41977409 -0.25246739
-0.55282462 0.08848900 -0.06747222
-0.25513533 0.16059428 0.44800469
-0.63136661 -0.55535334 -0.10361931
-0.30638859 0.18978244 -0.21829739
0.32883042 -0.19410130 -0.35948598
0.51133072 -0.36092815 0.20207830
-0.36936024 -0.41970783 0.21387818
-0.33590913 0.04616851 -0.37169391
-0.09038808 0.81522697 -0.09237351
0.34751898 -0.28285918 0.35852706
-0.46170676 -0.24506700 0.32712477
-0.19706148 0.38105455 0.32255042
0.01083969 -0.60353655 -0.12300129
0.53381783 -0.21063510 -0.39821309
0.08418823 -0.52226502 -0.07652582
-0.63069487 -0.11635961 0.19086021
0.08417629 -0.14927173 0.55714685
-0.58371538 -0.24387437 0.23679629
-0.65902352 -0.39473158 -0.38054702
-0.14978819 0.74562508 -0.03606482
0.46262723 -0.49075156 0.06246478
-0.20391604 -0.59407413 -0.29808551
-0.39191103 -0.38619214 0.03712946
-0.40050071 -0.09572428 0.31708044
0.15136135 0.34396535 -0.38512042
-0.22654642 0.59461123 0.04200110
-0.28497782 -0.56426096 -0.35546279
0.26587981 -0.21335500 0.46347967
0.66630739 -0.44152218 0.02215729
0.60024500 -0.05713262 0.00099665
-0.50901568 0.07991999 -0.38904282
0.45044839 0.30940992 -0.08701590
0.11685967 0.55287123 -0.40311539
0.69998300 -0.41968489 -0.36938357
0.41807744 0.32834274 -0.08707263
-0.54161835 -0.01671411 -0.39414728
-0.46166065 -0.14239448 -0.10004322
-0.73087907 -0.04895130 -0.04046594
-0.24315977 0.58772951 0.00486767
-0.22610234 0.71793914 -0.27202454
0.23294012 -0.24902567 0.44466406
0.10770954 0.30972478 -0.27783898
-0.07735222 0.36715299 -0.38027355
0.07707644 -0.27223033 0.42426628
-0.39345568 0.36782488 -0.07448304
0.02746443 0.02834845 0.45861980
-0.05009723 0.06737694 0.46261120
-0.42965114 -0.28454778 -0.03330362
0.03573800 0.38236523 0.25803050
-0.15082198 0.79868996 -0.15885848
-0.57794744 0.01576166 -0.38112456
-0.36509803 -0.06697237 -0.36876124
-0.00445500 0.85376561 -0.29635581
0.16083996 0.51606578 -0.39951074
-0.16688639 -0.30223066 0.39917919
-0.48302805 0.36287892 -0.16821292
0.32614425 0.56110740 -0.33263177
0.79536122 -0.14234191 -0.09660545
-0.17059709 0.10773955 0.45060650
-0.38663000 -0.25914463 -0.11627913
0.46129075 -0.10367946 -0.11517276
-0.87472397 -0.40945387 -0.15564543
-0.77381700 -0.14556012 -0.01143129
0.02073086 -0.61120814 -0.25849256
-0.17971319 0.29035440 -0.38642648
0.75276142 -0.52466023 -0.27138287
0.12468981 0.35290384 0.37885571
-0.43731433 0.16888979 -0.11320771
0.11820918 0.35156018 -0.21424729
0.39718238 -0.58669662 -0.28838596
0.20845021 0.75425869 -0.23081562
-0.21466824 0.52572709 0.11988856
-0.13970828 -0.34475544 -0.39451316
-0.48631835 -0.58227539 -0.31176737
-0.33545902 -0.19160679 -0.23905224
0.17510816 0.24308334 -0.33617324
0.32806477 0.29972923 -0.39911032
-0.05655576 -0.46437573 -0.39166120
-0.05256083 0.43885931 0.34425223
-0.30583829 0.14299378 -0.25352633
0.64818847 -0.30456397 0.12970132
0.85543919 -0.19680747 -0.19490978
0.38023457 -0.24435440 0.17225072
-0.03879907 0.48875090 0.08704878
-0.47448257 0.31377506 -0.08991964
0.22627285 -0.28957871 -0.37784490
0.36618146 -0.03934006 0.42845678
0.37360239 -0.49980295 0.05409685
-0.18175934 -0.44313723 -0.11349355
-0.76981938 -0.21482748 -0.35403761
-0.08375095 0.46386489 0.13275866
-0.70837855 -0.00936489 -0.07448591
-0.34110725 -0.40455949 -0.05326524
-0.42390126 -0.15069684 0.25808340
-0.48187253 0.35352793 -0.23874146
0.09543350 0.67529440 0.07864326
0.10298206 -0.60799128 -0.27478603
0.56000668 -0.09494236 0.17015472
0.84221524 -0.44637036 -0.20244631
-0.47121570 -0.55116165 -0.02938733
-0.18637243 -0.59774488 -0.11253920
-0.13751775 0.46463260 0.29275042
-0.55461216 -0.29977649 -0.39650607
-0.26560673 0.27921897 -0.39892179
-0.50369883 0.12551144 -0.38401496
