0.07791133 0.20816685 -0.46130195
-0.09756340 -0.06881626 0.49277282
0.06219333 0.37274659 -0.31409174
-0.16223416 0.32028207 -0.62235302
-0.21087341 0.55594194 -0.73122305
0.22159445 -0.51540071 0.55337197
0.22174647 -0.19314417 0.46363205
-0.12483349 -0.54127502 0.70207572
-0.09304436 0.52890593 -0.67582613
-0.02619553 0.55995458 -0.49016988
0.01944022 -0.02850798 0.47358447
0.01320790 0.30588830 0.35472646
-0.18510878 0.05779760 0.10752508
0.00632940 0.51464319 -0.45587173
-0.07699787 0.10324018 0.59350145
0.09504446 0.07051590 -0.42844352
-0.11560984 -0.02747956 0.29564476
-0.12868701 -0.12710282 -0.23047678
0.23615259 0.16240232 0.20929754
-0.14945579 0.37201259 -0.55158275
0.18520918 -0.58498174 0.48900503
-0.18163230 0.01631049 -0.25133568
-0.42853576 0.29385644 -0.73389107
-0.16057739 0.03797539 0.22469085
0.17450090 -0.06500402 0.29821119
0.22161028 0.13195017 0.00504079
0.20020816 -0.03368492 -0.03238053
-0.01956850 0.22763982 -0.52160525
-0.10040644 -0.22662435 -0.33293894
0.06736431 0.39217871 -0.39043686
-0.04817489 -0.16917564 -0.28049517
-0.13298415 -0.11352701 0.09918432
-0.12774701 -0.25853157 0.65296441
-0.13783070 -0.25247365 0.60937065
-0.29443312 0.37643173 -0.78236490
-0.05102284 0.26402971 -0.53534412
-0.06265678 -0.27017513 0.62482774
0.19177711 -0.06021805 0.27610594
-0.03269636 -0.16132975 -0.11777662
-0.06945845 -0.26991725 0.59907496
-0.17597307 -0.06494357 0.45272884
0.09519459 -0.13912377 0.09879959
-0.18673144 0.04847571 -0.00506212
0.04537914 0.03411654 0.52621800
0.16551006 -0.24993181 -0.25203073
0.02692010 0.20832387 0.55657667
-0.05527882 0.33461443 -0.58064920
0.12584999 0.22039922 0.54073602
0.23426217 0.10338885 0.23070422
-0.08287048 -0.60662341 0.65981638
-0.22895908 0.44976595 -0.58156961
0.06680648 0.25526515 -0.47929335
-0.04768523 -0.16245410 0.10605945
0.22672364 0.07235868 -0.03061950
-0.04616804 0.13827096 -0.44512460
-0.19079578 0.04383247 0.08692819
-0.06512962 -0.32088003 -0.32213935
-0.16250083 0.08903074 0.30191982
-0.17574473 0.41519859 -0.75788403
0.11132525 0.26065534 -0.40700096
0.19410774 -0.09734868 -0.27857175
-0.06434362 -0.22033866 -0.29822093
-0.00781489 0.51342309 -0.57867283
0.03901913 -0.08558751 0.23988742
-0.08097215 -0.49517044 0.73228717
0.03372936 0.06938601 0.55544627
-0.08165145 0.18037316 0.56405097
0.14406797 -0.14524162 -0.30350560
0.21288806 0.05834802 0.52065086
-0.12165673 -0.20969386 -0.23864074
0.19615132 0.10839617 -0.13747455
0.04853301 0.30742994 0.36562669
0.06558326 0.23959985 0.00038484
-0.06289798 0.38392714 -0.60627258
0.23801461 0.17428292 0.49866223
-0.02526055 0.37589860 -0.28177592
0.21228796 0.17778231 0.10503452
0.03233666 0.48190102 -0.45071664
-0.07293738 -0.14373051 -0.01817976
-0.16513908 0.09539209 0.32230735
-0.11915677 -0.04370433 -0.09798928
0.18170613 -0.02361733 0.51264155
-0.00761580 0.27039176 0.17737709
0.26930818 0.12616357 0.37882754
-0.07334112 -0.14757656 -0.03122674
-0.05360580 0.46401986 -0.64162475
-0.00442202 0.24017411 0.06360929
0.09338021 0.18497804 0.57105637
0.01029062 0.37913972 -0.56127560
-0.10449006 -0.05725147 -0.11393587
-0.01457711 0.00510755 0.51186168
0.18099096 -0.57669169 0.49512810
0.21989718 -0.03878150 0.11763220
0.17899045 -0.44986135 0.54069227
0.05000008 0.45507386 -0.43779406
-0.10296582 -0.08607195 0.43309283
-0.25680313 0.54829198 -0.64610291
-0.19801462 -0.00390351 0.38095796
0.20469302 0.20247313 0.18641672
-0.16411963 -0.00739696 -0.01273082
-0.11811215 -0.11946977 0.04118318
-0.03733750 0.19937184 -0.48639026
-0.18234050 -0.04450331 -0.27091646
0.21251681 0.20462616 0.21221681
0.14842959 -0.17992748 0.42563042
0.25855622 0.16410562 0.46472731
0.07478030 0.33575314 -0.47903612
0.18471766 -0.51260799 0.57869816
-0.12848055 -0.51394558 -0.30464780
0.02723402 -0.14220458 0.12347007
0.14928892 0.23544367 -0.30179572
-0.16930717 0.18697913 0.40983367
-0.00726932 0.23544323 -0.03589828
0.18549615 -0.32013962 0.45038459
-0.08920372 0.19961540 0.00429292
0.23731089 -0.11699945 0.43463409
-0.11750458 -0.25825542 0.66875923
-0.09907666 0.32584888 -0.44302160
-0.15820633 0.10847499 0.23287770
-0.11578294 -0.04412771 -0.38231105
0.14577812 0.19046864 -0.39199612
0.23743129 -0.05402361 0.39686376
-0.10806822 0.54639804 -0.67719305
-0.07992498 -0.11019877 -0.11357002
0.18749568 0.13695501 -0.22570108
0.12944211 -0.05489904 0.29677352
0.20075914 0.15734392 0.55225569
0.05466683 0.20562991 0.55396992
-0.11526859 -0.00254441 -0.40240726
-0.10750072 -0.13244003 0.06535431
0.09495467 0.25168261 0.10740446
-0.13449603 0.15145071 -0.02077575
-0.10816213 0.48266146 -0.46094304
-0.39826298 0.29324868 -0.72674340
0.08111031 -0.10853189 -0.35196963
-0.17575303 -0.02956618 0.41874707
-0.38569951 0.27116719 -0.76965249
0.24163753 0.13851365 0.18987544
0.24951580 -0.04829928 0.38503006
-0.16224442 -0.11231742 0.50631547
-0.35310981 0.35210124 -0.68194896
-0.03389191 0.27223364 0.48676747
0.01139250 0.51892942 -0.49397644
0.25160739 -0.03679259 0.39359614
-0.12916523 0.17951210 -0.18030985
-0.10301933 0.22795504 0.49564403
0.19881615 0.07945833 -0.19717830
-0.10774788 0.18884121 0.06970978
0.04653509 -0.12126198 -0.33921236
0.15552990 -0.46438092 -0.17677912
-0.04636787 0.40686929 -0.34751490
-0.05542873 -0.14091319 -0.16248186
-0.04268089 -0.02024902 0.55220276
0.18040818 -0.03035926 -0.35385698
0.14795443 0.10376267 0.57643503
0.05845310 -0.16280003 0.00006389
-0.19364178 0.41517779 -0.55740571
0.11118855 0.23840931 0.04471910
-0.15185593 0.14031698 0.52454776
-0.18490741 0.06662978 -0.29554117
-0.15413991 -0.05010195 -0.01028917
0.12564094 -0.03775116 -0.37850472
0.03239894 -0.16451439 -0.03018157
0.10255207 -0.03605748 0.34757259
0.20238736 -0.64179277 -0.18718329
-0.08346750 -0.53101391 0.70769620
0.22627616 0.13471833 0.03512228
-0.18075852 -0.02421151 -0.27231538
0.23482570 -0.09231633 0.41021585
0.04271969 0.40243104 -0.52523017
-0.34889033 0.29472873 -0.73661703
0.23854175 0.11668448 0.24027595
0.20050085 -0.49249762 0.51613021
0.14045376 -0.02410296 0.49494839
-0.36941144 0.40980440 -0.70811951
-0.08794819 -0.64786732 -0.40270817
-0.01003486 0.30232322 0.28452531
0.14280131 -0.10745353 -0.03377277
-0.08960125 0.56213689 -0.65613008
-0.08456545 -0.06708166 0.40729293
-0.31249976 0.48918951 -0.62769479
-0.27839667 0.41917294 -0.76708883
0.12751523 0.25185457 0.13156453
-0.17927310 0.00640640 -0.29191262
0.11992784 0.15898310 -0.42696476
-0.09192411 -0.29839617 0.67714345
-0.06854055 0.50174427 -0.43176866
0.12679546 -0.30955255 -0.23316637
0.13579902 0.00653602 0.51206750
0.09206614 0.32010555 -0.46491018
0.00040836 -0.16444758 -0.22859827
0.10204761 0.22773844 -0.08885584
0.00793351 0.47587469 -0.36194545
0.08185300 -0.14766887 0.05203928
0.06558795 0.27112001 0.49532974
-0.13582319 -0.20683879 -0.25535804
-0.05999760 -0.26050621 0.65864938
0.09689026 -0.04090792 0.36442155
-0.16615376 -0.00267510 -0.05122742
-0.09580021 -0.38574344 0.69260252
0.12180619 0.25745010 0.14290419
0.22304547 -0.51850671 0.53063381
-0.11728548 0.16853063 -0.11050431
0.11822061 0.22596793 0.03224782
0.01584087 0.48979151 -0.41107798
-0.15714942 0.53537965 -0.74477398
-0.12967098 -0.47510004 -0.30619258
0.16129029 0.05312198 -0.40081114
0.15609530 -0.15075448 -0.19671211
-0.03288753 0.20511582 -0.49870595
0.19003773 -0.07696044 0.08858280
0.16612633 0.29313472 0.30713648
-0.08915885 0.16914812 0.56259835
-0.08035234 -0.07899445 -0.15258038
-0.00638528 0.38941789 -0.27676943
-0.32433873 0.34474036 -0.66402191
-0.04972698 0.44888300 -0.63466287
-0.16931275 0.11883704 0.49866563
-0.10109213 0.59186268 -0.56550020
-0.12082528 0.18505350 0.09509846
-0.07002410 -0.12882812 0.14243847
-0.01319724 0.03910695 -0.41286060
-0.12278801 -0.45402798 -0.27915072
0.11549151 -0.35325265 -0.22234307
0.14747882 0.21288261 -0.00430733
0.02213813 0.15918455 0.57382196
0.14674926 -0.16233207 -0.18467847
0.16624257 0.21171674 -0.28578326
-0.06058805 -0.25788915 0.61460972
0.22637156 0.25189272 0.34097540
0.17343368 -0.35664478 0.53008884
-0.14421922 -0.06114008 0.40552130
0.12349652 -0.39598215 -0.16546895
-0.22260851 0.34852755 -0.74421853
-0.06023443 -0.17370398 0.59839565
-0.07525083 -0.19843994 0.64581382
0.16562995 -0.08776688 0.13410856
-0.15465203 0.11200074 0.26334852
0.13436823 0.26050809 0.49184710
0.19585273 0.17690080 0.02261017
-0.27621019 0.33222649 -0.64039183
0.14714901 -0.10829744 0.41086817
-0.09985070 0.27157879 0.29968899
-0.18201618 0.10051014 0.37406632
-0.00653162 0.28145602 0.20130584
0.04202605 0.23931652 -0.01259574
-0.12335317 -0.21731061 -0.30243206
-0.07463111 0.34374624 -0.37296888
-0.21350230 0.44025537 -0.57339591
-0.01856747 -0.11264706 0.21748364
-0.13575734 0.54123306 -0.51652139
-0.15866336 0.01089511 -0.06779760
0.03499981 0.29471904 -0.15828784
0.03975869 -0.06199360 0.27132761
0.13501450 -0.08766498 -0.36171091
0.03500533 0.27021819 0.18892914
-0.01279726 -0.16963042 -0.00345789
0.21586767 -0.22293280 0.48306155
-0.13694786 -0.65912831 0.70391053
0.18913823 -0.57779431 -0.14610994
0.08396611 -0.12547575 0.15142432
0.20202821 -0.38129690 0.49026686
-0.12143200 0.33005169 -0.58579904
0.19020066 -0.07109264 -0.00242255
-0.12701933 -0.12399839 0.06208777
0.00257746 -0.16030842 -0.13280234
0.20328730 -0.07865590 0.46821305
0.21225831 -0.61463624 0.55015290
0.23029891 -0.60296261 0.52960199
-0.06394932 -0.03421815 0.27988052
0.18561557 -0.63949943 0.53791970
0.19337735 0.21729065 0.15556270
-0.19597112 0.41517195 -0.76582789
0.12355526 0.21404622 -0.11356973
0.14724949 -0.05825192 -0.11812377
-0.14472806 0.14373629 -0.00876454
-0.13956490 -0.08836617 0.11459713
-0.13510680 -0.11365862 0.08270569
0.19613463 -0.56984186 0.48723608
0.09266390 -0.09547760 0.20457759
0.23409092 0.01799502 0.01640853
-0.14529380 0.11069545 -0.09670142
-0.03985897 0.10528185 0.60536826
-0.09812959 -0.52280694 0.72969037
0.12877880 -0.12655728 -0.14912316
-0.08936377 -0.24630994 -0.24104422
-0.10395882 -0.64238185 0.63823444
-0.13821048 -0.17229407 0.49193573
-0.07954189 -0.49756119 0.68409860
-0.10403709 0.26917282 0.34730098
0.14917532 0.02956793 0.54109091
-0.13709131 -0.51884949 0.73357147
0.24547407 0.12392803 0.17889050
-0.18570685 0.46455270 -0.56054074
0.16431040 0.20012589 -0.01883381
0.12333588 0.24564150 -0.21003610
-0.08104583 -0.35309917 0.68671817
0.07321550 0.30693644 -0.21061069
-0.06752694 -0.30275545 -0.24919687
-0.24439767 0.44492993 -0.76981109
0.05965501 0.40757790 -0.40635717
-0.13185632 -0.42770755 -0.29328310
-0.14732975 -0.02883561 0.20791338
-0.06422938 0.25915256 0.21394564
0.20377439 0.05513638 -0.09175666
0.15941970 -0.56608534 -0.15872915
-0.36401996 0.29671347 -0.81285661
-0.16120736 0.48568317 -0.52703476
0.13424985 -0.11807973 -0.15099220
-0.12074165 0.41150829 -0.49682260
0.02724487 0.26724288 0.49875486
-0.07241936 0.28814414 -0.28283650
-0.11917378 -0.54786617 -0.35850102
0.23081899 -0.03501584 0.06543028
0.09683739 -0.19373745 -0.16229030
0.05532241 0.31132552 0.38836148
0.16663601 -0.63898981 0.53425753
-0.07877019 -0.48345587 0.72498983
0.18458793 0.16241576 -0.30091977
-0.08031858 0.20139177 0.55404776
0.16470703 -0.60873228 0.49498230
-0.12659571 0.15002604 -0.15256017
-0.01635335 0.12749951 0.59470135
-0.09255617 -0.50205779 -0.28959143
-0.06473148 0.22370179 0.55339664
0.23261657 0.05729005 0.49707919
0.23329312 0.02402753 0.49009281
0.18174446 0.06051088 -0.39232913
0.26490197 0.03700378 0.37013641
-0.08856171 0.22052196 -0.44389012
-0.15313563 0.09774916 -0.08376714
0.15886408 -0.13256793 -0.31577948
-0.11458936 -0.02396972 0.30910358
0.19222209 -0.15402353 0.36043960
0.02165373 0.18269098 -0.46792611
-0.08077582 0.28269681 -0.37590557
-0.11121430 0.18157500 -0.13815035
0.03759181 0.36073253 -0.24748833
-0.09747054 -0.48707107 -0.30075255
0.21017504 0.12935558 0.55276352
0.13372828 -0.10142151 -0.33571944
0.18519160 -0.02476720 -0.08261797
-0.10463323 -0.59215641 0.70783627
-0.01378137 0.49950510 -0.40191445
0.20695320 0.09206567 -0.26015931
-0.08546254 -0.54146731 -0.29425192
0.07452360 0.12110987 -0.44353157
0.12506217 0.24754310 -0.29491520
-0.04464755 0.48697960 -0.39178351
0.03347914 0.25249127 -0.09130552
0.03077364 0.16483375 -0.46108142
-0.10914807 -0.04082005 -0.12473339
-0.12237376 -0.20652570 0.53063351
-0.16461647 0.42432299 -0.55832404
-0.16237330 0.21421917 0.32463217
-0.11488244 -0.02952512 0.33467326
0.14353338 -0.05892813 -0.13404012
0.02285217 -0.03624875 0.44976172
-0.06557890 0.03410607 -0.41578329
-0.12480958 -0.27186951 0.59823710
0.15664937 -0.11300585 0.10291187
-0.00869200 0.45673430 -0.60528338
0.18065757 0.19382747 0.00409496
-0.09714517 0.24543214 -0.33853433
-0.04669826 0.24547073 0.14267792
-0.08862765 0.27605966 0.40698957
0.16514380 -0.59028232 0.52985936
-0.16043553 -0.08806957 0.52253348
-0.07028820 0.26807714 -0.54045379
0.15297501 -0.21317032 -0.28001797
0.26572651 0.15057649 0.32360438
-0.08144841 0.30852640 -0.38400978
-0.13485655 0.46954507 -0.71887714
-0.19070888 0.37222052 -0.56968659
-0.02877326 0.22639903 -0.01382515
0.21219924 0.15538375 0.54632133
0.02274536 0.30923656 0.35211575
0.14879879 -0.18239440 0.47423288
0.25737950 0.20717232 0.38823617
-0.12063013 -0.45653638 0.65745658
-0.15311101 -0.62699944 0.68050784
0.07792868 -0.04221901 0.30571830
0.02337298 -0.16228691 -0.23349029
0.14046857 -0.47995955 -0.14278883
0.16757898 -0.08314157 0.15485118
0.12425955 0.21115726 -0.06834347
0.17759417 -0.07925618 0.30585307
0.15206812 -0.12220204 0.42209220
-0.05879681 -0.08513735 0.57719612
-0.15673774 0.05867513 -0.07749949
0.23088107 -0.06980269 0.45056337
0.06702065 0.27394795 -0.15035099
-0.13169558 -0.34814522 0.67779350
0.18843746 0.26882562 0.44917321
-0.11960910 0.17027043 -0.13275874
0.01485961 0.23534624 0.00667382
0.03664049 0.03357818 -0.41436139
-0.09140900 -0.53068137 -0.28903621
0.17738450 -0.02055278 -0.09419338
0.12995306 -0.07647917 0.35985270
0.18811038 -0.51423323 -0.16399851
-0.06934746 0.09345693 0.59772110
0.07445678 0.27904710 -0.47294605
-0.29162577 0.52568883 -0.65322369
0.21459201 -0.20931484 0.41492897
-0.10750061 0.31038624 -0.46964729
0.14241344 -0.07050119 0.32424140
-0.11057700 -0.29601765 0.59424764
-0.05661601 0.19173530 -0.47478765
-0.10051295 0.19593301 0.06686340
-0.10667067 0.23712815 -0.23388170
-0.07902611 -0.46449816 0.69196492
-0.23454013 0.54436672 -0.72007972
0.18400237 -0.48489243 -0.15083234
0.06634383 -0.02957243 -0.40261438
0.10932085 0.25035071 -0.42442450
0.23541680 0.12673026 0.51192594
0.15870349 -0.29814190 0.46049604
0.13579187 -0.23611639 -0.20991242
0.23433560 -0.06722379 0.39385137
0.19604859 0.22368281 0.18670051
0.04084906 0.15170833 -0.46530971
0.00920086 0.14860103 -0.46658513
-0.22327453 0.59626853 -0.62567550
-0.43012720 0.30852702 -0.78069276
0.24121088 -0.02100921 0.46817529
-0.07764336 0.55008161 -0.65349114
-0.21820343 0.60773969 -0.63937116
0.05429271 -0.15358815 0.09912626
-0.00556652 0.23049892 -0.02758040
-0.13223633 -0.31566134 -0.26440710
0.19963419 -0.64107031 -0.16341966
-0.17670926 0.11026596 0.10362163
-0.18829145 0.01173994 0.04143348
0.11366305 0.20776266 0.55742997
-0.08488097 -0.21829273 0.56683278
-0.13084176 -0.35462213 -0.31350020
-0.09073790 -0.17660040 -0.33210823
0.07591695 0.26296926 -0.12527502
0.19678083 0.14209490 -0.03167242
-0.08044230 -0.64972681 -0.38405323
-0.06567650 0.35834301 -0.33208275
0.18751085 -0.03289515 -0.34152198
0.03004368 -0.15720546 -0.21917450
0.17102017 0.22407553 0.12638752
0.05537242 0.18455578 0.56584328
-0.19558933 0.59531766 -0.60789597
0.20749572 -0.13212985 0.33459583
0.11968835 -0.04897469 0.38436198
-0.12264000 -0.18070452 -0.23114194
0.13152431 -0.11572096 -0.05508855
0.24494982 0.12690832 0.08210465
0.19277650 -0.34089097 0.46264571
-0.12634435 -0.48365656 0.73323995
0.19355008 -0.56648988 -0.15637584
0.21386260 -0.13395214 0.35236073
-0.11105083 -0.48246899 0.65645307
0.25773498 0.16315027 0.32527500
-0.14274472 0.05627932 -0.16639729
0.12910053 -0.18877140 -0.29125953
-0.36396435 0.28701425 -0.73994750
0.10771915 -0.08049680 0.24457312
0.14983584 -0.11525214 0.03698231
-0.09051737 0.26269141 -0.48232195
-0.23854569 0.50134265 -0.77365702
0.13757382 -0.63099784 -0.17756218
-0.12873796 -0.10493473 -0.01410534
-0.19018702 0.32158458 -0.62880266
-0.11682437 -0.61913455 0.71596104
-0.08283769 -0.21097897 0.66722202
-0.13159645 0.58716089 -0.57868862
0.22713202 -0.01905553 0.13831775
-0.14328843 -0.09006731 0.09900878
0.24732578 0.18137108 0.30900288
-0.18271369 0.09637778 0.09822161
0.24953428 0.20970394 0.30357042
-0.16051579 -0.01774294 0.20883940
0.07762824 0.29778454 0.43508014
0.17811596 -0.06441583 0.27485523
0.01339975 0.12667894 -0.44577086
0.22874460 -0.16945879 0.44768625
0.14537431 -0.18423027 -0.18537720
-0.11959590 -0.43416762 -0.26427323
0.08933058 0.03085202 -0.42162168
-0.08918951 -0.15105899 -0.04327417
-0.05614289 -0.03578347 0.48968560
-0.26530743 0.32838652 -0.69004714
-0.25164220 0.58862376 -0.59227395
0.00959557 0.03284557 0.55268204
-0.09496884 -0.59826237 0.70740288
0.12793203 0.30040249 0.34255677
-0.05841409 -0.13082619 0.56822675
-0.08924825 -0.04775628 0.24394140
0.19969514 -0.01868702 -0.20266630
0.09948471 0.29294923 -0.42233104
-0.09925955 -0.36024567 0.63836110
0.14982074 -0.10312459 0.40221429
0.15352352 -0.31633213 -0.24003696
0.25305673 0.14435016 0.49288023
0.22583726 0.18318070 0.15074112
0.04309022 0.46373397 -0.47137499
0.18257165 -0.08073786 -0.33578226
-0.23965104 0.46689796 -0.58498740
-0.10329320 -0.12123509 -0.00510568
0.09918638 -0.22797763 -0.16915223
0.25183222 0.21671741 0.37835780
0.25164941 0.20541005 0.40729806
-0.30994391 0.45043448 -0.63874435
0.18949476 0.15891647 -0.31496090
0.12696615 -0.00964244 -0.38951755
-0.18081367 -0.03064569 -0.23985305
-0.20714138 0.54977453 -0.74087995
-0.10499316 0.25616577 -0.27604967
0.25643912 -0.01299820 0.41936937
0.15059014 -0.12408166 -0.33009586
-0.03331728 0.09562921 -0.43448126
-0.04100697 0.56641233 -0.53114754
-0.16320294 -0.17814323 0.51161987
-0.07821627 -0.50790262 0.69573992
-0.07010823 -0.04658195 0.37675488
0.17710130 -0.11948436 -0.29632396
0.13950880 -0.44735649 -0.14380288
-0.00168688 0.53026199 -0.51653647
0.21019676 -0.20628141 0.47691667
-0.20737410 0.53691846 -0.57314080
-0.10904060 0.21406125 -0.37499851
-0.16883042 0.33766299 -0.68593597
0.16114172 -0.64273655 -0.18029489
-0.07478888 -0.09004771 -0.13535506
-0.02941697 0.23258534 0.03271054
0.26343352 0.08294512 0.34410572
0.15574874 -0.10529340 0.10994683
0.19148296 0.11194764 0.55723453
-0.03775455 0.44057748 -0.60974538
-0.14061843 -0.03899709 -0.19681855
0.20557398 -0.64222240 0.46440655
-0.12362453 -0.01320674 0.29453248
-0.14122373 0.20998988 -0.28538528
0.14348640 -0.38737217 -0.14926195
0.16279942 -0.09362335 -0.00827367
-0.09942690 0.23659360 0.19746128
-0.11410343 0.53369170 -0.69585007
-0.03274545 0.35915458 -0.27662215
-0.10623430 0.34074417 -0.44509453
-0.18020013 -0.05908090 0.47633135
-0.06959209 -0.50004917 0.71398789
-0.16090885 -0.01214448 0.33693734
-0.03403981 0.29686242 0.31621438
-0.07277977 -0.10187250 -0.16581209
-0.07395540 0.13460162 0.57738858
0.17708760 -0.42128035 -0.16892089
-0.02529707 -0.16879505 -0.06080477
-0.10526004 -0.11287872 -0.20616540
0.18146536 0.27715626 0.29639873
-0.22715169 0.58070540 -0.66828716
-0.09687062 0.19129731 0.53678817
-0.06571601 -0.20291184 0.56212080
-0.20472340 0.31988183 -0.65739620
0.11609566 0.23530875 -0.13402812
0.11621074 -0.22839296 -0.27743620
0.13370754 -0.09560813 0.45322630
0.00530188 -0.04603866 0.41740459
0.15101062 -0.49276099 -0.11338423
-0.15631518 0.42532539 -0.55183148
0.20963690 0.27114418 0.33052972
-0.08720308 0.51334071 -0.45027164
-0.15752673 0.14440057 0.14265245
-0.08426427 -0.26850337 0.68317950
0.24033430 0.23168470 0.42302620
-0.11975546 -0.11262873 0.07078202
0.17320506 -0.50668645 -0.16820449
0.19780859 0.12741724 -0.21216428
0.08828437 0.08455715 -0.43564120
0.24474597 0.04794656 0.17090741
0.03202309 0.04175583 0.54741764
-0.02270358 0.55932862 -0.51222181
-0.14047170 0.12809063 0.53263599
0.14979798 0.19393604 -0.12163115
-0.13307503 -0.01538751 0.23960581
-0.03781438 -0.08559339 -0.37219274
-0.39611822 0.34792653 -0.79747713
0.14936702 0.20420164 0.55028921
-0.12455194 -0.30602878 0.68484920
-0.09113953 -0.56829971 0.66794920
-0.15329847 0.07737768 -0.38856679
0.03819815 0.28746706 -0.50963432
-0.40353316 0.36760256 -0.75240791
0.07070984 0.23596722 -0.03179549
-0.20041251 0.58667052 -0.61855441
-0.35356414 0.29166618 -0.75045782
-0.01832510 -0.15688521 -0.19243552
0.15074678 -0.31737375 -0.15381739
-0.16208827 0.58993292 -0.70607513
-0.01590303 0.47290447 -0.60800910
0.00306519 -0.16520305 -0.17088573
0.17906320 -0.20154260 0.50282753
-0.12892053 0.32824832 -0.64444351
0.02150491 0.06243911 0.56714141
-0.12985377 -0.02320140 -0.10546458
0.24201924 0.14869268 0.23285034
0.06980959 0.27904576 -0.48358980
0.20809957 -0.40088746 0.52972513
0.24248269 0.08527537 0.49597538
-0.33086827 0.45472798 -0.72833711
0.24002337 0.04698205 0.27445602
0.13771228 -0.44418490 -0.12985320
0.03076207 0.23384270 0.02391660
0.25181505 0.04905426 0.12389988
0.14002635 0.27288905 0.19441654
-0.14992404 -0.13583389 -0.25605196
-0.06684469 0.11861953 0.59107280
-0.12275114 -0.26794904 0.67177808
-0.06735311 0.27570477 -0.18425705
0.18699533 -0.07514732 0.31081119
-0.16416846 0.12410721 0.05915889
-0.13263908 -0.07807998 0.56774420
0.08098522 -0.06658246 0.28335506
0.18661827 -0.54304838 0.55656481
0.05212077 0.24255952 0.09153140
-0.17094186 -0.09488092 -0.28077167
-0.10049971 0.29968631 -0.50291717
0.19791058 -0.52204537 0.50875604
0.25342470 0.03400995 0.29746801
-0.11220506 -0.65434802 -0.40270308
-0.04948310 -0.00279975 -0.41915992
-0.16771379 0.12373306 -0.23151542
0.12722228 -0.05636442 -0.38520738
0.14357975 -0.46023419 -0.13773042
-0.10587683 -0.48905069 -0.27403027
-0.07043225 -0.14911309 -0.05102018
-0.11749709 0.17654814 -0.00586138
0.13082890 -0.63828039 -0.16595781
-0.15840167 -0.13046536 0.55896699
-0.16156060 0.14115757 0.10196732
-0.18471308 -0.02540367 0.10480127
-0.02995156 0.26694870 0.49787182
-0.17273661 0.15090726 0.31352323
-0.05569018 0.29641008 -0.55709684
-0.05727150 0.02653640 0.59749073
-0.06800857 -0.13449065 0.58624417
0.10370745 -0.20524888 -0.16891517
-0.41388911 0.34565675 -0.72700828
0.18648368 0.27789572 0.26045275
0.20828283 -0.00917910 0.25254533
-0.07042579 0.47594568 -0.65757883
-0.24924210 0.50786448 -0.75463712
0.25159723 0.07535935 0.10200562
-0.35145742 0.29223844 -0.76412958
0.14358336 -0.07073241 0.29497927
0.00867870 -0.00524392 0.49497640
0.10626332 0.03456443 -0.42776999
0.07845631 0.34114638 -0.43657675
-0.14521654 0.02849838 -0.15630262
0.00579662 0.52351946 -0.47067651
-0.06155751 0.18040705 -0.45991057
0.18248266 -0.32038310 -0.20073925
0.23079118 -0.00157769 0.27273378
-0.06002634 -0.29779065 -0.27600223
-0.21043353 0.33381984 -0.72245884
-0.02971290 0.29051599 0.29090318
-0.02646908 -0.17096215 -0.00801622
-0.12557633 0.22202817 -0.22451796
0.00870859 0.51089191 -0.53940672
0.01729874 0.34175724 -0.54409897
0.06931181 0.08618441 0.55646443
-0.08172754 0.57833236 -0.59477133
-0.10854645 0.34458816 -0.49807072
-0.12516017 0.20098579 0.24321637
0.10690553 0.08360115 -0.43275484
0.19319922 0.08523138 -0.23111507
-0.15377912 0.21602595 0.39706218
0.19937202 -0.01679488 -0.05139168
0.16901667 -0.51700968 0.54095870
-0.09820549 0.58713013 -0.59747618
-0.10644922 0.26708311 0.40806645
-0.26641664 0.40002644 -0.60099357
-0.11525662 0.17438695 -0.09182902
0.25790560 -0.00082271 0.42351976
-0.10350263 0.04272919 0.56477785
0.13403067 0.21219733 -0.01548552
-0.17345038 0.03731984 0.18095087
0.21087340 0.08027954 -0.30741215
-0.07635316 0.27657047 0.42670381
-0.14150396 0.05103619 -0.11502947
-0.02880157 0.12041022 0.60309720
-0.06792741 0.20676890 -0.03235226
-0.14168288 0.17091197 -0.19993547
0.01482110 0.24056900 0.04981874
0.23127437 -0.11155305 0.36020914
0.22384423 -0.03852006 0.08497530
0.15808697 0.04441676 0.55163085
-0.34419224 0.32090357 -0.70357859
-0.12094089 -0.59686691 -0.37981614
-0.03911610 0.27791247 0.22677448
-0.18768007 0.37519205 -0.76263106
0.20728278 -0.04454038 0.00753894
0.07275538 -0.19034123 -0.19713031
0.16587098 0.25394547 0.17920662
0.22052667 -0.46788791 0.54890221
0.02962209 0.45877594 -0.36775869
-0.25796920 0.51861572 -0.73854607
-0.10090970 -0.44319776 -0.32760417
-0.09324573 0.22021823 0.51328301
-0.14277829 -0.65080315 0.68248707
0.22571152 -0.04450583 0.31106418
-0.05952551 -0.16103031 0.02332183
0.14657886 -0.12546551 -0.16094756
0.00535405 0.47855553 -0.37198052
0.18701267 0.13357818 0.57372731
-0.16186637 -0.05601458 0.52796972
-0.14629853 0.04585212 0.54960108
-0.15599570 0.12145023 -0.36830360
-0.04917789 0.53002769 -0.45726627
-0.06119944 0.21477568 -0.07002120
0.00884452 0.25059173 0.53536576
-0.38299021 0.37695462 -0.77786762
-0.11436093 -0.22144277 0.64335835
-0.09755303 0.18963593 -0.10309902
0.15433393 -0.14972252 0.43413025
-0.03308843 0.43296114 -0.33549991
0.15527101 -0.07308403 0.18516588
0.13802433 0.22260915 -0.38057125
-0.05530448 0.29062313 0.40376529
-0.03165580 -0.11826298 -0.35462385
0.08911704 0.10937061 0.56356835
-0.08096301 -0.35893628 0.66317838
0.10331130 -0.15214643 -0.10949121
-0.14684817 0.58863825 -0.70023364
-0.18912962 0.05820440 0.38187125
-0.05796073 -0.18037277 -0.25667179
-0.29431558 0.31596121 -0.75635839
-0.14238435 0.15811867 0.04394531
0.03161017 0.49866140 -0.46225518
-0.11400434 -0.53559273 -0.35615352
0.06443383 -0.17329547 -0.19889072
-0.13370088 0.06882538 0.54853636
-0.09573086 -0.01830525 0.58409965
-0.07234580 -0.26557967 0.67638850
0.19503382 -0.53271222 -0.12061260
-0.00315078 0.49785078 -0.41145784
0.16662201 -0.15578888 0.37477455
0.24329883 0.06839876 0.18007384
0.00053446 -0.12942924 -0.32842648
0.16767617 0.20162818 -0.00442654
-0.01541130 -0.15857323 0.07461280
-0.09830871 0.46936211 -0.44978425
0.04081323 -0.00787190 0.48326874
-0.16738001 0.07673593 0.20520008
0.12111145 -0.23233336 -0.26766652
-0.39956480 0.31128615 -0.71806288
0.07325234 0.14785670 0.57461214
0.11974338 0.00379675 0.50247675
-0.04758121 0.27282909 -0.53907770
-0.04587746 -0.10372315 0.20534812
-0.21567520 0.32504678 -0.67250633
-0.15904421 0.01079290 -0.21058980
0.14257957 0.20924647 -0.14714849
-0.18648872 0.00766343 0.46327496
0.18007320 -0.34822869 0.48509431
0.15979636 0.28350201 0.44170499
-0.08560520 0.26480135 -0.35282564
-0.13854840 -0.31330296 0.66893226
0.09314473 0.30270267 0.38392034
-0.08175445 0.58622903 -0.55457437
-0.12227602 -0.56096661 -0.35414070
0.23631138 -0.06111420 0.35554516
-0.14544287 0.57235134 -0.54919595
0.18927890 0.02691526 -0.36879870
0.18063936 0.17616609 -0.23164317
-0.08441392 -0.20129383 -0.21975817
0.18329868 0.24653095 0.47346920
0.09240803 0.22701329 -0.06256909
-0.12226719 -0.50197142 -0.32393607
-0.34401304 0.31175786 -0.71096259
-0.08488469 0.20123178 -0.00675501
0.08755383 0.29694727 -0.45793107
0.17346975 0.24976802 0.18445195
-0.05626292 0.56096268 -0.57178408
0.07210590 0.29587054 0.22564366
0.16031800 -0.19573519 -0.20052466
-0.09582329 -0.13969669 0.03979139
-0.06385233 -0.23273040 0.65161467
-0.00884240 0.06135897 -0.43055862
0.16317274 -0.22616269 -0.22953251
-0.12427066 -0.38156262 0.66164345
-0.10450689 0.29254577 -0.44623545
0.23674837 0.01525656 0.05655111
0.01547528 0.42893475 -0.56181991
0.10164703 0.28936431 -0.33601823
-0.05743932 0.55023676 -0.61121911
0.13532175 -0.17089123 -0.17318641
0.07647385 0.08834228 -0.43408912
0.01301285 -0.10812292 -0.36445865
-0.12956564 0.18414749 0.12378742
-0.10820783 -0.47258875 -0.32947350
0.17482552 -0.42048463 -0.17957924
0.15899742 0.12451608 -0.41364399
-0.05050068 0.14025642 0.59211075
-0.24905047 0.40397656 -0.57944709
-0.10060858 0.24140766 0.48655212
0.01202872 -0.16175744 -0.23951125
-0.08928913 0.26183942 0.25369298
0.20375338 0.09496522 -0.22057912
0.05949843 0.25645560 0.52244067
-0.06378405 -0.26639649 0.61165422
-0.11911878 -0.03438764 -0.14041434
-0.14335984 0.16427335 0.16537356
-0.13422211 0.43255603 -0.51939094
0.14898112 0.03732118 -0.41175735
0.06192835 0.24986440 -0.09394672
-0.15568984 0.10232674 0.53241062
-0.15983692 0.32092878 -0.65177196
-0.04192267 0.39312902 -0.30620462
-0.06199510 0.23534666 0.16203058
0.14742544 -0.59583133 -0.17561238
-0.05976208 0.15372373 -0.44504315
0.24279150 0.15555534 0.49198020
0.00671989 -0.04419974 0.31126633
0.22257575 -0.21264505 0.47444028
-0.16495006 0.55169040 -0.55163848
0.12930864 0.01622707 0.52138579
-0.14139384 0.08369111 -0.15499386
-0.16517895 0.16023085 0.31322667
-0.05270534 0.47901031 -0.63435072
-0.14388627 -0.08843305 -0.21056403
0.07861914 -0.15854505 0.02404627
-0.07207771 0.21025099 0.55283189
-0.12663004 -0.24941957 0.63539273
0.17885226 -0.51228273 0.52255791
-0.10160652 -0.46460772 -0.27695513
0.09600836 0.31094468 0.29637164
0.03199543 0.44966251 -0.37052184
-0.32121384 0.43005854 -0.65609729
0.16879633 -0.07172156 -0.34986949
0.14542420 0.09469771 0.57805049
-0.03772998 -0.12667134 0.17136604
-0.13433459 0.20185572 0.48882681
-0.01408531 0.24892256 -0.08810158
-0.12130370 0.07053242 0.55601752
-0.15972954 0.33580282 -0.69775802
-0.13061389 -0.10231506 0.08894534
0.20073664 0.20830965 0.14183505
-0.00005251 0.25867301 -0.09879566
-0.12497433 -0.23395172 -0.29585767
-0.10081270 0.24887571 -0.22132155
0.18879536 0.12952632 -0.08284056
-0.22329357 0.57567233 -0.68511778
-0.09599422 -0.46748525 0.73279482
-0.13641556 -0.20035009 -0.27086788
0.12005560 0.10153803 -0.43444252
0.15434255 -0.07874118 -0.34952798
0.00142352 0.22399762 -0.50113672
-0.30913723 0.41389403 -0.64488065
0.10078576 -0.19937065 -0.18024088
-0.01652023 -0.04295070 0.33966795
-0.12355253 0.21562235 -0.23286684
0.18097806 0.28813791 0.34554625
-0.12763056 -0.53224295 0.66791809
-0.10566330 -0.21521999 -0.32217684
0.18712109 0.13406231 -0.35766128
0.17158346 -0.04727579 -0.17830665
-0.05226155 -0.05558273 0.25867432
0.22002131 0.18778719 0.21112682
0.01162518 0.08229481 0.59082282
0.10202767 -0.23425736 -0.25742227
0.25218195 0.00883232 0.45005098
-0.09697916 0.42508528 -0.43487507
0.11455306 -0.33821753 -0.14618471
-0.16991386 0.48308831 -0.55990088
-0.12416712 -0.26663449 -0.26011214
0.12264545 -0.07627034 0.23411420
0.18915048 -0.60974336 0.54043603
-0.13377011 -0.12288143 0.58676702
-0.19032465 0.39181867 -0.77421308
-0.19671673 0.02337475 0.41428754
-0.18099061 0.59374112 -0.72318178
0.13884123 -0.19723812 0.41553694
-0.11086115 -0.07693949 -0.18544665
-0.09162208 -0.15706123 -0.20566089
0.06081595 -0.15231696 -0.27590758
0.23037070 0.07148657 -0.00282647
-0.11271530 -0.11921082 -0.35053271
0.15824297 -0.15431376 0.46956539
-0.17632112 0.09011967 -0.30852109
0.19685698 0.10349741 -0.35879812
-0.12903610 -0.26393846 0.62426019
0.15072025 -0.09514678 -0.34926921
-0.06066961 0.05609776 0.60049909
-0.38323292 0.36378396 -0.70573932
0.16531581 -0.15554987 0.47780615
0.16968840 -0.25928020 0.52425396
-0.11399749 -0.32495216 -0.23096788
-0.33029795 0.34900814 -0.79494262
-0.15394822 -0.19181614 0.54512441
-0.11024810 0.41637763 -0.69704139
0.20662281 -0.63301414 -0.16435644
-0.04281805 0.06288923 0.60249150
-0.19137564 0.02910031 0.39305735
0.04980197 0.39862958 -0.48149785
-0.04167549 0.25244287 0.16981435
-0.13605309 -0.13854840 -0.33215067
-0.11443165 -0.44316614 0.71415246
-0.14770967 0.42650664 -0.54501796
0.14281148 -0.23929185 0.44965816
-0.21825251 0.36454061 -0.77004945
0.23134425 -0.01993682 0.05622570
-0.01795906 0.06630803 -0.43230417
-0.23313098 0.44960311 -0.76677459
-0.13685700 -0.59097630 0.66515464
-0.10877807 -0.65372580 0.65033102
-0.02978218 0.08392265 0.59461111
0.08797674 0.13641742 0.56667942
0.25400409 0.07713552 0.11927503
-0.03688325 -0.15933518 -0.28259897
0.24838856 0.18822265 0.46572796
-0.18234402 0.55232394 -0.56316966
-0.10992129 -0.13882041 -0.33671650
-0.08507711 -0.51974779 -0.34687358
-0.17580524 0.02171498 0.02104516
-0.06478046 -0.15939234 0.00584101
0.14082113 -0.24618971 0.46913156
0.19245237 0.13085335 -0.33327135
-0.18951805 0.07781576 0.15666234
-0.13233899 -0.05825230 0.56652117
0.17198195 0.16820915 -0.14710161
-0.10993862 0.26710024 0.36043274
-0.07800412 -0.51380169 0.71985835
0.11190121 0.28242338 -0.30344123
-0.13667569 0.10413285 -0.14775494
-0.14242360 -0.26753491 0.65186834
-0.09103168 -0.56467372 -0.34262830
0.06354547 0.30434260 0.31444603
0.10718048 -0.37537274 -0.15710755
0.07102476 -0.14941347 0.11452502
-0.11833166 -0.02475462 0.24605775
0.17157824 -0.35295209 0.51374727
0.00393264 0.26657161 0.50289243
0.18482101 -0.04973778 -0.04411831
-0.02610615 -0.16099337 0.03417023
0.00405262 0.53345132 -0.49002531
-0.14057913 -0.58174360 0.68280607
-0.16515049 0.14022566 -0.30996075
-0.03108113 -0.03382935 0.32825038
-0.07877673 0.27075100 -0.20522034
0.05285677 0.15170738 0.56672025
-0.09154549 -0.37774059 0.68970466
-0.03258697 0.00143799 0.57166553
0.18456531 -0.55480677 -0.12596196
-0.08044790 -0.15886742 -0.33351353
0.11752751 0.16380568 0.57581627
-0.06285449 0.04621377 0.59549409
-0.10568152 0.25766939 0.24596325
-0.13621610 -0.03943545 -0.18833394
-0.13899291 -0.03900083 -0.07800530
-0.08629248 -0.13239482 -0.34357435
-0.11026551 -0.66199744 -0.34664753
-0.09887892 -0.46394712 -0.29305291
-0.09850572 -0.43811607 -0.31975806
0.07837775 0.00533007 -0.41392767
-0.07550987 0.02617000 -0.41751468
-0.11301990 -0.37566778 0.63741738
-0.08987302 -0.65156949 -0.34575284
-0.12655507 -0.00685990 0.57146972
-0.10337997 -0.13002574 0.60635453
-0.11260349 0.57425290 -0.66316253
-0.10095961 -0.47157153 0.67083043
-0.12596819 0.42365739 -0.48687834
-0.10842878 0.33244574 -0.60866576
0.20731315 -0.17645030 0.38069117
0.15817951 -0.19138677 -0.27026737
-0.03007662 -0.00682638 -0.39681101
-0.07898693 0.06604236 -0.42141858
0.08068033 0.27588609 0.47975820
-0.10528398 -0.34208283 -0.24215493
0.15947308 -0.05302944 -0.34843802
-0.11203711 -0.46087626 0.73151374
0.10969955 -0.05238234 0.30261722
-0.05019327 -0.14510174 -0.15406844
-0.05171328 0.24925244 -0.52626091
-0.19397156 0.03945902 0.44613919
0.00202819 0.50408888 -0.57083845
0.22487211 -0.01277504 0.04548820
0.02863911 0.45939553 -0.38480774
0.05451430 -0.09090125 0.23390430
0.08107202 -0.09330152 0.22130482
0.17141986 -0.20030230 0.38414511
0.13611791 -0.42948183 -0.13865080
0.05070015 -0.16233328 -0.21242896
0.22127873 -0.47922412 0.52699494
0.13767458 -0.18625417 -0.29720110
-0.21051539 0.40128979 -0.56573528
-0.00936991 -0.16990738 -0.14018381
-0.09936791 -0.12969141 0.11403900
0.15467237 -0.26397461 -0.18755981
0.20056283 -0.00726592 -0.19810432
0.10373998 -0.22450858 -0.26803017
0.02965216 -0.15778722 -0.24670735
0.17557578 0.07569245 -0.39744094
-0.14181188 0.58142263 -0.68568623
-0.18708000 -0.04061351 -0.28602102
0.18591085 0.15126149 -0.04604375
0.22776115 -0.02559024 0.08440886
0.17202543 0.18866543 -0.30879924
0.00184135 0.06000016 0.57546109
0.18995669 0.10163052 -0.17075062
-0.06999245 0.56147975 -0.49636224
0.20413393 -0.06956220 0.31899530
-0.09475064 -0.24566463 0.58297938
0.13936104 0.21620280 0.54846728
0.17681000 -0.62597758 0.53819054
-0.13615322 -0.56672853 0.70980412
0.06019209 -0.05477097 0.27620339
0.16255605 -0.23698124 0.52870882
-0.17828740 0.09674059 0.01733968
0.16944921 0.19794683 -0.26357886
0.23835498 -0.07078515 0.41128698
-0.26091397 0.53804636 -0.62784958
-0.12491852 0.11212798 -0.41591012
-0.04201697 0.23433629 -0.51855326
-0.11409937 -0.34519324 0.63096726
0.01932055 0.30988955 -0.52989411
0.13345976 0.22393493 0.01038527
-0.15888542 0.59462172 -0.63437527
-0.23754492 0.55305707 -0.70504445
-0.14989659 0.06901933 -0.10121179
-0.22416110 0.51616395 -0.59152067
0.17304352 -0.27020940 -0.21322513
0.10587259 -0.12929872 -0.33558375
0.18368208 -0.29465270 -0.22157325
-0.19337787 0.39504141 -0.56657487
0.18237001 -0.54235584 -0.12527740
0.20033953 0.18147726 0.04271637
0.15260224 0.24982530 0.49674326
0.20129383 0.07327158 -0.09761030
-0.12578696 0.19288738 -0.19276474
-0.08088961 -0.29205468 0.60928565
0.16327788 -0.47031844 0.54581761
-0.12221414 0.17429112 -0.16498387
0.19057128 -0.61718988 0.54885453
-0.10102168 -0.16827075 0.63010257
-0.00022505 0.30659893 -0.15769929
0.05923750 0.24102291 0.01165971
0.22428423 -0.49451894 0.53655738
-0.01102209 0.54816365 -0.52229023
-0.06562852 0.10998078 0.59563005
-0.04850881 -0.16397071 -0.00857039
-0.04402071 -0.16262421 0.08141068
0.15263881 0.01933824 -0.39447698
0.16947128 -0.36135611 -0.15545768
0.20412728 -0.63839525 0.48253345
0.15957053 -0.32647482 0.49463111
-0.10829286 0.18141057 0.01878024
0.10583620 0.15078348 0.57273841
0.24586043 0.20371218 0.28916609
-0.20810771 0.52477354 -0.75556386
0.06545825 -0.16075125 0.07001814
-0.07538000 -0.08351684 0.58057654
0.00087769 0.01696142 0.52793127
0.04376138 0.31248596 -0.51833594
-0.13354900 0.10945504 -0.39845625
-0.09668523 0.29336527 -0.47617933
-0.02336122 0.13812411 -0.46083608
-0.10835055 -0.09417564 -0.03939110
-0.00717689 -0.04565866 -0.39203227
0.12266842 0.29907584 0.27499670
-0.06609119 0.28414172 0.32590184
0.17544615 0.20342426 0.01942516
0.04584901 0.42201293 -0.34650582
-0.10946284 0.43016872 -0.44888934
-0.08265552 -0.47541949 0.72179580
0.14630316 -0.44737092 -0.15166011
-0.14617595 -0.16165844 0.49343735
0.19852006 0.12556425 -0.30550167
-0.11374447 -0.06230590 -0.36805943
0.00347121 0.29795784 0.27556381
-0.17581514 -0.04028549 -0.30142814
-0.26190472 0.54619873 -0.63795960
-0.08931620 0.26635596 0.44155592
-0.10773250 0.48926544 -0.46959782
-0.00678255 -0.08167572 0.25063080
-0.12984583 0.56611282 -0.53033102
-0.26350659 0.54567921 -0.65656555
-0.08943747 -0.11913098 0.48512048
0.01903262 0.04692096 0.56644934
-0.17830555 0.03731773 0.15408406
-0.11021917 -0.39272320 0.70739573
-0.14160541 -0.19362664 0.57455224
-0.00418680 -0.03402287 0.35245970
0.17284250 0.26466838 0.45911947
0.00128341 0.37474263 -0.24371254
-0.06160465 0.40679300 -0.61537147
-0.17007479 -0.01855118 0.37158132
-0.17908761 0.10365640 0.05952462
-0.25944752 0.48858163 -0.76211679
-0.19334903 0.00462472 0.41952363
0.15486151 0.22788322 0.52618736
0.24832845 0.02993070 0.05292547
0.23974583 0.00063287 0.28920981
0.19238424 -0.32664245 0.46279263
0.12716697 -0.05635547 0.35737053
-0.28179702 0.39747918 -0.60046154
0.10355057 0.03370463 -0.41873917
-0.25034112 0.37497330 -0.59217858
0.03127021 -0.17391086 -0.12078447
-0.25550094 0.50135523 -0.75748235
0.17904177 -0.53021377 0.52676135
0.19455403 -0.17943949 0.36808804
0.13879827 -0.40709531 -0.13720396
-0.11424392 -0.22946849 0.66278982
0.07383899 -0.05310307 -0.39611208
-0.02182649 0.00608576 0.58415496
-0.14551264 0.48106486 -0.50592804
0.10844383 -0.38171241 -0.18659499
0.01301064 0.41268444 -0.30337298
-0.32437837 0.30658382 -0.70322073
-0.13451725 0.36315572 -0.69058895
0.14617135 -0.11280002 -0.17586805
0.12928742 0.09777881 0.57345545
0.18997356 -0.18694246 0.48558879
-0.25519001 0.46053222 -0.59636372
0.16371766 -0.16435464 0.50052893
0.14609697 0.00736645 0.51909286
0.10831249 0.10419154 -0.42875427
-0.13014767 0.16430768 -0.01169671
-0.03077422 0.37968567 -0.30066672
-0.04130278 0.28439805 0.44135937
-0.15917143 0.20609184 0.29755577
0.14016287 -0.42908835 -0.15571554
-0.02851795 -0.12820172 0.16131270
-0.15223537 -0.00001568 0.23567554
-0.15888529 0.34281218 -0.57463056
0.06519090 0.33520511 -0.24521345
-0.13248153 -0.20562556 -0.27880791
-0.08136223 0.36479184 -0.38819510
-0.08873285 -0.07820082 0.48161072
-0.16340840 0.20702074 0.37993377
0.04358370 -0.12422080 0.17069456
-0.30368221 0.49723905 -0.62948775
0.21371743 -0.49186015 0.51791495
0.11981331 0.28669932 0.22184108
0.21439216 0.09685851 -0.04740574
0.13000651 0.24894306 -0.23699781
-0.43603164 0.29287401 -0.77487701
-0.08571171 0.47162721 -0.43601522
0.03305307 0.35508725 -0.25356752
0.00130543 0.02781674 0.57200080
0.17964253 0.15166156 -0.18077952
0.00790688 0.02559445 0.53553784
0.09466989 -0.04579675 0.45162606
0.15990502 0.26583785 0.47098258
0.25445455 0.11723495 0.30764279
-0.14575574 0.15536518 -0.36756417
-0.04642938 -0.12107027 0.16660351
-0.17206156 0.04231362 -0.32681140
0.10295819 -0.30963403 -0.17211205
-0.09464468 0.32406843 -0.57706606
-0.00419609 -0.08239392 -0.36801612
-0.18520191 0.04911995 0.03022369
0.27230519 0.12053293 0.35104883
-0.11849043 -0.47975397 0.72785199
0.18124473 -0.07305591 -0.02454977
-0.16931432 -0.04107182 -0.32718322
0.08986765 0.28792748 0.21049713
-0.18147886 -0.00870848 -0.26850015
0.18415955 -0.29269153 0.44248360
-0.05768014 0.36781919 -0.60966325
0.05393961 0.23088413 -0.05494071
0.07442255 0.27851161 0.20143305
0.07442895 -0.15267359 0.08487645
0.03424086 -0.12904632 0.17135791
-0.17678218 0.06557506 -0.32320228
-0.18128395 0.58120346 -0.71317172
-0.14275038 -0.09622443 0.04983712
0.26217386 0.17915818 0.43266043
0.20936170 -0.62065125 -0.17077239
-0.04521605 0.55290735 -0.47760162
-0.15056637 0.19588712 -0.26493806
0.08443962 0.26292384 -0.14284658
0.24379826 0.22502746 0.33680671
0.06963232 0.31108418 0.30266517
0.10537019 0.30683616 0.34491646
0.11646485 -0.26422656 -0.16734332
-0.09294273 0.46534583 -0.43136793
0.22084263 -0.24754252 0.43322343
0.21035767 0.02195598 -0.23323023
-0.09791968 0.40588623 -0.43630433
0.02412110 0.37022239 -0.25389707
-0.14499348 0.35198972 -0.69218147
0.04690758 0.30691570 -0.51070851
0.20518911 -0.04709128 -0.29489258
-0.10497563 0.53893018 -0.68632525
-0.14615120 0.20778191 0.45287231
0.03046478 0.24212921 0.06584331
0.17705168 -0.43260521 0.53712058
-0.05063031 -0.04454342 -0.39379990
0.05707513 -0.16838659 -0.17818406
-0.01603710 -0.05441910 -0.38938650
-0.12537666 -0.40391877 -0.30466574
-0.17544264 0.35738856 -0.56822163
0.08812962 0.31426895 -0.31208470
-0.16889501 -0.01243656 0.01536783
-0.05313346 -0.16213849 -0.28437915
-0.09373115 -0.27027676 -0.33454967
0.16844223 -0.52390379 -0.10278092
0.15140241 0.23187301 -0.31382370
0.27031085 0.09602255 0.33831573
-0.16434377 0.03337952 0.21498540
0.17786567 -0.39193925 0.53163010
-0.14620012 -0.08607960 0.07504362
-0.05566418 -0.06076813 0.56628197
0.16835195 -0.22706355 0.51254302
-0.10498588 -0.27935326 -0.31217402
-0.18072091 0.45206964 -0.57149708
-0.35825801 0.42737356 -0.73100078
0.06377129 0.39469162 -0.44084945
0.04790090 0.30443528 0.25285816
-0.12624906 -0.49838045 -0.30724180
-0.03755510 -0.16062069 -0.22023377
-0.40272295 0.27189183 -0.79069352
0.22712421 -0.23383747 0.43340376
0.15708035 0.25489390 0.17095499
-0.21069337 0.55185622 -0.58440363
0.20724088 0.16122980 0.00583456
-0.14551133 -0.62924272 0.69003046
0.09250230 0.30910689 -0.38734195
0.23614082 -0.01161106 0.08483262
-0.32549882 0.30815965 -0.71774840
0.07764956 -0.04311337 0.41876119
-0.13819939 -0.49437317 0.70193368
-0.05920193 -0.23022921 0.59237933
-0.03367472 0.23951623 -0.06777088
0.20833462 -0.62042761 0.45944420
-0.09789390 0.14431061 0.56934881
-0.20158383 0.48257786 -0.57434827
-0.13524604 0.17496893 0.22826457
0.02130614 -0.03273131 0.33486125
-0.18657601 0.02880104 0.02823871
0.12712093 0.21695185 -0.03645817
-0.08847259 0.54521888 -0.49338433
-0.12890282 0.06054293 0.55822855
-0.15743269 0.08233848 -0.07810839
0.09325857 0.24271265 0.06253806
-0.08268476 -0.09861184 0.47109666
0.23294464 -0.02790572 0.47949183
-0.12583408 0.17549166 0.04754300
0.15402380 -0.38504457 -0.20745701
-0.13584092 -0.34975064 -0.26915145
0.23974392 0.14240681 0.16268575
0.02446991 0.02008100 -0.41357940
0.16313383 -0.28470099 0.52004445
0.09556010 -0.23914935 -0.20484050
0.03694664 0.44042873 -0.36778477
0.14995341 -0.07676531 -0.16481546
0.12729600 -0.09892806 -0.13528994
-0.32778043 0.46609390 -0.68804979
-0.13220663 0.01900257 -0.12500948
-0.33311409 0.30636320 -0.76442498
0.18517217 0.14683853 0.55709195
0.27349597 0.11084887 0.41453663
-0.10684292 -0.08779622 0.17126946
0.15233414 0.29976550 0.34556592
0.15927893 -0.27255809 -0.17540178
-0.10341647 0.25522912 0.43998200
0.18129006 -0.11904875 0.34332272
0.16654706 -0.09000245 -0.02754650
-0.20703496 0.59101504 -0.60405624
0.21946147 0.09785984 -0.03264802
-0.18294705 -0.00013654 0.33848909
-0.03137388 -0.13568258 -0.32076636
0.07892653 -0.12235771 0.16084374
0.15539132 -0.16462037 -0.19470635
0.16610724 -0.48103729 -0.10802802
0.19313815 -0.09672372 -0.25277090
0.00917450 0.28815016 0.46784320
-0.22356778 0.35795981 -0.58542967
0.18994293 0.08090901 0.55021125
0.10198884 0.29054353 -0.26457077
-0.09346441 0.25323695 0.47618270
0.12658405 -0.16225226 -0.14847249
0.22759783 0.12773973 0.01409658
0.21539971 0.03621014 -0.27496269
0.17034800 -0.64196372 -0.18355827
0.01057969 0.30568764 0.27460495
-0.14797862 -0.07519070 0.08392790
-0.26025534 0.33019733 -0.65394628
0.22419277 0.17453304 0.15954058
0.17493851 -0.04263641 0.21187015
0.16973473 -0.56101239 -0.16208531
0.20097220 -0.03888129 -0.04211345
-0.16172126 0.15149617 -0.32955170
0.02144229 0.26351762 -0.09300596
-0.13965449 0.16208939 -0.36502731
-0.31675190 0.48517856 -0.70759475
0.04835962 0.45570925 -0.45915717
0.15483962 0.15507232 0.56591672
-0.06861612 -0.16942975 0.61282516
-0.30354756 0.49365550 -0.61955839
-0.16077787 0.13833733 0.18381995
-0.19007966 0.04395918 0.06483740
0.27081406 0.13260615 0.34899855
0.04825776 0.24340793 0.06139982
-0.04789260 0.19391255 -0.48557875
0.21604109 -0.07198793 0.32305452
0.19689521 -0.28364819 0.50414884
0.18886063 0.25645471 0.22035265
0.08069825 0.30995002 0.35435465
0.01636627 0.43481779 -0.34645984
-0.07256900 0.36942470 -0.61860055
0.02795111 0.03758761 0.52923548
0.19555840 0.02149920 -0.35940346
0.26277566 0.04559109 0.40900770
0.15307197 0.28127936 0.42435792
-0.17417976 0.05149629 0.17131113
-0.05237906 0.23343241 0.13669778
-0.01374178 -0.15416197 -0.22721429
0.13622242 0.04185594 0.54598886
0.03553303 0.45903420 -0.37805417
0.02564722 0.47893456 -0.40740213
0.02751105 -0.08578523 0.24157590
0.08284685 0.31006464 -0.47698286
0.20507920 -0.51226872 0.51840049
0.13940531 0.18750285 -0.09087575
-0.13478267 0.36851311 -0.71330136
0.16073900 -0.11827760 -0.31898409
-0.01224158 0.50099629 -0.59948277
-0.01684774 0.36884236 -0.56430453
0.08864486 0.22876629 0.00130966
-0.08747176 -0.06434751 0.50111109
0.10649084 -0.15287235 -0.29586554
0.03748447 0.21100497 0.55633152
0.07053755 0.18099278 0.56863236
0.03557130 0.40244293 -0.29101586
-0.00945896 0.23138328 0.02008869
0.09651232 -0.13779205 -0.07272371
-0.17914477 0.00335245 -0.26409039
0.23866996 -0.10550746 0.38513538
0.08446693 -0.11547443 0.17779763
-0.14055774 0.04726333 -0.13357261
-0.10586166 -0.15636750 -0.34148416
0.06309694 0.27828076 0.18813595
0.24719045 0.04313714 0.15212119
0.02604192 0.39767236 -0.27740535
0.19878781 -0.63955206 0.45414335
-0.12795720 -0.22525041 -0.24507168
-0.01855289 0.15507495 -0.46591395
0.21104124 -0.02800523 -0.01349401
-0.06765191 0.29011878 -0.26361415
0.14481072 -0.41535431 -0.14304934
-0.32800612 0.39796522 -0.77581924
-0.05847903 0.42776442 -0.36430210
0.21532235 -0.21070111 0.40389499
-0.31676120 0.48794901 -0.68575746
-0.12336278 -0.11192319 0.02473282
-0.14107838 0.13262364 -0.08349164
-0.11413353 -0.08011524 -0.09307046
0.19816756 -0.52307904 -0.13675614
0.06141376 -0.00814851 0.49797493
0.03922164 0.28427714 -0.14409663
-0.08810561 0.19907556 0.04293837
0.18019879 0.14594930 -0.09294924
-0.08328827 -0.13182291 0.50936687
-0.14199492 0.05198804 -0.12435957
0.07148181 -0.15163594 -0.29108897
0.18880975 -0.11701086 -0.25706398
-0.02622399 -0.14439650 0.15295438
0.15407620 -0.17434938 0.40666386
0.10244586 0.24108219 -0.12638375
0.19055453 -0.09803002 0.32648289
-0.16209909 0.51837677 -0.53775775
0.12235360 -0.04407496 0.48187959
0.19763619 0.27755895 0.29526135
-0.15446068 0.35069388 -0.56552643
0.08349730 0.28556880 -0.20006964
-0.14641225 0.40753520 -0.73517436
0.17617896 -0.52196974 -0.15996240
-0.08933344 -0.08212525 0.19504699
-0.11267716 -0.09762902 -0.03057271
-0.08751300 0.35607648 -0.60953569
0.15674564 -0.10788765 0.03901945
-0.11802271 -0.48664913 -0.27445757
-0.23093343 0.33388174 -0.61692464
-0.03922231 0.55885911 -0.51098514
-0.12378348 0.18590058 0.13813014
0.02472427 0.49688435 -0.50833571
-0.06872755 -0.04372096 0.36238730
-0.04356926 0.37479246 -0.58573419
-0.10769699 0.53798419 -0.49569452
0.03507953 0.31636319 0.35774159
0.25871018 0.09091952 0.46841872
0.15966187 0.28257021 0.26212180
-0.15157068 -0.08909136 0.44398674
