0.45909277 0.55658376 0.33461645
0.28194275 0.77197808 -0.19965820
0.41474661 -0.20709887 -0.69688213
-0.37593243 -0.02710940 -0.71031153
-0.06840371 -0.53011823 -0.80129021
0.10632601 -0.64328104 -0.57114369
-0.47996131 -0.14180014 -0.67750669
0.10959301 0.36885604 -0.81382942
-0.33339667 -0.83143979 0.05937510
0.50224471 0.29703131 0.55309635
0.07552672 -0.62520617 0.59958810
0.82955599 0.00266040 0.40374687
-0.80939072 -0.10649554 0.46452540
-0.71732759 0.35292077 0.30606291
-0.75745398 -0.27598828 0.13159105
0.16376495 -0.66542035 -0.51484478
0.02904221 -0.79419845 -0.17119588
0.82498425 0.04335907 0.09336312
-0.09064970 0.51186681 0.77499735
-0.77467209 -0.00136897 0.55441421
-0.77363163 -0.23879892 0.09861521
-0.69485313 0.42128059 -0.20753901
-0.59402812 -0.38013747 0.40959099
-0.00995062 -0.04403060 0.83847469
0.53083426 0.27552783 0.55570585
-0.08761857 0.10271265 -0.82567853
-0.68880773 -0.41671884 0.28931969
0.20617709 -0.38085300 0.76404417
-0.74459130 -0.29333386 0.00260248
-0.61698383 -0.03612377 -0.62221885
-0.31163442 -0.80545712 0.12473750
0.47273356 -0.06338538 -0.67313200
-0.34741339 -0.35704431 0.67503786
0.51492107 0.33594435 -0.51871938
-0.27834824 -0.84747535 -0.05095254
0.14933729 -0.65819353 -0.53561920
-0.60799730 -0.57964683 -0.21815242
0.03257716 0.80945265 0.06965828
-0.74748302 -0.30244675 0.07392096
-0.84014714 -0.05537114 -0.39933196
-0.81155771 -0.13409783 0.05857303
-0.02973307 -0.22962879 0.84268475
0.60274953 -0.34894335 -0.42613313
-0.70414227 0.08880764 -0.58613038
-0.16996692 0.17247623 0.78456742
-0.32877111 -0.09897035 0.72375607
0.29062212 -0.83005571 0.05758062
-0.38329917 0.58274990 -0.42388523
0.26119578 -0.73125464 -0.35307893
0.38612285 0.30804408 -0.68162066
-0.29934880 -0.81258899 0.10092334
-0.59419799 0.70050251 -0.04372525
0.35633308 0.80683905 0.06953768
-0.43701810 0.47245294 0.46808562
-0.24140406 0.75290155 0.23028031
0.20079990 -0.60234523 0.56866950
-0.57793772 -0.21691823 -0.59493732
-0.67435861 -0.49749273 0.07933883
0.29934689 0.73844612 0.27369037
0.37968618 0.76472217 0.18960530
-0.64748472 0.13525930 0.58358639
-0.28307921 0.59417915 -0.50611669
0.73268849 0.28377572 0.04022937
-0.85168540 -0.00294214 -0.05545028
0.64014709 -0.52333933 0.18570429
0.62685066 0.19041876 -0.55091232
0.16685684 -0.84042859 0.04490555
0.62245440 0.45113647 0.29012534
0.20023777 0.67075181 0.42911527
-0.29087916 0.58208305 -0.51029015
0.13789594 0.05042563 0.79251951
0.57189703 0.51298255 -0.27928993
0.36945292 -0.84974647 0.02426162
-0.07747227 0.72208947 -0.31807342
0.04072329 -0.62929267 -0.60788041
0.81478351 -0.08002010 -0.22292058
0.80136311 -0.10632335 -0.35498920
0.63898283 0.52396202 -0.08533914
-0.63012201 -0.39707160 0.36249977
-0.42120370 -0.59649283 0.36739352
-0.16447389 -0.47310489 -0.76245874
0.58643615 0.27625778 -0.50119591
-0.82840025 0.08635564 -0.31562629
-0.37656254 -0.83136511 0.06392048
0.70565534 -0.36324370 -0.01886621
-0.75220031 -0.28551301 -0.06371813
-0.04344822 0.50388688 0.82765573
0.23379818 0.13937858 0.75244099
0.12375325 -0.09800327 0.79637206
0.70963502 0.34812489 0.23228425
-0.80661601 0.12786685 0.15733291
-0.70697206 -0.42430988 -0.18034273
-0.59754944 0.54243624 -0.23822166
-0.21335389 0.80828309 -0.10715513
0.54783553 0.11926122 -0.64157021
-0.24291381 -0.86014748 -0.02243551
0.57728773 -0.13711368 -0.62688518
0.59876037 -0.56415385 -0.21710579
0.68146718 0.41343024 0.01651357
-0.73555517 -0.32898220 0.05954235
-0.24635547 0.56151056 0.56638592
-0.22711273 0.29852253 -0.76802897
0.06092261 -0.77619475 -0.22520895
-0.73563558 0.31339464 0.08576110
-0.31127790 -0.25677162 -0.74376309
-0.13564742 -0.02841130 0.79421604
0.20366012 -0.26163080 0.77044594
0.11702125 0.69157189 0.38235858
-0.24384947 -0.10708265 -0.76335084
-0.83737826 -0.06111383 0.07538306
0.49031854 -0.58826172 -0.30108711
0.16676454 0.35649574 0.77905577
-0.29497811 -0.69916660 0.38882306
0.74640554 -0.25283724 0.30581474
0.22834519 -0.70962447 0.38214698
-0.21262883 0.06941449 -0.77927756
0.09531711 -0.83721638 0.04215200
0.00811115 0.31968445 0.83660918
-0.59053385 -0.58103305 0.21365531
0.70103931 0.00970494 -0.58712018
-0.84288579 0.04413665 0.24332193
-0.29370010 -0.84102631 -0.05292926
-0.13488759 -0.27517247 -0.80641669
-0.53224343 0.43195146 0.40921283
0.28849658 -0.09210237 -0.74244124
0.11859368 -0.82787764 0.06275784
0.21249558 0.65645939 0.46468580
0.82360941 -0.05512071 -0.27442050
-0.12681085 0.55874729 0.68158609
-0.62058759 0.48059425 0.26919118
0.80715013 -0.09076203 0.04896917
-0.84661615 -0.03416538 -0.23855262
-0.38663489 0.35544407 0.63082206
0.45133165 0.69689131 -0.22380880
0.72389370 0.00022419 -0.57553446
-0.25848687 -0.56608725 -0.56737566
-0.22975747 -0.81836981 -0.11969956
0.83493125 -0.00295956 0.41661221
-0.09016706 0.83923632 -0.01373839
-0.43830281 -0.79692352 0.14155430
0.36079815 -0.55900657 0.44879225
-0.01802166 0.15147184 -0.84760499
-0.14097610 -0.61856824 0.61015129
-0.11216379 0.78516287 -0.16350402
0.76770818 -0.19470675 0.32490203
-0.71903962 -0.36675265 -0.02199775
0.07080486 -0.49509487 -0.81360304
0.14698619 0.37604383 0.78618145
0.28776634 0.72035217 0.30555621
0.49211657 -0.67860562 0.20696945
0.34690049 0.67356229 -0.34282285
0.31623036 0.26181275 0.72129869
-0.33118957 0.70779586 -0.33620346
0.41833419 -0.51648033 -0.44471318
-0.52943730 0.00264212 -0.65730959
0.06923286 0.21231183 -0.82446086
-0.41958636 0.83570057 -0.02791396
-0.13571678 0.78948343 -0.15084471
0.32679150 -0.78575128 -0.19983695
-0.27604771 -0.05678947 0.74370903
-0.54480112 0.19912371 0.62859219
-0.47943830 0.83788508 0.01217172
-0.44662327 0.38006249 -0.56356990
-0.39684793 0.16626123 -0.70542294
0.65232122 0.48489684 0.15408984
0.49482262 -0.41157252 0.45621818
-0.10297396 0.67084694 -0.45147562
0.12101814 0.57554871 -0.66850704
0.27705991 0.62567580 -0.46203530
-0.72250211 0.35841057 -0.18212634
-0.12653631 -0.81563824 0.09632841
-0.59838164 -0.21179743 -0.58290464
-0.20316891 -0.27820343 0.76834327
0.69575155 -0.36617103 0.30196592
0.64654779 -0.05038042 -0.60682601
0.71767259 -0.32677659 -0.24807039
0.23234798 0.64242262 -0.49327251
-0.29813826 0.20668827 -0.74850315
-0.39872527 -0.80991411 -0.13110413
-0.47542420 0.27436829 -0.63033879
-0.61205965 -0.62463892 0.15029539
0.39185822 0.13610241 0.69331306
0.24536194 0.82111406 0.04885922
-0.77512962 0.21134904 0.18642323
-0.01941113 -0.42837787 0.83426273
0.25537586 -0.28063616 0.74921817
-0.27849227 -0.75993389 -0.28080928
0.16775231 0.71768761 0.31995097
0.75457078 0.21629234 0.09958720
0.61338401 -0.13600217 -0.61396062
0.10604597 -0.67912513 -0.47723359
-0.20103110 -0.63881963 -0.57088661
-0.39089155 -0.42252636 0.56840569
0.13269211 0.62302923 -0.57697910
0.06518623 0.37885395 0.81243646
0.18144159 0.74704385 -0.26736364
0.57457215 0.24965672 -0.54461944
-0.24023193 0.62997091 0.50440830
0.37795717 -0.60001862 -0.40090010
0.66186118 -0.48031080 0.07094088
-0.83844340 -0.06421720 0.29019678
0.45021439 -0.33950567 0.57741046
-0.49705619 -0.07356253 0.65958387
-0.79161018 -0.18148060 -0.10254569
-0.30094191 -0.81118196 0.11117748
0.04881772 0.18226390 0.82469076
0.59942079 -0.61772859 0.14110726
-0.26541620 -0.61767656 -0.51059663
-0.20483746 -0.51463288 -0.67300874
-0.53533959 -0.06963474 0.64566392
0.55629754 -0.58557796 -0.23709036
0.40869594 -0.73047733 0.23991646
0.38610944 -0.15116471 -0.70457643
0.77007735 0.18208727 -0.38996771
-0.04436712 -0.58234930 -0.73480409
0.46294609 -0.75818652 -0.16045605
-0.21524423 0.70578241 -0.37212065
0.15876995 0.01787008 0.78217804
0.17085904 -0.63241237 0.55718452
0.43423393 -0.71571970 -0.23170453
0.52960360 0.13436100 0.64341068
-0.53700805 -0.49912530 -0.36633986
-0.85439926 0.01624730 -0.29272276
-0.56807220 0.37488469 0.42514879
-0.45195767 -0.80129391 -0.14628561
-0.21658182 -0.46607786 0.70191866
0.53270632 0.05558854 0.64357573
0.59867215 -0.25005543 0.52760786
0.72041965 0.32097802 0.23931998
-0.48108038 -0.72200358 -0.19511591
0.74577755 0.24512807 -0.30081084
-0.20278604 -0.75166607 -0.29416239
-0.62462741 0.62088025 -0.10156914
0.23782104 0.14876750 -0.76272702
-0.50778681 -0.70227545 0.17488739
0.09835184 0.49017963 -0.78133327
0.78411907 0.14997409 -0.07984889
-0.85633445 -0.00272757 -0.09553765
0.38383344 0.08834961 0.69435716
-0.84542841 0.03415710 0.28995863
0.55870736 -0.67958248 0.12059087
0.70903933 0.34337449 0.05235877
0.00612340 -0.45864302 -0.84282327
0.41276342 -0.79734617 0.14852801
-0.68010962 0.18861771 0.50207186
-0.80009985 -0.17024639 -0.31655851
-0.64142644 -0.38205308 0.36383122
-0.03195818 0.69801372 -0.39086005
-0.68581247 0.26851466 -0.43682098
0.28023836 0.39506716 -0.69274342
-0.78679383 0.18225001 0.23098120
0.76095152 0.16024718 -0.44639006
0.50832647 0.78947544 -0.07466616
-0.32600820 0.34025288 0.70384794
0.11457197 0.66420835 -0.47088048
0.64035130 -0.55486751 -0.15058567
-0.22237876 0.73138499 0.28326386
0.29086739 -0.07991841 0.73107708
0.01316800 0.79933804 -0.12288632
-0.50782508 0.49302164 -0.39983332
-0.66278923 0.49275002 -0.22393087
0.39130354 -0.79557979 -0.16763039
-0.43090963 0.64432615 -0.30952007
-0.56498349 -0.70144528 0.11821339
0.00389270 -0.27249360 -0.84621930
-0.61960334 -0.62408811 -0.13509339
-0.39377663 -0.16285785 -0.71062541
0.16192359 -0.71940446 -0.38188088
-0.13917848 -0.79764915 -0.17071818
-0.84689915 0.02685312 -0.45899397
-0.77959126 0.20012236 -0.37678528
-0.48166606 -0.33477551 0.56812793
0.36382157 0.42284042 -0.58197361
-0.06772065 -0.05762305 0.82864118
0.24559677 -0.70302534 -0.43358037
0.70162296 0.31979913 -0.33887404
0.65216637 -0.03382226 0.58994317
0.17459129 -0.42335141 0.77321124
0.22324258 -0.74976277 0.27867180
0.35140643 -0.33612436 0.68577290
0.33399710 0.41552117 0.61265528
0.58457828 -0.56428576 -0.23537976
-0.80319828 0.00615421 -0.55190438
-0.03601178 -0.36529627 -0.84648538
0.61878687 0.53785485 -0.20774025
-0.16779861 -0.67921805 -0.48734316
0.17206830 -0.57031083 -0.65158284
-0.20801871 -0.29237452 -0.77982980
-0.17869908 -0.80019987 0.14060476
0.17071339 0.12005449 0.77877450
-0.00060354 -0.50720334 0.84520996
-0.38578132 -0.78197509 0.17930931
-0.15799198 0.56912363 -0.65554512
0.44151428 0.31928435 -0.60465741
-0.20234491 -0.04733103 -0.78276110
0.57418168 -0.12179669 -0.63084936
-0.55346304 -0.15115292 -0.65094554
-0.32590488 -0.45296374 0.60090256
-0.40060180 -0.81847155 0.08234021
0.55882585 -0.19524209 0.62265962
0.46306652 0.79025489 -0.11233313
0.31083724 0.30822951 0.72122258
0.08369435 -0.20656772 0.81170541
0.25855857 -0.43624687 0.67714298
-0.12915848 0.82969540 -0.03533506
-0.14934976 -0.75099146 -0.29540509
-0.31979120 0.30117020 0.72793818
-0.41306537 0.07771113 -0.70055246
0.65664715 -0.49176419 0.16835555
0.33346814 -0.20057856 0.71397781
-0.09888584 -0.23809467 -0.81326795
0.23871118 0.64225203 -0.48647445
-0.02156881 0.13113327 0.84004086
-0.64668161 -0.35080019 -0.39888981
0.60695904 0.36441839 -0.39595956
-0.74999821 0.00612119 0.56538457
-0.13841352 -0.85328221 -0.01809645
0.05354917 0.32539546 0.82436001
-0.47666705 0.10349312 -0.67802262
0.57184964 -0.36670861 -0.44426680
-0.19375977 -0.70888704 0.37203777
-0.17562899 0.14622985 0.78205943
-0.63616955 -0.01542054 -0.61282587
0.46028915 -0.75206375 0.17538720
-0.55696023 -0.23767059 0.58969170
0.67035109 -0.46129450 0.04718015
-0.42914498 -0.84826386 -0.06236468
0.21948269 -0.39462972 0.76052010
0.54408145 -0.77091515 -0.05492972
0.02341066 0.17138337 0.83152264
0.01134835 -0.85552502 -0.01977690
0.13532878 0.78157848 -0.17649496
-0.80521518 -0.03398501 -0.54692012
-0.11670288 -0.68584639 0.44141516
0.66722763 -0.46385840 0.17272353
-0.72180235 -0.26772308 0.38846719
-0.43117103 0.37467051 -0.58617777
-0.51122826 -0.27615312 -0.60950005
-0.80087137 -0.15311678 0.20851043
0.04718273 -0.05322155 -0.83280838
0.65325552 -0.45603099 0.26510221
0.21164849 -0.84996045 0.00730770
0.66283983 -0.47043851 -0.21698090
0.52177250 0.79343528 0.02832009
-0.60877270 0.48728716 0.27883142
-0.74779618 0.28695509 -0.05669089
-0.37293020 -0.78952235 -0.19278370
-0.41492796 -0.72651505 0.24365790
0.30232048 -0.83733267 0.05310134
0.20804569 -0.67362446 0.46644288
-0.08959375 -0.48493910 -0.81441081
0.67131013 0.24778701 -0.45289949
0.28301343 -0.57655936 0.51674426
-0.85216796 -0.03557725 -0.28224331
0.68401617 0.24468082 -0.44338840
0.73263621 -0.10844946 -0.53763461
0.50050342 -0.64412469 0.22265308
0.52095735 -0.54497713 0.30350694
-0.76534241 -0.00613257 -0.56735969
0.38568854 -0.46024325 -0.53016955
0.70815820 0.07348784 -0.57276392
0.32940406 0.68669069 -0.35059547
0.34886807 0.09681928 0.71240705
0.26238987 0.38507617 -0.71732265
0.54942095 -0.04263609 0.63096392
-0.37006581 0.74157506 -0.25645193
0.51291132 -0.12104751 0.64576000
-0.12378970 -0.43921170 0.80515105
0.49967501 0.77826679 0.08138062
-0.66634071 -0.52374405 -0.01032698
0.74028766 0.25508782 0.10969853
0.16788855 -0.30951241 -0.79161197
0.05267723 -0.79054034 0.15982041
-0.18829833 0.44538489 0.74428809
0.20328468 0.17478339 0.76462954
0.29920751 0.19058105 -0.73765099
-0.18469490 -0.29452419 0.77837276
-0.83322287 0.06706169 -0.40229934
0.32512110 -0.11547487 -0.72751766
0.10534270 -0.72292221 -0.36107519
0.62381029 -0.43886742 -0.31501314
-0.67444706 0.30226743 -0.40668067
0.24279675 -0.85418802 -0.02849364
-0.10029634 -0.55940843 -0.74339122
-0.66860944 0.00018043 -0.60144949
-0.81068563 0.12057993 0.01976621
0.67927074 0.34253415 0.34276763
0.54394531 0.67026061 0.14633274
-0.17995226 -0.46983364 -0.74854535
-0.25026628 0.72291875 0.30374420
-0.20781595 -0.70419687 -0.42614049
-0.51334554 0.30884799 0.55451214
-0.25855407 0.65665835 -0.46154466
0.80555350 0.10574143 -0.39484301
0.14901787 -0.80871540 -0.14840762
0.08920997 -0.08203059 -0.81905323
0.75473863 0.22069156 0.27824235
-0.83430433 0.06284475 -0.05085501
0.51890278 -0.34866658 0.50184184
-0.06613080 0.60270911 -0.64046478
0.79646492 0.09567114 -0.34283018
-0.74650997 0.25076431 0.37863055
0.74072433 0.25841856 0.11998759
-0.13070272 -0.74143660 -0.31583595
-0.85311109 0.00711054 0.26399291
-0.64373118 -0.59764040 -0.04891650
-0.70322526 0.40274629 -0.19716825
0.23901848 -0.83464432 -0.08961111
-0.16048335 -0.50325215 -0.72902024
0.15454412 -0.78012335 0.19837357
-0.46400303 0.48367056 -0.45183539
-0.33441263 -0.48412365 -0.58340490
-0.71163732 0.17096877 0.48903868
-0.70525610 -0.40497741 -0.02720395
-0.63387960 0.13371986 0.60231137
0.72707778 0.29688472 0.03920712
0.60303164 0.33566239 0.41533852
-0.00635347 -0.61687005 0.61214513
0.79571259 0.11764963 -0.33699778
0.83493388 -0.01383398 -0.14077069
0.63719893 -0.38255143 0.34340122
-0.69588101 -0.44249043 -0.00668257
-0.06016286 0.61159760 0.60841388
-0.81172794 0.11729214 -0.40621221
0.16319901 0.68371469 0.39858556
-0.19984414 0.51623118 -0.67472631
-0.81659698 0.10958852 0.30020410
0.38918737 -0.81275648 0.10667633
0.12079591 -0.33639216 -0.80753475
0.29437116 0.10743625 0.73162615
-0.63377488 0.10921641 -0.61704767
0.49562383 -0.64094174 0.23026559
0.00359125 -0.07500785 -0.85030329
0.17242560 0.69637167 -0.39485559
-0.06179571 0.32544309 -0.84029961
0.04771009 0.35432890 -0.83384621
0.60397214 -0.39055449 0.37839922
-0.68147689 0.46592867 -0.00722506
0.76603866 0.18622707 0.12651238
0.38875198 -0.55420989 0.42522109
0.45735052 -0.84664142 -0.04395118
0.68783033 0.38141236 0.28556743
-0.17958581 -0.75527477 0.25675920
0.21117578 -0.55025572 -0.61936259
0.67229730 0.28180921 -0.41327211
0.63137406 -0.34255633 -0.40976542
0.11456633 0.37049821 0.79713237
-0.80154163 -0.15979183 0.18954556
0.41106209 0.21878555 0.68765980
0.56918865 0.06449977 -0.63631958
-0.36390007 -0.47785568 -0.55434752
-0.66080314 -0.52423698 -0.10224093
0.67499995 -0.45139128 -0.01823392
0.71506375 0.19127800 -0.46911785
0.58492613 -0.64012140 0.14967096
0.40605444 0.74162179 -0.21247333
-0.67467666 0.47800055 -0.15445262
0.19938876 0.07014299 -0.77263695
-0.62784362 0.59681940 -0.13376868
-0.01612861 0.41844615 -0.85003102
-0.36434060 0.67729384 -0.33971661
0.07726803 -0.48895362 -0.81372654
0.36997417 -0.06874294 0.70686406
0.58481133 0.25192598 0.52173656
0.09428999 -0.81138706 -0.13348998
0.10581068 -0.65692323 -0.54144335
0.11471360 0.64785981 -0.51054364
-0.54546064 -0.23105185 -0.60957551
0.04991407 -0.64931065 -0.56027293
-0.16758217 0.54463643 0.66370314
-0.79247844 0.17356081 0.15178484
0.68137830 0.40443346 -0.26136440
0.13874786 0.76360846 0.20802756
0.77970338 0.16284259 0.14213674
-0.80042779 0.15016530 -0.25105095
-0.03029890 -0.40581179 -0.84517437
0.58383369 0.65038639 -0.10626005
-0.00193346 0.52004415 0.83826441
-0.47599977 0.28790945 -0.62144560
-0.31535241 0.39670366 0.66638553
-0.20259094 -0.27580062 -0.78080928
0.03082041 -0.61226279 -0.65295625
0.04891154 -0.60620725 0.65070051
-0.18201162 -0.30907223 -0.79328287
0.55294007 -0.56877947 0.24677521
-0.38944235 0.78836018 -0.13832188
0.11754534 0.59290254 -0.64773440
0.44668201 0.76601380 -0.16165109
-0.18086068 0.00249986 -0.78859806
-0.51395816 0.38183996 -0.48907998
0.73202795 -0.09486194 -0.55202550
0.66424859 -0.48122147 -0.14588095
0.13383867 0.62135041 -0.58522040
-0.00610393 0.68778950 -0.42988747
-0.02890338 0.57133871 -0.73370260
-0.45569459 -0.85654151 -0.03800758
0.44186816 0.62884361 -0.29994479
0.67942202 -0.42461210 0.16990529
-0.53491724 -0.38608265 0.46337992
-0.18404019 0.34641173 0.78225690
-0.41191655 -0.83919138 -0.06389207
-0.08938318 -0.30024135 0.81754547
-0.64950705 0.54457331 0.17935923
0.62079865 -0.58354670 -0.14840606
-0.63999563 0.43269014 0.30257332
-0.58062160 0.20521535 0.58704239
0.18415035 -0.71820492 0.36110184
-0.56994236 0.52949804 -0.28328669
-0.44219777 0.25444660 0.67049015
-0.85291594 -0.01442928 0.41509572
-0.65882373 -0.00870733 0.59991121
0.79036987 0.13315648 -0.39742446
0.53523415 -0.35422608 0.47525761
-0.45258102 -0.07251572 -0.68511492
0.03917927 -0.70316267 -0.42639041
-0.82717693 0.08090931 -0.42780837
-0.55705166 0.50181186 -0.32935163
0.03775280 -0.58773750 -0.73442650
0.75964266 -0.22741632 -0.22720958
0.45683151 0.09263715 0.66636157
0.63690728 0.53314388 0.02517902
-0.22712615 0.47113103 0.67788833
0.52318501 0.36946055 0.46868405
-0.61788845 0.50135630 -0.26992130
0.69707090 0.37023085 -0.06999964
0.10230819 -0.77214086 0.22055724
-0.19717528 0.52770036 0.64628667
0.00954474 -0.59872544 -0.68814415
-0.43646294 -0.80901814 0.13551548
0.61395115 -0.57312518 0.18291914
-0.47520736 0.20817159 -0.67914122
0.76936024 0.13824350 -0.45366266
0.41450769 0.61105394 -0.34591985
0.13889012 0.81240791 0.07016914
-0.30044422 0.48042929 0.59199238
-0.60602641 -0.07612798 -0.62555128
0.82563519 0.04057734 0.04373086
-0.16071622 -0.68276703 0.44997439
0.68628389 0.12589994 0.55083328
-0.53874367 -0.08491836 -0.64926642
-0.00166080 -0.21883492 0.84064609
0.43431163 -0.48803559 0.45330754
0.81374073 -0.07476779 0.22044116
0.60453695 -0.62514478 -0.04047520
0.06708993 0.76833498 -0.20542991
0.25130188 0.59529537 -0.52428991
0.35364524 -0.74438399 0.27344221
0.66673738 0.44344959 -0.22262640
-0.04655962 0.28949818 -0.84051645
0.68998951 0.38394752 0.02077007
-0.12911160 0.77547067 -0.18989135
0.36562398 0.18124947 -0.70776308
-0.82970333 -0.06757668 0.48893273
-0.83954358 -0.05698263 0.12985821
0.74858475 0.18402484 -0.43513107
-0.13672341 -0.81641436 -0.12816332
0.08810575 -0.19566227 -0.81999403
0.09930567 0.42359582 0.80328649
-0.62387550 0.39213428 -0.36408606
0.55168706 0.44358486 -0.37087229
0.09946669 -0.68019056 -0.47153485
0.81569588 0.06581371 0.23799016
0.46187869 0.40625423 -0.50259119
0.66384268 0.16473657 -0.54202724
-0.06072728 -0.77844566 0.20821972
0.06846669 0.69550347 0.37769973
-0.68658441 0.17731200 0.50782245
0.31958330 -0.64606601 -0.41464689
-0.01463100 -0.56559068 0.75289929
-0.73492873 -0.35932186 -0.28208947
-0.32609135 -0.24862972 -0.73172402
0.53441113 -0.53823638 0.29963174
-0.33198011 -0.80635762 0.12077058
0.27475026 -0.83934247 0.04156282
0.50799882 0.57669097 -0.28028560
-0.19230027 0.64905632 -0.52173585
0.68692720 0.21503969 -0.46323290
-0.37377712 -0.73272586 0.27602166
-0.83734989 0.06600592 -0.35693368
0.29347694 -0.77738059 0.20527321
0.83358496 -0.01944551 0.33644763
0.48015067 -0.70086950 0.19806045
0.54302442 -0.75801867 0.07799278
0.52517825 -0.74959320 0.09672207
0.81506258 -0.07433684 -0.37258279
0.29078025 0.05837350 0.73095697
0.54466128 0.63097191 -0.19125728
-0.36290458 0.30014282 -0.71667957
0.37806979 -0.30279166 -0.69603354
0.10395924 0.44315594 0.79847610
-0.10883211 -0.79983008 0.15032183
0.47343343 0.59962213 0.27921697
-0.44090748 -0.34361580 -0.60961914
-0.54661274 0.60885435 -0.22762790
0.18356016 -0.83643514 0.03851051
-0.61139435 -0.65242147 -0.01837943
-0.76588815 -0.12652683 -0.51061928
0.58402079 0.48125660 -0.30630118
-0.20290057 -0.60419124 0.56942552
-0.06018183 0.70165074 -0.38346142
-0.80955547 0.12518644 -0.23025508
-0.55741149 -0.50403434 0.31992200
0.04900776 0.59916848 0.61591190
-0.44118404 -0.02518949 -0.69004369
0.72056568 0.30149364 0.28879493
-0.46679595 -0.79833210 -0.14272362
0.48064068 -0.24906975 0.64487445
-0.51858920 -0.60867256 0.25239661
0.03254505 0.25704241 -0.83555347
0.54652882 -0.19073597 0.62926447
0.27321061 0.77709424 0.16600010
0.33678806 0.71227276 -0.32044253
-0.34900102 -0.85780180 -0.01083802
0.22448063 -0.28623468 0.76014173
-0.56287539 -0.27931482 0.53752559
-0.44911256 0.29682344 -0.63128859
0.65961349 0.37856662 0.33002543
-0.41703665 -0.65330940 0.31757119
-0.24734807 0.51515251 0.61822337
-0.83729684 -0.07172225 0.26701576
0.39657661 0.41558617 -0.55091822
-0.14171949 0.71149021 0.33726588
-0.31806055 -0.05360944 0.72545677
0.77891392 0.15784465 -0.12776791
-0.51201028 0.55691659 -0.32126081
0.27368462 0.82467240 -0.06406193
-0.59610903 -0.19257103 0.59577823
0.23844869 -0.46237746 -0.67855567
0.01260296 0.27899885 0.84087121
0.25851354 0.81573641 0.06443281
-0.52487010 -0.17235599 0.64864153
0.13127157 -0.04112287 -0.80320865
0.44228727 -0.25579548 0.66305882
-0.47876459 -0.54534131 -0.36508203
0.60880601 0.55696154 -0.19529912
0.20310722 0.01688597 0.76441342
-0.04356474 -0.70053458 -0.42119241
0.19502704 -0.21832152 0.76986367
0.68552005 0.39090297 0.15216924
0.14604561 0.30754924 0.78559589
0.11758445 0.72810841 -0.31931213
0.45807526 0.53725481 0.35661012
-0.43105271 0.71672213 -0.23793787
0.18303077 -0.74081045 -0.34244660
-0.70442045 0.38944185 -0.24565794
-0.17171317 0.59837925 -0.61533666
-0.70994449 -0.29833251 -0.39092302
-0.30379218 -0.47611371 -0.61335373
-0.66487598 -0.03363002 0.60060853
0.40476355 -0.71844906 0.25588629
0.58583015 0.43375310 -0.34675434
-0.45876503 -0.83331764 0.05437445
0.24211603 0.64201790 0.47764814
-0.01998025 -0.58785766 0.69187564
-0.34764633 -0.02810705 -0.72199464
0.54007179 0.04104906 0.63927644
0.51292115 0.29093689 0.55741096
0.34248185 -0.22409362 -0.71948689
0.58406341 0.35710362 0.41267419
-0.20823275 -0.37425929 0.77108961
-0.54954368 0.58000171 0.24404833
-0.09596178 0.74065524 0.25822616
0.72464269 -0.11305439 0.53116173
0.41718218 -0.79212368 0.15756746
-0.13747838 -0.66356838 0.49089691
-0.19386378 0.40510932 0.76576936
0.35590816 -0.74898547 0.26350883
0.72080332 0.01716244 -0.58203036
0.21861161 -0.68966842 0.42568970
-0.18458985 -0.50815552 -0.70853287
0.20996535 0.49504304 0.65179735
-0.77795094 0.20754319 -0.15951341
-0.27271935 0.17839311 0.74091554
-0.13693029 0.61129528 0.60117966
-0.12951799 0.62187457 -0.59158379
0.33623207 0.14472851 -0.71900529
0.51349425 -0.84515226 0.02258707
0.46712559 -0.29603684 0.60395104
0.64977944 0.44767278 -0.25736880
-0.60722071 -0.68720025 -0.07021802
0.07694037 -0.05253978 -0.82354796
-0.20688239 -0.19011113 0.76983154
-0.06358540 -0.77845967 -0.22562514
-0.01223772 -0.60740888 0.64137119
-0.31937367 -0.33645537 -0.73727447
-0.84614158 -0.03793094 -0.01396049
0.30338213 0.41706276 -0.64569789
0.47606531 0.52286875 0.35459489
-0.70217437 -0.42353129 -0.15353055
-0.44988522 0.31196871 -0.62137526
0.39932892 -0.34051156 -0.64045262
-0.64483482 0.55517191 -0.14514799
0.74148661 0.25143144 0.05553344
-0.52462876 -0.85699379 -0.01031529
-0.02182555 0.56570184 -0.76508391
0.54341310 0.38208824 0.44219962
0.45588589 0.62902009 -0.28010875
0.38894689 -0.57204890 -0.42503136
-0.33536720 0.32714528 0.70475787
0.05205018 0.63154924 -0.56605589
0.50045788 0.09312224 0.65394467
-0.75800288 -0.28212389 0.16402785
0.59044224 -0.66073501 0.10728973
-0.82002771 -0.10996927 0.14315046
0.48830405 -0.84351790 0.02697041
0.26650226 0.40606636 -0.69366187
-0.07046039 -0.76727557 -0.23345174
0.03266071 -0.34549817 0.82673532
-0.80821526 -0.13014221 0.20405990
0.75772917 0.21074474 0.24841408
0.35321435 0.70942110 -0.30721670
0.80387038 -0.09974427 -0.24322619
-0.60906953 0.30383548 -0.46502200
-0.22330222 0.54358441 -0.62030482
0.76450944 0.20474230 -0.38828552
-0.72407967 -0.04964797 -0.58241302
-0.17834568 -0.66924399 0.48636553
-0.73895049 0.16407979 0.47065493
-0.13377567 0.38782096 0.79997623
-0.24751794 0.70791876 0.36402738
0.72330195 -0.30384752 -0.23237172
0.05172944 0.71450704 0.32369637
0.07375954 -0.43724400 -0.82945907
0.67200297 -0.46029738 0.02345843
-0.78734124 -0.19629379 0.30760115
-0.85111922 0.00920020 0.42351109
-0.82032019 0.09781012 -0.25410140
0.28888232 -0.56323779 0.52072841
0.53484833 -0.51367885 0.31579214
-0.24233302 0.58091617 -0.54936582
0.04275790 -0.40704557 -0.83535028
-0.78326380 -0.20509417 -0.29457596
-0.47712505 -0.15667947 -0.67999125
0.54344296 -0.17166470 0.63858366
-0.30900064 0.51976383 0.54119724
0.16842306 -0.40260920 0.78094435
-0.22754064 -0.14084148 0.76300424
0.21371385 -0.14293341 0.76498228
0.12162507 0.80713725 0.09017701
0.14421950 0.52942920 -0.69852638
0.03905635 0.49858409 -0.82214761
-0.08915579 -0.75872612 0.25010797
0.66035300 -0.48303849 0.09583734
0.18062767 0.46914062 0.70612335
0.21314767 0.52365470 0.62623656
-0.85398310 -0.00106935 -0.48865461
0.76530284 -0.12917094 0.47499865
0.56360579 -0.73815602 0.00335649
-0.13049914 0.26950616 0.79998785
0.60793012 0.59403741 0.13672487
-0.31060919 -0.64155620 -0.43849605
0.83694565 -0.01282292 -0.33609226
-0.47191742 0.73235565 -0.18768233
-0.36322001 0.69290632 0.31709641
-0.03688072 -0.84851944 -0.03599228
-0.31702617 -0.38903531 -0.68907565
0.04317930 0.66439074 0.46622965
0.68353575 0.01475727 0.57894695
0.03758188 0.81097728 0.06120111
-0.44844532 -0.08368072 0.67911994
-0.05324629 -0.78782374 0.17642422
-0.51093423 0.38897344 0.47480369
0.75786376 0.20867959 -0.31272539
-0.42521867 -0.85278130 -0.02877210
0.19389780 -0.73465657 0.31316987
-0.46490866 0.31112537 0.59035504
0.66480756 0.22185452 0.46742541
0.44432837 0.58712482 0.31906998
-0.47177765 -0.24723385 -0.67249388
-0.17461559 -0.21727304 -0.79389805
-0.44319060 0.33179489 0.59870678
0.00124322 0.57317251 0.69493759
0.80891722 -0.03905813 -0.53874534
-0.65659457 -0.53747296 -0.10388213
0.68060094 -0.43787280 0.02323856
-0.13997582 -0.56164205 -0.69614524
-0.16660091 0.56181824 -0.66321057
0.43079054 0.61094505 0.31825626
-0.61951542 -0.63497347 0.05210566
0.10522494 -0.12785730 0.80503666
0.32928658 0.40378073 0.62357098
-0.25929210 -0.26855052 0.74633843
-0.58834964 0.35258326 -0.44464701
0.73900419 -0.27800149 0.05362802
-0.03727816 -0.42858005 0.82706833
-0.37508887 -0.49796155 0.50985241
0.06154897 0.29012874 -0.82572389
-0.40320992 -0.76536882 -0.23139045
-0.21433115 -0.09920983 0.76775730
-0.49048474 0.33436757 0.55077296
0.79771620 0.10960728 0.07471734
-0.82404208 -0.10104481 0.17216165
-0.15018280 -0.56882077 -0.69458431
0.58562028 -0.15930614 -0.62611812
0.80325150 0.09413674 -0.18403389
0.01771426 -0.68852836 -0.45391220
-0.78902888 -0.09935229 0.51034129
-0.51958972 -0.00212378 0.65262938
0.78648341 -0.14363743 0.24936341
-0.70881587 0.28580210 0.38250327
-0.11087156 0.68716609 0.40042692
0.27722362 -0.73715848 -0.32641196
-0.31937701 0.48064417 0.57156181
0.57463050 -0.69339359 -0.07209915
-0.64852524 -0.08260878 0.60278291
-0.31655136 0.73847491 0.26976866
-0.30086046 -0.78207076 0.17912129
-0.54289377 -0.33182856 -0.52469099
0.08697183 0.50738573 0.76707214
0.43551829 0.55906904 0.36076596
0.32774982 0.28364554 -0.72230834
-0.17734152 -0.66907263 -0.52644277
-0.12320210 -0.34892869 -0.81490082
0.12858270 0.59599829 -0.63572127
-0.18866217 0.47234944 0.71571004
-0.43525037 0.62261486 0.31765056
-0.58121926 0.57863963 0.21751001
0.56190717 0.58188850 0.21480760
0.01357914 0.79223448 0.12781234
0.23085998 0.52522957 -0.61191845
0.34361798 0.56375575 0.45454127
-0.06748360 -0.05683588 -0.83386642
-0.81643409 0.10844061 -0.37880450
-0.58284330 0.60503304 -0.19402094
-0.31234595 0.60303843 0.46440420
0.22903305 0.73836976 -0.28198183
-0.30489752 -0.23230056 -0.73893988
-0.34497494 0.05735224 -0.72838467
-0.44814122 -0.54850429 -0.39666459
0.37487727 -0.35373455 -0.65115005
0.15553752 -0.84427315 -0.03734302
0.07975420 0.77128702 0.18897617
0.04280533 -0.68311459 0.44312623
0.70967263 -0.33533129 0.06094196
-0.47019798 -0.00817439 -0.68102640
-0.54147744 -0.25623310 -0.58935797
-0.37006900 -0.78812498 -0.20465910
-0.37728855 -0.46172404 -0.56321013
0.72647381 -0.11014754 -0.54257345
0.72158104 0.30236003 0.00716760
0.10212265 -0.41617712 -0.81718278
0.18046278 -0.44122958 0.74584097
0.25219145 0.74897498 0.22388829
0.06551790 -0.45855674 -0.83769053
-0.26393613 0.60987937 0.49826917
-0.58218777 -0.21400268 -0.60120398
0.33327821 0.26752269 -0.72361070
0.33112884 -0.79872578 -0.16933933
-0.76725662 0.19080980 0.42227745
0.06470706 -0.65220571 0.52634180
0.37909636 -0.01768913 -0.70863056
0.47516537 -0.56260812 0.33610711
-0.03034358 -0.70313102 -0.41379830
-0.63833201 -0.08921161 -0.61651468
-0.67486429 -0.13835220 -0.57862824
-0.22688274 -0.29088572 -0.77300066
-0.58754462 -0.46108434 -0.33978978
-0.34000364 0.62800992 -0.41165644
0.26210698 -0.58388746 0.52915365
0.52649742 0.32638174 0.50362271
0.03822692 0.44297022 0.82713264
-0.36033219 0.13148090 0.71030241
-0.81602746 -0.13727020 0.28818870
0.65327549 -0.47617462 -0.24720751
-0.20592684 0.65431195 0.47706863
0.43739414 -0.61177719 -0.32920903
-0.21585909 -0.52703810 -0.64339358
0.45178905 0.65990371 -0.25815979
0.48675811 0.19345020 0.65533358
-0.26383764 0.36392230 -0.75280732
-0.47928852 -0.10877009 -0.67781371
-0.76883972 -0.24695437 -0.04485296
0.28754839 0.71004969 0.32989469
0.46967736 0.21305284 0.65470362
-0.33584705 0.56441367 -0.47914961
-0.76546192 0.23650108 -0.35056323
-0.69331151 0.39068741 -0.29344109
-0.08490538 -0.84292132 0.03336037
0.28661600 0.83457237 -0.03650301
-0.85020608 -0.00884040 0.31421536
0.75280726 -0.24217156 0.04340516
0.18647440 -0.74369365 0.29173857
0.39158824 -0.83733225 -0.08242144
-0.35182434 0.39379689 0.63192570
-0.82488090 -0.09398516 -0.34039816
-0.38314721 -0.51221657 0.48561674
-0.11386830 -0.67223108 0.48697910
0.20381540 -0.73992097 0.29524052
0.64133090 0.44750395 -0.28619733
-0.36174411 0.33078149 0.68416369
-0.77339900 -0.23033313 0.02447012
-0.78928006 -0.18506049 -0.09588205
-0.57720715 0.26043966 0.53613621
0.79536968 0.11414442 -0.37210947
-0.11339542 0.77204859 0.17693841
-0.00943773 0.48591098 0.83928359
0.77271712 -0.19246079 0.03504856
-0.00291128 -0.77385265 -0.22763523
0.24863353 0.81097084 -0.09774535
-0.83149540 -0.07447001 -0.01533397
-0.04802249 -0.15511900 -0.83790845
-0.59528816 0.34666124 -0.44312009
-0.50108981 0.53519142 -0.34914389
0.25954169 0.83420420 -0.04112871
0.72640067 -0.32295313 -0.28456774
-0.40681189 0.36445862 0.60286891
0.05031443 0.83500165 -0.02704592
-0.35375938 0.09952726 -0.72057158
0.04135598 -0.00972856 0.82572705
0.54957187 0.10160940 0.63696188
0.77985561 -0.00675823 -0.55412233
-0.58799529 0.66634792 0.11451322
-0.83903372 -0.04931209 -0.20879015
0.54885530 0.74719721 -0.04601620
-0.16684586 0.76766646 0.18126942
-0.72475719 -0.21716100 0.44251633
-0.47737274 -0.15636306 0.66994035
-0.46265075 -0.21829064 0.67379749
0.83366752 0.01695604 -0.08074758
-0.27574667 0.69105321 0.39148158
0.66994727 -0.41646272 -0.28469643
-0.66975838 -0.43905467 0.27594125
0.38920698 -0.75450641 0.22744074
-0.51890719 -0.73066795 0.14583430
0.81407309 0.06534970 0.13244461
0.13759872 -0.08231572 0.79057163
0.51819146 0.50995189 -0.33990151
0.59735698 0.29361406 0.46108627
0.06390706 -0.74128121 0.30243835
-0.67812097 -0.09220710 0.58790684
0.11736014 -0.48225775 -0.78783554
-0.30729336 -0.74529910 -0.30806702
0.67058176 0.43922353 0.18061860
-0.08673524 -0.46965927 0.81979102
0.74241608 0.16036816 -0.46709767
0.38509044 -0.48130432 0.50439078
0.60363173 0.60137665 0.13095476
0.52736354 -0.46598017 -0.38391551
-0.74598563 0.29879388 0.01980888
0.28457099 0.81803972 -0.07099210
0.71875322 -0.32213962 0.03812958
-0.03295536 -0.74349856 0.29791841
-0.19786942 0.64097428 -0.52982515
0.53630924 0.46818298 0.34330937
0.42396459 0.35057351 0.58120209
0.68751562 0.40087041 -0.15412641
0.80903769 -0.09003187 -0.33025256
-0.32556188 -0.78397125 0.17807153
0.09610418 0.23673892 0.80844378
0.14341240 0.28316036 -0.79880089
0.02773801 -0.52192378 0.82522202
0.26023945 -0.32318798 0.74126089
-0.21063362 -0.82849449 -0.09403315
0.62628961 0.55419201 0.15539290
-0.32644576 -0.55683321 0.50565714
-0.56339848 -0.39145327 -0.44384238
-0.48198897 0.29492092 0.59430748
0.40804920 -0.75444639 -0.22178651
-0.51274163 -0.65789801 -0.22874969
-0.43387446 -0.02374905 -0.69436485
0.45036143 -0.84681660 0.03577229
0.62087852 -0.01735392 0.60256714
0.69809562 0.36535335 -0.21923214
0.82972676 -0.04482480 -0.05493367
0.81458712 0.04614130 -0.50572926
-0.74455559 0.28808156 -0.07167395
0.74259019 0.24448682 0.29184610
0.17407127 0.74765188 0.24390085
0.54875469 0.18251225 0.61912256
-0.58578789 -0.74449080 -0.02079716
-0.27584362 -0.39933270 0.70982832
0.01193403 -0.64476180 0.54750282
0.38791323 -0.72188359 -0.26356047
0.22844124 -0.12356225 0.75557005
0.80593884 0.09524033 -0.16850610
0.30822700 -0.01101026 0.72175419
-0.28705332 -0.52592939 -0.58518106
0.82522184 0.04233516 -0.37709758
0.14661789 0.74754107 0.25216615
-0.43554676 -0.43727872 -0.52609187
-0.07952808 -0.67641950 0.47482422
0.23098630 -0.67998999 -0.46587223
0.61541277 0.35283515 -0.40163764
-0.42036504 -0.68633264 0.27921405
-0.43564150 -0.85244387 0.00491772
0.69279873 -0.39643759 0.26018685
0.46225747 -0.80630660 -0.10923984
-0.57111150 0.54411656 -0.26277700
0.10112362 0.75657159 0.20976548
-0.38842222 -0.57818431 -0.42582357
-0.04057853 -0.50670260 0.83542079
-0.79467028 -0.09899057 0.49201211
-0.10805322 0.54263163 0.72182959
0.79194564 -0.14107838 0.27967310
-0.59993130 0.64914799 -0.12542918
0.08566905 0.33251607 -0.81818926
-0.50469565 -0.24768867 0.63124794
0.19383548 0.68014699 0.41923493
0.32041088 -0.57047409 0.47224855
0.48405239 -0.75772178 0.14177632
0.55688560 0.34610206 0.45729387
0.52543694 -0.46046516 -0.39132291
0.00670615 0.47272009 0.83118516
-0.47428629 0.48918226 -0.42594764
-0.22261195 -0.78516591 0.17288017
-0.31206220 -0.56518233 0.50977492
0.51364088 0.67790717 0.16163741
0.20114364 0.65991235 -0.49279830
-0.46517596 0.67934251 0.23017302
0.65110403 -0.11543284 -0.59808373
-0.83334601 -0.07769302 -0.19916344
-0.74765122 0.28455639 0.06351788
0.50115681 0.21444625 -0.65051961
-0.65459907 0.51901102 -0.20831506
-0.54163593 0.01895640 0.64301747
0.50257611 -0.76534569 0.10697678
0.43646440 0.78508228 -0.13880166
0.16745189 -0.58887893 0.60868603
0.08030340 0.77497780 0.17900074
-0.61243904 -0.49305671 0.27703711
-0.56430435 -0.52527505 -0.30730790
0.20074645 0.14916843 -0.77755272
0.75649583 0.20986883 0.08000876
-0.13484575 0.25810516 0.79943115
0.07776789 0.09935440 0.81317186
-0.54272348 0.26690432 0.56851804
-0.34334421 0.19369754 -0.72898215
-0.08541433 0.68607295 0.40406457
-0.41735837 0.53946865 0.42228183
0.01633523 0.70742959 0.33811691
0.29207200 0.73397219 0.28173789
0.47140285 -0.27819034 0.61779076
0.15416533 -0.60741758 0.62459826
0.63035786 -0.18771935 -0.56669497
0.02267062 -0.85240906 -0.03090210
0.44138017 -0.55566692 0.38665363
0.48209670 0.65429139 0.22138254
0.60794091 0.18469770 -0.57419342
0.09313092 0.67681855 0.42807010
0.30011341 -0.23301509 -0.73519623
-0.67887467 0.35399273 0.34095964
-0.43363914 0.34272420 0.59641194
0.28583300 -0.35813770 -0.73541749
-0.82078320 -0.09916003 -0.16184308
-0.33572030 0.07278034 -0.72724801
0.44227579 -0.18861903 -0.68418062
0.24998096 -0.80375880 -0.16217947
-0.75114918 0.27776396 -0.14281638
-0.21592832 0.14825898 0.77122754
-0.07827164 0.72047955 -0.33313006
-0.10399773 0.15070672 0.81223297
-0.28781325 -0.33312866 0.74239039
-0.40772137 -0.85417962 -0.03308029
-0.00449407 -0.14308488 -0.85305744
-0.55831504 -0.09173466 -0.64392895
-0.34083632 -0.66253525 -0.39651683
0.06809543 0.66808611 0.45311600
-0.24187267 0.04294420 -0.76660424
-0.74871725 -0.30767101 -0.30230969
0.60653335 -0.62708062 -0.06783257
-0.82356316 -0.10927975 0.43275192
0.14581171 -0.32787016 0.78406179
0.22639292 -0.56963557 -0.57980019
-0.32422614 -0.81636238 -0.12662283
0.55793941 0.65848768 0.13982576
-0.41572562 0.16081426 0.68779159
-0.09693819 0.68293017 -0.43506709
0.03670099 -0.69888222 0.39979112
-0.04041184 0.16298431 -0.84664476
0.40640843 -0.61179268 0.35217863
0.09828597 -0.75727993 -0.27807811
0.14988199 -0.73553067 -0.34823659
0.55355370 -0.44874209 -0.37906253
0.36466670 0.59776622 -0.40715250
0.41462839 0.64251792 -0.30700943
-0.33743116 -0.76176625 -0.26709867
-0.67978042 -0.47089592 -0.14584301
0.05755243 0.57512105 0.68520224
-0.05656259 -0.70286703 -0.42294240
0.62889552 -0.56017345 0.00169043
0.55234319 -0.13186356 0.63096571
-0.64120638 -0.57753813 0.02563566
-0.60515714 -0.67712921 0.03936157
-0.66674811 -0.47712672 -0.25413254
-0.06029180 0.65354055 -0.51021862
0.66059601 -0.49232909 0.15381396
0.26994008 -0.15511660 -0.75013250
-0.02350855 -0.39079142 -0.84987795
0.53523022 0.25818640 -0.57761902
-0.62808013 -0.34773293 0.41154471
-0.43508118 0.28856716 0.64389968
0.47504908 -0.43058532 -0.47921574
0.56310403 0.65357965 0.13386530
0.54884112 -0.03430604 0.63156420
0.56411362 -0.72606856 0.05073380
0.56900495 0.58362949 0.19940665
0.79421651 -0.13692120 0.14383647
0.21267313 0.68862140 -0.41559383
0.70488334 -0.36886650 -0.23255029
0.39114451 0.79682171 0.11828991
0.15118359 0.45543593 0.75208050
-0.69116765 -0.01151555 -0.59789044
0.06266801 -0.79152095 0.15572147
-0.25885558 0.68368429 0.41539198
0.08422440 -0.48489967 0.80954325
0.02531988 0.71563613 0.32605612
-0.41292471 -0.75699848 -0.23322541
0.61764193 0.57445663 0.09551193
-0.78259575 0.17863590 0.38688514
0.38460344 0.30191261 -0.68966818
0.00397781 0.37229133 0.83959448
-0.48976254 0.83859938 0.00694399
0.70078933 -0.06164923 -0.58629954
-0.44927689 -0.86139894 -0.02798856
0.09024159 -0.83069611 -0.07179128
0.62375069 -0.46990737 0.27790779
-0.15014061 0.78529692 -0.14845404
-0.18090042 -0.72187084 -0.37799066
-0.21767838 0.67412984 -0.45813900
0.76310313 0.16588202 0.41901663
-0.52451360 0.49062058 -0.37400937
-0.27681851 -0.34200993 -0.75012738
0.56684548 -0.14059269 -0.63582373
0.48328346 0.05799430 0.65885830
0.58004946 0.43137780 -0.35636044
-0.83354491 0.07123293 -0.06388565
0.57170224 0.09280190 -0.63350284
-0.08356691 -0.74572879 -0.30336720
0.46944219 -0.65794480 0.24280694
-0.11431951 0.57629144 0.66596836
0.04922141 -0.28880253 -0.83308953
0.76629055 0.18731651 0.09442046
0.28082931 0.24977942 0.73703247
-0.10036288 0.65712422 -0.50684261
-0.55531675 -0.30700931 0.51879615
-0.11960240 -0.63102680 -0.60793114
0.45931143 0.36623988 0.53704298
0.43843079 -0.39978188 0.53724015
0.44223374 0.60573220 0.30863330
0.22303089 0.66149586 0.45300761
-0.70404679 0.27132672 0.39636531
0.68494636 0.40973094 -0.11352308
-0.05055143 0.59916472 -0.63246918
0.82213968 0.03536806 0.48201919
0.15856297 -0.62670612 -0.59152669
-0.53193277 -0.57902795 0.27869743
-0.02537633 -0.37035573 -0.84663910
-0.59747589 0.60486662 -0.17541325
0.17397961 -0.58751160 -0.62668306
0.81387264 -0.07881530 -0.38905421
-0.17914249 -0.66912079 -0.50161308
0.11258771 -0.62169361 0.62286848
-0.25334546 0.76986390 0.19127512
0.53767508 -0.29467151 0.53848511
-0.83889949 -0.07355186 -0.41863033
0.04300433 -0.30547270 0.82557160
0.81737465 0.06365809 0.20063531
-0.64348614 0.05098628 0.60685849
-0.83786166 0.04501151 0.13906345
-0.20852560 0.50637949 -0.67698449
0.19930580 0.48443019 0.66953868
0.62526816 0.39390686 -0.35126695
-0.73884434 -0.08758287 -0.57138580
-0.08858395 -0.12056631 0.81963313
0.69099897 -0.10978310 0.57271141
-0.31368747 -0.82579762 0.07834709
-0.53644556 0.51907283 -0.33160046
0.17656466 0.81663233 -0.07394225
-0.15314864 0.81922555 -0.06416178
0.41623902 0.74659234 0.19078617
-0.36559355 0.07666104 -0.71708143
-0.61633104 -0.63214666 0.12146682
0.20611374 0.76748949 -0.20887411
-0.45492643 0.36411098 -0.57045752
-0.05716417 0.46905825 -0.83488965
-0.21632355 0.66166604 -0.48691311
-0.83212876 0.05929485 0.17339586
0.42773011 -0.63678384 -0.32158774
-0.02191317 0.57338482 0.69971746
-0.31275344 -0.27421910 -0.74193633
0.30526960 -0.82729882 -0.09999748
0.35100731 -0.36263534 0.65408009
-0.09668976 0.78091145 0.15064086
-0.63593960 -0.57811028 0.14791967
0.34449136 -0.43542081 0.58495742
-0.54700691 0.28837612 0.53846771
0.47440690 -0.01081891 0.66593641
0.77337098 -0.02736729 0.54775727
-0.15831837 0.37076357 0.79053456
-0.25945371 -0.04912145 -0.75673717
-0.73724312 0.31494570 -0.00063119
0.20202048 0.19012639 0.76638085
0.02505934 0.29240912 0.83439118
-0.08319522 -0.63467044 -0.59953547
-0.05782257 0.57006729 -0.72655088
-0.14081635 -0.64087123 0.54826552
0.40868732 -0.75748485 0.21121438
-0.30541676 0.33807385 -0.73494929
0.83450329 0.00875606 0.31558576
0.19864936 -0.74505085 -0.31618348
0.10777601 -0.26601696 -0.81073529
-0.54997563 -0.51874572 0.31138334
0.01221667 -0.69888562 0.40396342
0.40454936 -0.41555259 -0.55623788
-0.20398064 -0.58770531 -0.61243457
-0.71197915 -0.02209175 -0.59177142
0.48883706 -0.73530257 -0.15776588
-0.60298073 -0.37873918 0.39975119
0.25174248 -0.33876392 -0.75589633
-0.54959631 -0.29879439 0.52999896
0.71620244 0.32421893 -0.23454411
-0.55633312 0.76611179 0.04826320
-0.31565672 0.14333118 -0.73481429
-0.32601228 -0.84529042 -0.04889961
-0.11773723 -0.62307364 0.60249442
-0.45424673 -0.20618972 0.67775440
0.71505970 0.09442242 -0.55752724
-0.25738877 -0.35014805 0.75385886
-0.32668063 -0.04748334 -0.72429943
-0.06398276 -0.19491541 -0.83334494
0.74388111 0.04433200 0.55291313
-0.29187441 -0.64318568 -0.45481700
0.23469356 -0.61799389 -0.52529919
-0.03220638 0.81616795 -0.07854740
0.66862369 0.44132420 0.12076643
-0.75507283 -0.27546814 0.03383180
-0.38200501 -0.81782240 0.09834978
-0.14252743 -0.08638669 -0.80110687
-0.12202805 -0.79533917 -0.18452741
0.77315760 -0.06283671 -0.54571033
0.36761352 -0.65425551 -0.36087033
0.37301332 0.78917259 0.14690059
0.46447891 -0.72199464 -0.19513117
0.82719731 0.01786382 0.36945671
0.66941357 0.44066760 0.20550591
0.30579647 -0.47968319 -0.59055686
-0.52963316 -0.32430518 -0.54933441
0.18179898 -0.47079000 -0.72775531
-0.85462070 -0.01913241 -0.28704992
-0.47201946 0.45031142 0.45839524
-0.72405678 -0.34530613 -0.31550458
0.46368489 -0.34943789 0.56306648
-0.10333991 0.59208852 -0.66216981
-0.78997487 -0.18739718 0.12814847
0.07617118 -0.01416179 0.81449854
-0.54188973 -0.07649969 -0.64892942
-0.15410739 0.04609337 -0.79900354
-0.38173237 0.60888994 -0.39148983
-0.22027734 0.24654025 0.76570666
0.33970645 0.80745488 -0.10773546
-0.77399290 -0.09247772 -0.53316802
-0.12408088 0.36806223 -0.81213361
0.49107644 0.81777704 -0.05086831
0.65275359 0.46072865 -0.24927445
0.58083332 -0.64757997 -0.14519927
-0.03408456 -0.76310641 0.23891309
0.52674192 -0.79653543 -0.04932131
-0.31993395 0.76614720 0.18833832
0.72104883 0.28422105 0.34873262
-0.40816373 0.76047587 -0.20169072
-0.40277228 0.28144094 -0.70535272
-0.30598816 0.34789219 -0.73181760
0.49402326 0.62984222 -0.24396209
0.24055101 -0.74049681 -0.32104629
0.00527174 0.61539549 0.59165406
0.56351948 0.68110323 -0.12655538
-0.35682634 -0.56562263 0.45566913
0.40566844 -0.40531376 0.56356728
-0.45098391 -0.23553631 0.67535663
0.51187652 -0.33668822 -0.52962178
-0.27721366 -0.14292541 0.74423319
0.65939373 0.46962440 0.17526671
0.14055318 0.72852182 -0.30913770
0.29774341 -0.77952117 0.19387890
0.61822242 -0.58077568 0.13496441
0.06730825 0.40470633 0.81409436
-0.07653001 0.56886011 -0.72374898
-0.26422480 -0.61156642 -0.52069652
-0.70661938 -0.39748022 -0.06787382
0.70137638 0.36970374 0.20150332
-0.76824617 -0.25012651 0.14913537
0.37023470 -0.52740514 0.46707159
-0.20691417 -0.46359697 0.71584606
-0.16181348 -0.71528596 -0.38874641
0.81361073 0.06742472 0.10103527
-0.71110862 -0.16892841 0.50034022
0.31005695 -0.73205876 0.31638622
0.17449437 0.09603013 -0.78465354
-0.22976445 -0.40921819 0.73695397
0.01341199 -0.27402943 -0.84392393
0.46343476 0.01329873 -0.67471761
-0.46870825 -0.85188115 0.01824076
-0.10062883 -0.49202660 -0.80052632
-0.41745588 0.46972883 -0.50924414
0.62951976 -0.56041712 -0.18445741
0.23234925 0.18803994 -0.76116359
0.79973763 -0.11788434 -0.18531393
-0.23485132 0.74826926 0.24587075
-0.48466790 0.56335723 0.32715550
0.09880633 0.62570810 0.55804843
-0.79675758 -0.17148708 0.02790695
-0.79209650 0.18407707 -0.18861128
-0.00538406 0.36119327 0.84108204
0.83609879 0.01411378 0.41889670
0.76952279 -0.19957136 -0.14542291
0.36117357 0.47234768 -0.54165530
-0.40985164 -0.53617245 0.43937224
-0.36578378 -0.13343668 0.70941192
-0.55649638 0.23544809 0.58672488
0.24080312 -0.21794598 0.74703562
0.55420417 -0.70689863 -0.10528994
0.27365607 -0.78099686 -0.21776429
-0.03921231 0.82025272 -0.06809369
-0.73833269 -0.33211434 0.19354546
0.70030409 -0.37194312 0.23687938
0.09782210 0.47750771 -0.79200166
-0.08406140 -0.03096091 -0.82671088
0.27720559 0.82063979 -0.07815933
-0.22773533 -0.21916412 0.75901711
0.80036581 0.08276737 -0.27423120
0.07746471 0.55498582 -0.72460961
0.25591943 -0.79378873 -0.18524000
-0.40801999 0.70801950 -0.26987851
0.64873070 0.49126127 -0.19332372
-0.72251821 -0.35786611 0.28196409
-0.40941918 0.77889717 0.16604908
-0.31799746 0.55413902 -0.50576538
-0.79187328 -0.18441482 -0.21838728
-0.11344160 0.22695349 0.80992973
-0.62542975 0.61492974 0.02164161
-0.41939047 -0.83776015 -0.08036382
0.05387175 -0.55177802 0.76142091
-0.53733110 -0.20647985 0.64065129
0.03531445 -0.70850152 -0.39770746
-0.06373445 -0.68733501 -0.47168192
-0.54902059 -0.81665361 -0.01316941
0.05907069 -0.37418050 -0.82890630
0.64639246 -0.46519190 0.25741625
0.62200874 -0.48114586 -0.27999926
0.53055531 -0.38209328 0.44614506
0.81001681 0.08035666 -0.05248975
0.26486635 -0.74991626 0.27865109
-0.35425872 -0.70458215 -0.34251893
0.46007758 -0.71873903 0.19050296
-0.72800535 -0.33545980 -0.07196860
-0.24677375 0.71105444 0.35668868
-0.63256902 0.10246439 0.60676211
0.72023499 -0.32653779 -0.27613151
0.65364242 -0.49569267 0.07440376
0.16846158 -0.61794734 0.57745844
-0.52434403 0.79933918 -0.05958863
-0.15521781 -0.29372829 -0.79905492
-0.85655469 -0.00839443 -0.41345510
0.78518730 -0.15149298 0.34016734
-0.36736032 -0.49308798 0.52569771
0.38028440 -0.85552138 0.00587848
0.82226467 -0.05157474 -0.35395861
-0.79831862 0.14843540 0.16692619
-0.82174152 0.09798475 -0.34519237
0.28223526 0.79008311 0.13969322
0.38258633 -0.33226979 -0.67097372
-0.13512431 -0.74685961 -0.30146715
-0.35016698 -0.82190990 0.08676453
0.27320114 0.35785884 0.72093838
0.71832925 0.32126242 -0.29371023
-0.81394452 -0.12797680 0.38295516
0.21336818 -0.77589488 -0.22229438
-0.31950247 0.69794703 0.33537218
-0.50653523 -0.85152739 -0.04993577
-0.22983925 -0.42106116 0.72915554
0.17892340 -0.42169037 0.76733565
-0.64526969 -0.14391725 0.59822810
-0.24738580 -0.76375258 -0.26897633
0.02393896 -0.67388690 -0.48832330
0.44105911 -0.66117561 0.27049378
0.19173619 -0.73211628 -0.36328411
0.27162972 0.56656218 -0.52752966
-0.69345766 0.39835939 0.28170940
0.63503945 0.52708614 -0.12891619
0.36185718 -0.06108976 0.70855981
-0.14891738 -0.81587952 -0.12601988
-0.72113544 0.33473095 -0.33212841
0.23063776 0.11030873 -0.76045930
0.57151270 0.57125044 -0.22570571
0.61019021 -0.60704339 -0.02722043
0.19806986 -0.80006504 0.14563155
-0.60643184 0.31773090 -0.46360186
0.24135400 -0.73188943 0.32920319
-0.13371642 0.66312063 -0.47385034
-0.30661377 -0.00225757 -0.74001229
