-0.25844792 0.57679850 0.07860810
0.18216501 0.01540680 -0.28420803
0.13670728 -0.09832107 -0.12560248
-0.23671797 -0.32818669 0.08155479
0.53950858 0.55615467 -0.03517942
-0.32009315 -0.08128498 -0.28945225
-0.47789511 0.30759367 0.00898479
-0.29202774 0.50857139 0.06942385
0.37859172 0.20853367 -0.24389338
-0.13561843 0.44908085 -0.32205433
0.06390248 -0.45948285 -0.29072058
-0.44600198 -0.23361129 -0.24484301
-0.41702580 -0.33640152 0.00079689
0.36956668 0.01396730 0.26819086
-0.33036157 -0.26365468 -0.01341293
-0.39859968 -0.17529929 -0.43456408
-0.27404416 0.49403596 0.16931701
0.12216122 -0.65480840 -0.14366859
-0.38122270 -0.10128981 -0.39916369
-0.15894493 0.58773041 0.26373884
-0.34553048 -0.71366429 0.05619434
-0.27158397 -0.49550754 -0.42174095
-0.19443524 -0.22555760 -0.10657804
-0.07116659 -0.80493051 0.19824179
-0.35654220 0.20402847 0.09166734
0.29370078 0.70206666 0.11044773
0.07706106 -0.34556067 -0.16379461
-0.03649502 -0.57572681 0.23781529
-0.02316531 -0.17440775 0.12039470
-0.32611603 0.23835722 0.15838188
-0.25435373 -0.34682202 -0.42292315
0.26600733 -0.79707533 -0.00792500
-0.09073179 0.14289439 0.44926623
-0.05630922 -0.04634820 0.36403710
-0.11672305 -0.02913985 -0.15974511
-0.27611342 -0.29038069 0.04355317
-0.28578264 0.03741115 -0.30387753
0.45684063 0.26774931 -0.13475256
-0.12884077 0.40066627 -0.33070886
0.09230383 0.04300816 -0.32425597
0.21802685 -0.47533309 -0.06000821
0.20822226 0.67213911 0.21497770
0.48712599 0.34168053 -0.01135410
0.01125137 -0.58413708 0.25288960
-0.05458388 0.15615602 0.49366555
0.13054727 0.58908093 0.35423875
0.28474873 -0.36213672 0.24272874
-0.22727141 -0.30040088 -0.39624983
-0.50869417 0.43218067 -0.07966807
-0.47737828 0.54458362 -0.12431821
0.03825987 -0.02316582 -0.26124632
0.40799174 0.77625597 -0.10091096
0.09550805 0.17217726 0.52727962
0.13124388 0.37131390 -0.37855867
-0.35587546 0.07889055 -0.25032070
-0.00288298 -0.04310846 -0.21756113
0.20762734 0.09898861 0.48777631
0.40304470 0.56345171 0.08652362
-0.42811874 -0.38513508 -0.37238345
-0.19199872 0.00148930 -0.10850386
0.37217420 0.00519595 -0.08697218
0.03727607 -0.38184637 -0.27314445
0.00477269 -0.21325611 0.01077062
-0.21775396 -0.67980844 -0.37715322
-0.13547343 -0.79897004 -0.01275664
-0.18575904 -0.71487540 0.23752823
0.18618391 0.70162332 0.14959064
-0.21272837 -0.43611220 0.14759424
-0.03830881 -0.29903832 0.22957073
-0.02309977 0.16715781 0.51056570
-0.27422053 -0.00378181 -0.24212843
-0.28016677 0.08124839 0.10148497
-0.29566187 0.17077826 -0.27811742
-0.03053372 -0.79518646 -0.10215887
0.46409750 0.21222459 0.23273118
0.09492270 0.40641809 -0.37561998
0.01618369 -0.18716311 0.24907687
-0.36628655 -0.44322920 0.11155355
-0.03371993 -0.37928849 0.26804125
-0.23105699 -0.21424630 -0.08610202
-0.08320057 0.64876330 0.22369283
-0.12686417 -0.80303699 -0.15710010
-0.00861262 -0.41928256 -0.38085461
0.34975579 0.60855734 0.11320744
-0.41318050 0.42202538 0.01262299
-0.30269322 -0.77816325 0.06064263
0.27367085 0.23882498 -0.33517635
-0.12938493 -0.23047838 -0.12577924
0.47859159 0.38132343 -0.05650791
0.01406851 0.66158402 0.26705691
-0.17682916 -0.78057057 0.23285064
-0.35228497 0.48863310 -0.20966536
0.11557310 -0.11160970 -0.12150316
0.29381186 -0.06970331 -0.05389383
-0.27890322 0.43299538 0.22876185
-0.45368791 0.28246012 0.00966702
0.04367574 -0.34307927 0.32523915
-0.17841248 0.16053413 -0.29788134
0.16630742 0.62163895 0.31580341
0.29844251 -0.76609266 -0.06136410
0.20261444 -0.18555680 -0.02731758
0.16898330 -0.80025995 0.05496784
0.12880415 0.36438179 0.43468490
0.21690579 -0.42383406 0.29869372
-0.49096164 0.35236487 -0.04505280
0.05628440 -0.47182703 -0.31454739
0.08903214 0.28861547 0.51961982
0.02969192 -0.73456913 0.30146381
0.01989461 -0.66808724 -0.29099423
-0.39768377 0.21500501 0.04901109
0.20602122 -0.00239396 -0.26005220
-0.47643045 0.56807864 -0.11595193
0.03272991 -0.24763188 -0.04797737
0.51909202 0.52139902 -0.06505094
-0.26494199 0.52947605 0.14699586
0.49488452 0.76297474 -0.07933401
0.28678882 -0.30389598 0.02397572
0.06548364 -0.80079371 -0.25177744
-0.39107338 0.24524871 -0.18415107
0.02684159 -0.32058033 -0.21773976
0.01778341 0.50684386 -0.34217927
-0.21478127 0.02418162 -0.12922312
-0.39036041 -0.70351559 -0.09874290
-0.08487452 -0.80370867 -0.25969228
-0.35782877 -0.76606363 -0.06844161
-0.30980527 0.60204059 -0.06976764
-0.49052289 -0.24654689 -0.28894639
0.09787988 -0.37706527 -0.16512237
0.08464961 -0.56733060 -0.19313160
-0.40106356 -0.46564603 0.09351878
-0.10749368 -0.08876552 -0.01485619
-0.35798666 -0.13954665 -0.27959269
-0.03841515 -0.38522598 0.27197063
-0.19394724 -0.59115475 -0.42018738
0.00531494 -0.69833392 -0.28992856
0.18026529 -0.80663520 -0.07451487
0.22612952 -0.40237918 -0.06478654
-0.47206894 -0.36994451 -0.19024764
0.24370454 0.24752036 0.41588470
-0.10469903 0.01230414 0.39263058
0.39897507 0.50861537 0.22052431
-0.01372288 -0.16961814 0.01395088
0.14369921 0.70834243 0.15506214
-0.26017272 0.01945011 -0.24692571
-0.01828687 -0.27502275 -0.12146978
0.09357455 -0.64133710 0.21253262
0.27544087 -0.70534682 -0.08483982
-0.31318349 0.28527802 0.21376790
0.06319718 0.64552927 -0.21894503
-0.14307767 0.60792077 -0.15114106
-0.03178576 0.51028311 -0.33187377
0.19327255 -0.42223397 0.31671494
-0.25263974 0.60292178 -0.03986508
-0.18455365 0.21040373 0.31145617
-0.35601100 0.16753228 0.03496982
-0.24007532 0.60764366 -0.02610677
-0.47163489 -0.26018226 -0.24523494
-0.00852464 -0.80122906 -0.11566134
-0.30862135 -0.72594100 0.13225001
-0.21846449 -0.41352588 0.13532102
0.31160024 0.59951335 0.24347173
-0.26372147 0.58007115 -0.10844725
0.01891381 -0.26095885 -0.07543150
-0.15356438 0.08698796 0.37179777
0.01342256 -0.37126550 -0.32421562
0.35176277 0.50648469 0.30588162
-0.06695278 -0.65406585 0.21618682
-0.09119759 0.66753334 -0.03848357
-0.01128212 -0.00849450 -0.25217801
0.17728554 0.71376282 -0.02933691
0.06829329 -0.34633854 -0.16968684
0.20878503 0.18879053 -0.35239738
0.02219083 -0.80890054 -0.20697579
0.35388604 0.32525837 0.33781463
-0.27563980 0.55761641 -0.14958543
-0.25274858 -0.53692913 -0.41920060
-0.23437256 0.57670331 -0.12343520
0.47433969 0.31316102 0.18494546
0.26596862 -0.46123397 0.18458918
-0.50337195 0.53962642 0.00506039
-0.44164571 0.44911429 0.01021294
-0.03362843 -0.28265604 -0.23978651
0.47524747 0.13315186 0.14748749
0.25530016 0.38145149 -0.33323002
-0.46758798 -0.39871559 -0.28552306
0.24051441 0.68249142 0.16865546
0.16401243 0.71725726 0.07926595
0.36078981 0.66749698 -0.15145372
0.22711568 -0.28409225 -0.03801631
-0.35953122 0.57113576 0.02579017
-0.09247664 -0.80155897 -0.19822308
0.38401529 0.30057657 -0.24944660
0.19879091 0.62632859 0.30155107
-0.34479666 0.30102563 0.08549026
0.24052848 0.34072071 -0.35011420
-0.26782566 0.58177131 -0.10338551
0.06545912 -0.03530527 0.42214561
0.09062511 -0.59995413 -0.17064925
-0.05297807 -0.10434999 0.22931844
-0.01999073 -0.79151040 -0.08359303
-0.31887394 0.10985982 -0.13147214
-0.33603594 -0.08838709 -0.33901972
-0.36830783 0.11883742 -0.25120458
0.17701569 0.72009891 0.04557654
-0.47185901 -0.42350706 -0.21653676
0.10735317 0.71755230 0.00984048
-0.18852110 -0.22252554 -0.10548709
-0.18858661 -0.72158611 0.23596998
-0.03748470 -0.81214130 0.10513714
-0.26811129 0.06550415 -0.28107637
-0.48033395 0.59987926 -0.07886603
-0.16837105 0.63804638 0.03004301
-0.31554991 0.25087929 0.18467304
-0.36449486 0.18727127 -0.28822240
0.32259464 0.07404353 0.39544910
-0.20826335 0.00176280 -0.07009669
-0.13945720 -0.80179650 -0.08705562
-0.18345080 0.09178357 -0.26053560
-0.30824032 0.49565005 -0.20103016
0.10684156 -0.75237960 0.19645260
-0.35429829 0.37508979 0.02367044
0.22558737 -0.58354491 0.01252067
0.00713226 -0.14839502 0.23685935
-0.33630285 0.29097414 0.11778861
-0.06693228 -0.78025985 0.01873090
0.38400015 0.56927186 0.11981944
-0.16853353 0.60021192 -0.13483416
0.33254346 -0.02110479 0.26196671
0.44871330 0.07809380 0.15034488
0.01768136 -0.16875884 0.24183427
0.13110472 -0.28562182 0.33560365
-0.46651268 -0.13299145 -0.37506840
-0.07314581 -0.02306226 0.37462059
-0.05805936 -0.11555660 -0.01483189
-0.05799683 -0.80070150 -0.26184949
0.09963860 -0.76888025 0.19729418
-0.28614110 -0.25381932 -0.00807895
-0.48310861 -0.23108947 -0.37996119
-0.05526862 0.22760706 0.46898997
-0.08550125 -0.26570502 -0.28888690
-0.45496571 0.32193509 -0.11323425
0.45749429 0.10936233 -0.04634878
-0.16792959 -0.25994867 0.00010879
-0.15205880 -0.23491174 -0.25044703
-0.02542751 -0.18919334 0.10606666
-0.43975818 -0.22636044 -0.24147856
-0.02920835 0.28136924 -0.38272309
0.26966307 -0.48743290 0.06694039
-0.00012077 -0.22341323 0.01037788
-0.13850188 -0.07983749 0.18939821
-0.00727243 0.11087003 0.51943678
-0.00811229 0.70628411 -0.00755396
0.09035134 0.45517576 -0.36345640
0.45530188 0.13009465 0.25736466
-0.08985715 -0.10030825 0.02245665
0.41011024 0.29922241 -0.21974802
0.39674458 0.53545332 0.15705849
-0.39551622 0.20096052 -0.05060480
0.24133161 0.18476793 0.48071298
-0.12779450 -0.01307581 0.34059465
-0.07619932 -0.25303546 -0.15581664
-0.02833110 -0.32112461 -0.31097749
0.05895408 -0.65751457 -0.23501951
-0.48594937 -0.32183233 -0.26622191
0.31130651 -0.02857891 0.27978498
-0.00756626 -0.20100002 0.02134542
0.02116638 0.54264092 0.38940415
-0.28442609 0.07734598 0.05041231
-0.29779032 0.32232505 0.25049639
-0.20541768 0.09255920 -0.26213181
-0.32929191 -0.39204207 -0.42537528
-0.16951577 0.61145163 -0.09032226
0.06272703 -0.56997108 -0.29619423
-0.08956016 -0.80872101 -0.20339698
-0.19099319 -0.68008626 -0.37492460
-0.38978738 0.22983177 -0.15843771
-0.34860528 0.16208199 -0.08605966
0.46460092 0.13151132 0.20002243
-0.43936473 -0.13408054 -0.25440487
-0.47192872 -0.11385331 -0.31945631
-0.07377592 -0.05293999 -0.15842390
-0.21517079 0.21782836 -0.29230940
-0.42679772 -0.60193431 -0.21874547
-0.30578920 0.37354490 0.20600092
-0.08688802 -0.08764299 -0.07833090
-0.32250074 0.36223701 0.14072993
0.55219901 0.56113160 0.03348967
-0.02916251 -0.40597293 -0.39519432
-0.35568598 0.34544098 -0.22427616
-0.06785114 -0.25308570 0.06263996
0.12890752 0.45248592 0.42744282
0.41423392 0.47960845 0.23358078
-0.46476755 -0.40902868 -0.27458268
0.21492408 0.03149479 -0.28587925
0.06881425 -0.77958399 0.24843447
0.39861414 0.00410534 0.13624170
-0.13921736 -0.07711218 0.07789218
-0.42143083 -0.63428158 -0.01487238
-0.33672374 -0.12334931 -0.32280686
-0.02019349 0.70255554 0.13824324
-0.19946744 -0.80187207 -0.03948166
-0.10317624 0.17709172 0.41248035
-0.28622538 0.43140423 0.20679910
0.37538564 0.82880598 0.02504923
-0.33705884 -0.74707979 0.04164776
0.10822365 0.38867718 0.43508375
0.44029412 0.49788079 0.13129151
-0.28185928 0.22218937 -0.26603937
0.24595733 -0.03325568 0.36117184
0.17536505 -0.80680233 -0.11497441
-0.34330893 0.57343954 0.02765841
0.05492198 0.60316759 -0.27260464
-0.27957630 -0.40958795 -0.43311375
0.18976669 -0.11970827 0.26162893
-0.18619403 -0.80865800 0.08018361
0.00899992 0.45377722 -0.36693817
0.34919959 0.31419614 0.34053740
-0.37892279 0.34801042 -0.21675792
0.27397057 -0.78050435 -0.00449313
0.22891842 -0.08445841 -0.10000949
-0.48411462 -0.18151830 -0.27904978
0.37904415 0.09026654 0.34432811
-0.26144102 0.53705299 0.12696940
0.03070121 0.70082420 0.17190510
0.30962613 -0.36906561 0.07519148
0.52249920 0.68541539 -0.08316295
-0.44451874 -0.55611408 0.01315430
-0.10384867 0.43760940 0.39848670
-0.42158154 -0.42539477 0.05734491
-0.32947809 -0.79451996 -0.16227943
-0.10737574 -0.23770082 -0.12957060
-0.02527298 -0.21561918 0.07231843
0.29236671 -0.29336455 0.19129589
0.21910684 0.00454942 0.42882153
0.03225411 -0.79182494 -0.27781591
-0.31148472 -0.29878020 0.04060873
0.47882643 0.13234296 0.11126044
-0.05259391 -0.12137026 0.00141872
0.05332534 0.29427135 0.51240766
-0.16458809 0.50567347 0.33821523
0.27193287 -0.05298858 -0.13413721
-0.33803102 -0.49934918 0.13582543
0.21515681 0.61612743 0.30352879
-0.41384450 0.34631631 -0.18205191
0.13523097 -0.48520797 -0.14168331
-0.02239083 -0.28951979 0.25169510
0.25646460 0.12246463 -0.31474093
0.10504691 -0.12089577 -0.10324979
-0.12597585 0.53569371 -0.26486826
0.05788111 -0.80001187 -0.23027581
-0.39161494 -0.67724967 -0.21691832
0.48229283 0.19392964 -0.01056942
0.15755431 0.42149138 0.42748967
-0.38778484 0.55646706 0.01579978
0.34375837 -0.01682280 -0.08501559
0.02863671 0.71203840 -0.02527928
-0.22094050 -0.80184239 -0.01075936
0.20965658 0.38782072 0.39904574
0.26354432 -0.08370608 0.23147339
-0.42366511 -0.63648427 -0.14124398
0.43778563 0.73063582 -0.12907767
-0.34306443 -0.07792937 -0.22054192
0.21770951 -0.01396067 -0.23397675
-0.26133513 0.60327595 0.02483506
0.01748495 -0.12177736 -0.07768007
0.12409621 -0.62887937 0.17991503
-0.25621727 0.15765764 0.24826369
0.23125120 0.04198750 -0.28287113
-0.20631097 0.55509347 -0.17957632
-0.22285233 -0.20875159 -0.13441812
0.44215950 0.38806170 0.25359699
0.22375429 0.71498293 -0.04416215
0.13681102 0.71852297 -0.04728552
0.32332993 0.30074564 -0.31369069
0.01524220 -0.49495077 -0.36969998
-0.04304944 0.61068910 0.31125343
0.13385803 0.72186369 0.00621017
-0.30633307 -0.22492492 -0.10979782
-0.33719853 0.09286322 -0.28228098
-0.12421905 -0.78149796 0.23881555
0.02076823 0.08030786 0.50121152
-0.39050129 -0.25447690 -0.43999159
-0.09360398 -0.24451765 -0.06724771
-0.09502482 -0.06917229 0.29338318
0.03786346 -0.72680527 -0.27393055
0.39836967 0.67407066 -0.15377168
0.07452198 -0.25791004 0.31956840
-0.13594824 0.09656730 -0.28321043
0.23003860 0.21254894 0.46525255
0.03484458 0.18403572 -0.38583392
-0.09490297 0.47932541 0.38990372
0.55197942 0.75507081 -0.00841171
-0.33802041 0.61325645 -0.01196548
-0.30721423 0.49004808 0.05678928
0.43367141 0.61401832 -0.15668827
-0.00814132 -0.74925703 -0.30486813
0.47875288 0.37872964 0.15294380
-0.03818791 -0.15206182 0.10210307
0.29994535 -0.36270270 0.19538690
0.22368170 -0.02714701 0.40364155
0.14066985 0.65657187 0.26952380
0.05742529 -0.48081237 -0.31857780
0.46161965 0.33858582 -0.11193801
-0.04509594 0.41999948 -0.36590475
0.01478970 -0.24347660 -0.01602558
0.18967721 -0.25202772 0.30543286
0.54778099 0.65877652 -0.03592129
0.22314179 0.20055349 -0.35130683
-0.25514033 0.58622539 -0.09433126
-0.01511146 0.70827097 0.04172480
-0.33791575 0.33626324 0.07967477
0.27076447 -0.80438149 -0.03854080
0.55218577 0.55144858 0.03147473
0.14722538 0.70587385 -0.09211101
0.18251123 -0.34748274 -0.08220883
0.27842206 0.61795855 0.25548586
-0.10122657 -0.25434667 -0.00140883
-0.43263233 -0.48642045 0.05908627
0.08161388 -0.52773118 -0.24639133
0.12731811 -0.47897536 -0.14768848
-0.16183832 -0.37331769 -0.42258653
-0.45532629 0.49931690 -0.15125960
0.34172708 0.76198363 -0.08875643
-0.30773887 0.27660808 0.21104006
-0.06553716 0.58041793 -0.26145738
-0.42809656 0.30763251 -0.15189219
-0.12414159 -0.01159207 0.34585956
-0.32092795 0.38068447 0.12889214
0.08064367 -0.67634714 -0.20383349
0.06102720 -0.65705377 0.23508990
0.04144620 -0.19035386 0.28693357
-0.32574111 -0.09385530 -0.26722774
-0.02395272 0.29958135 0.44904563
-0.38042620 -0.23743740 -0.20473033
0.35568994 0.40510240 0.33793885
-0.48565087 0.36314932 0.01854155
0.01286509 -0.57545024 0.25832075
-0.40738267 0.40573892 -0.19581302
-0.37174824 0.48543426 0.01083607
0.40580747 0.68734217 0.05633197
-0.34670049 0.29105479 0.08743945
-0.05621172 0.66869897 -0.11242591
0.10887057 0.20764096 0.53711820
0.10729893 -0.71394241 -0.19962198
-0.06857704 0.27057222 0.42166167
0.15322657 0.62503612 0.31352121
-0.17362581 -0.05455980 0.10766941
-0.19103847 -0.78688890 -0.31473494
-0.30194631 0.22298448 0.20423156
0.39545041 0.32743368 0.32185882
0.24921867 -0.77964008 -0.14159232
0.03300302 -0.35023013 -0.23663440
0.30225092 0.06055730 -0.24601725
0.47058201 0.29353625 0.20071544
-0.11036904 0.64250660 -0.11867319
0.01472792 -0.07370453 -0.16863118
0.11407028 -0.09637371 -0.14110541
0.00729140 -0.08099043 -0.15116873
-0.27353883 0.27572665 0.27500188
0.16395068 -0.46669987 0.29979682
-0.01060340 -0.01391862 -0.24729291
-0.06986487 -0.72876799 0.29132748
-0.12985678 -0.32389113 -0.39015046
-0.25572565 -0.56344205 0.16695097
0.22121353 -0.52908903 0.17021695
-0.27655280 0.28893784 -0.26224199
0.14049563 -0.61201870 -0.12829797
0.24250786 -0.67184663 -0.06686831
-0.05063525 0.25835577 0.45624959
-0.09268356 -0.09545223 0.01302330
-0.33674416 -0.79037285 -0.14587083
-0.26886949 -0.24050021 -0.30527741
-0.00307694 0.32030231 0.44409642
0.49330750 0.32571021 0.12292060
0.35277587 -0.00418659 0.25608152
-0.46884981 -0.09949861 -0.29804567
0.38404551 0.23895276 -0.24551436
0.25800160 -0.80687159 -0.02408024
-0.26262912 -0.23979241 -0.04026385
-0.26896077 0.09292132 -0.28503412
0.11461359 -0.62927669 -0.14069319
0.20776559 0.00763763 -0.26604056
-0.20228432 0.32189152 0.33066240
0.03660387 -0.66789401 -0.26586068
0.12314659 -0.08702233 -0.15952148
-0.23769721 -0.34078977 0.09378103
-0.27262029 -0.67074513 -0.34921071
0.22375982 0.52359927 0.37436441
-0.04575770 0.23917240 0.47825161
-0.21152653 -0.21623451 -0.10955478
-0.11882004 -0.45263323 -0.43902639
-0.03986434 -0.78386557 0.00500292
-0.22120813 -0.79922175 -0.29158568
0.47352317 0.33034062 0.18005542
-0.21933681 -0.34694061 0.09801932
0.29686347 -0.28930137 0.16241658
0.41275325 0.45961326 -0.17487776
0.04077560 0.71008444 0.15792322
0.52497590 0.65857959 0.05494693
0.24348564 0.72749931 0.05809103
0.22949332 -0.57592148 0.01487098
0.17445570 -0.47873712 -0.10697840
-0.37067553 -0.62561435 -0.29202434
0.47679302 0.23551287 -0.06697383
0.27786198 0.70832217 0.11171091
-0.23411116 0.01436244 0.00113333
0.35926482 0.68118560 -0.14834328
-0.21036871 0.20180981 0.30939111
0.39023459 0.32050833 0.32798743
-0.40682554 -0.03324245 -0.33662280
0.07782489 -0.62697971 -0.22570631
0.08977979 -0.81260240 -0.22617614
-0.01705102 -0.62661856 0.23410180
-0.24446130 0.48201016 -0.22545639
0.14171392 0.36664897 0.42924419
-0.13645066 0.59191430 -0.19137840
-0.07030059 -0.30203584 -0.32898009
-0.48691466 0.31437421 0.00747546
0.31645221 0.70255864 -0.12723169
-0.23000187 0.13108292 0.28355730
0.28529954 -0.28288272 0.19783463
-0.11861117 -0.49519444 -0.44055343
-0.26480740 0.59104323 -0.08800073
0.07687188 -0.04297119 0.42076296
-0.09614088 -0.80333817 -0.21323535
-0.35818300 0.60805291 0.00690414
0.24027029 -0.13342950 -0.00947294
0.28165042 -0.06407664 -0.08161935
0.40185377 0.49739370 0.23570830
-0.45682332 -0.36239970 -0.08008629
-0.35802403 -0.16026248 -0.38637617
0.54091501 0.62894493 -0.06803706
0.22203088 0.15908363 0.49524656
0.47262415 0.49759090 0.10299174
0.13610214 0.51871020 -0.32342440
0.14904547 -0.12500118 0.28065294
-0.05047145 0.66319615 0.22295816
-0.45253175 -0.22416198 -0.24602884
0.43996358 0.59977674 -0.16095421
-0.13945362 0.57719070 0.29193670
0.16964628 -0.65042418 -0.12602814
0.03378660 0.50586259 -0.34612921
-0.06721392 0.54594296 -0.29618904
0.25157294 -0.49560475 0.14118683
-0.00768138 0.02917409 0.46336058
0.04013693 0.64583933 0.28907651
-0.18926458 0.02519056 -0.20067543
-0.04613015 -0.26343778 -0.17634872
0.11076306 -0.18914330 -0.04578771
-0.47939190 -0.30860591 -0.23615977
-0.24372926 -0.21882068 -0.24730909
0.49308434 0.40025237 0.11120569
-0.07594772 -0.26002884 0.06339348
-0.28000939 -0.01288286 -0.27523521
0.30348250 0.06901924 -0.26165095
0.00223424 0.33617195 0.44377145
-0.15985700 -0.59037638 0.16506796
0.26300508 0.73574758 0.06499293
0.54718447 0.54409140 0.02463177
-0.23234960 0.14053342 -0.27095240
0.00179441 0.30215064 0.47616339
0.41320527 0.52160645 -0.16378154
-0.04126865 0.43813768 0.42344320
-0.48994228 -0.29856011 -0.32105312
-0.17647924 -0.42685843 -0.44172055
-0.15797862 -0.05475198 0.01968801
-0.34680805 0.54561913 -0.16668704
0.03285599 -0.37235537 -0.26699251
0.20620932 -0.74172270 -0.15405403
-0.34805849 -0.68373007 0.08787660
0.25563914 -0.26084524 -0.00202189
-0.47959110 -0.43245253 -0.12039885
-0.09904116 0.06164687 -0.29138333
-0.25599846 -0.77292305 -0.30226138
0.54864836 0.77756494 0.01393742
0.10742065 0.08627637 -0.33888778
0.32213050 0.03430347 0.36120147
0.48974678 0.38706279 -0.03383067
0.17457828 -0.63103878 0.12966312
0.07364047 0.47918883 -0.35468188
-0.45939517 -0.11459921 -0.26878321
0.32472342 -0.06174525 0.17147353
0.16046166 0.32753479 -0.37873587
-0.25247517 -0.25927705 -0.34531242
-0.04539043 0.69803149 0.10449450
0.02885576 0.71356356 0.10663007
0.23683822 -0.12718756 0.21573465
-0.47350281 -0.47018486 -0.15043387
-0.43905416 -0.51658887 -0.24993816
0.29456425 0.58366674 -0.20688632
0.27551889 -0.20212696 0.12631209
0.06024190 0.51363176 -0.33465752
0.10674582 -0.46248677 0.32336920
-0.14657703 -0.23047072 -0.09928229
0.12595358 0.34164444 -0.39229682
-0.38661459 -0.36402839 0.06523675
-0.42739213 -0.63228846 -0.01666490
-0.29915011 -0.79840803 0.00323234
-0.36122391 0.50695860 0.01845999
-0.28922126 0.08259397 -0.11628766
0.48172170 0.46618474 -0.09554780
-0.07198954 -0.81242317 0.21721008
-0.08227696 0.27255619 0.40745097
-0.48548475 0.53434396 0.00540538
-0.02676278 -0.78914309 0.29882562
0.29824278 0.65473717 0.14547175
0.37100312 0.82782817 0.00629745
0.01785753 -0.21763802 -0.00769346
-0.13484506 -0.70680052 -0.36391601
0.17623605 -0.24094224 -0.05042528
0.20834909 -0.01899010 -0.23442519
0.34243006 0.65158433 -0.15765180
0.29052940 -0.45049274 0.14109924
0.16214766 0.45702556 0.42030817
-0.43792814 0.59702075 0.00605688
0.45666975 0.60000056 -0.14591023
-0.13867363 -0.38110992 0.16113225
0.04391265 0.66859573 0.26430345
0.48342508 0.74440724 0.05252108
0.25451899 0.18493281 -0.33442923
-0.07668915 -0.81987512 0.16072266
-0.03255636 -0.13526909 0.00189603
0.19646084 -0.01122721 -0.24783641
0.13840994 -0.25287950 -0.07023717
0.36816484 0.53759235 0.23727609
-0.17180197 0.53628683 -0.24251795
0.01804828 0.68263948 0.22170325
0.07131664 0.06154114 -0.33848786
-0.23584977 -0.50648832 -0.43025753
0.08101705 0.39024827 0.44372061
0.12236290 -0.80226815 -0.16468750
0.05662014 -0.80166453 0.00807545
0.16649806 0.70372993 0.15466595
-0.14634618 -0.80116683 -0.09633620
0.02315666 -0.30386031 -0.18435647
0.33154193 0.01643337 -0.16687980
-0.00503924 0.28936934 0.48760724
-0.06425799 0.59657055 0.32123449
0.23082437 0.30216140 -0.35620472
-0.18366764 0.30914828 0.33818391
0.05539909 -0.31819713 -0.16110699
0.46285066 0.36693203 0.19280411
-0.12762964 0.59812969 -0.19479164
-0.31989425 0.12105177 -0.11077301
-0.14558212 -0.39374214 0.15727811
-0.25990629 -0.80591345 -0.06093453
0.41735318 0.03726356 -0.01655950
0.13596535 0.12249716 0.51437378
-0.29619020 0.49720740 -0.20469129
-0.06544229 -0.68001395 0.23220636
0.36066964 0.00483028 0.26961330
-0.05840041 -0.77854836 0.02024676
-0.07089150 -0.76204288 -0.29485637
0.01202042 0.70545673 -0.03997255
-0.07630449 -0.80641758 -0.22181195
-0.48578236 0.37521026 0.01938826
-0.07085913 -0.44769183 0.24095726
0.28253147 -0.10157026 0.02458693
-0.03894057 -0.47778988 -0.41322750
-0.03333706 -0.33247826 -0.33357024
-0.14228553 -0.24913585 -0.03004076
-0.09980731 0.45043856 0.39703837
0.00354883 -0.07818841 0.33298415
-0.21541770 0.57223397 -0.14790861
0.11899418 -0.80673862 -0.15109135
0.03538306 0.62295145 -0.25138721
0.39936486 0.36659825 0.31318519
-0.15861996 0.23837538 0.33165151
-0.48105326 -0.27608219 -0.25667143
0.21865037 -0.10091308 0.25863114
0.12878071 -0.44559357 -0.14429866
-0.16952938 -0.65177464 0.18831012
0.01184157 -0.80016881 -0.10003431
-0.30815881 0.32309735 -0.24425060
0.25452399 -0.11058888 -0.01179864
-0.38019493 -0.01466260 -0.33878064
0.16608277 0.11777719 0.50796711
-0.45051280 0.34956208 0.03229026
0.48306066 0.18117984 0.15252993
-0.21821791 -0.73845774 0.23164731
0.07924002 0.02452059 0.46672517
-0.21048485 -0.80736667 0.08067642
0.31227076 -0.35702184 0.10150020
0.06091024 0.07103594 -0.33827537
0.51124084 0.45628971 -0.02900164
0.42428440 0.35220736 0.28771359
0.01110493 0.15343995 -0.37347120
0.26784238 0.52009940 -0.26397407
-0.21322203 0.57972658 -0.13972819
-0.17528328 -0.80787653 0.04376916
0.35476306 0.44704840 -0.24276951
-0.23108402 -0.74381620 -0.33473864
0.36876959 0.00536507 0.25404972
-0.30627871 0.56103897 0.05347807
0.12863234 -0.78128493 -0.19063576
-0.37298137 -0.60740626 0.09679730
-0.23196253 0.43040270 -0.26220840
-0.29092345 -0.26797250 -0.38044798
-0.49017969 -0.16833666 -0.31592157
0.34549269 0.25869846 0.36096331
-0.44187483 -0.11835223 -0.39577425
-0.46628538 -0.24023497 -0.24594077
-0.30450508 0.46843091 0.08321610
-0.06042255 -0.80754548 -0.20751628
-0.01423057 -0.47192985 -0.39492944
0.29946792 -0.33087099 0.04574074
-0.39444616 -0.68401098 -0.02748790
0.27496797 0.68375576 0.12675203
0.14889079 -0.18915398 -0.05155621
0.09059757 -0.62315315 -0.16605178
0.01816192 -0.54540145 0.28285292
-0.31418720 0.44098005 -0.22500095
-0.34930372 -0.10297267 -0.27307001
0.19575928 0.52443588 -0.29735160
-0.36812690 -0.23650059 -0.16849668
0.34658769 0.43597108 0.33566141
0.02871414 -0.71304929 -0.27898616
-0.02271714 -0.26497790 -0.08819866
-0.28841746 -0.79258770 0.08057656
0.12347402 -0.07629649 -0.16954806
-0.34538499 -0.21649358 -0.34082717
-0.18426633 -0.02634295 -0.00911117
0.18559134 0.48238286 -0.32716104
0.30080661 0.04110454 0.39207512
-0.24438030 -0.26953617 0.01450783
-0.43007803 0.47882077 0.00766480
0.45907182 0.17035645 0.24765763
-0.20835046 -0.79911745 0.19135791
0.25228179 -0.68214583 -0.03720849
0.19582894 -0.22539097 0.29331958
-0.24025634 -0.21595062 -0.09115155
-0.22463305 0.20754607 0.28803179
-0.40406647 0.20350279 -0.19344261
-0.36500716 0.51923597 -0.17842311
-0.23826599 -0.21155134 -0.09542057
0.02449638 0.33344850 0.44626653
-0.22195697 -0.36901128 0.10889059
0.12361256 0.05894490 0.47787642
-0.33095059 -0.27280420 -0.40741372
-0.03845403 -0.31877795 -0.32237908
-0.40022731 -0.60416991 0.06442080
0.11006942 0.16778225 -0.37631714
-0.28734890 -0.40841302 -0.42911017
0.18090299 -0.45819595 0.29668605
-0.03968881 -0.28272036 -0.25500658
-0.43281591 0.27762783 -0.10798822
-0.31317055 -0.79975665 -0.02326602
-0.02367861 0.31708589 0.44070682
0.44669598 0.30189216 -0.15788649
0.20573702 0.71164298 0.11591747
0.30117905 0.63346910 0.17666459
0.43962595 0.36514914 0.25524366
0.24018635 -0.75804210 -0.15138881
0.42509049 0.48612723 0.19526395
0.16264632 -0.36939216 -0.10928139
-0.37179986 -0.22523612 -0.27958518
-0.13196318 0.49580887 -0.29831108
0.07772107 -0.18380220 -0.04641992
0.04446094 -0.29398647 -0.12879944
-0.03208398 -0.26556996 -0.09822182
-0.16409034 0.47217083 -0.28586674
-0.38604081 -0.45111981 -0.38324267
-0.00947933 -0.80678064 0.15433489
0.25870872 -0.68520725 -0.07350911
-0.20550655 0.34466633 0.33706543
0.22992691 -0.58720243 0.00522401
-0.35538352 0.16018079 0.01363842
-0.03723149 -0.11894718 -0.04809393
-0.46200222 -0.52427316 -0.12054500
0.40072361 0.17528023 0.35120201
0.02429243 0.68168563 0.22126086
-0.28829423 0.46787772 0.15955961
-0.11002271 -0.80055362 0.22622342
-0.04294571 -0.30150461 -0.30157918
-0.08586593 -0.77170575 0.03298375
0.34740436 0.51260793 -0.20896256
-0.18546422 -0.79969800 -0.10942999
0.10867649 -0.77766955 -0.20667487
-0.47661957 -0.44090483 -0.14465137
-0.34099448 -0.11710177 -0.29000595
-0.37541753 0.18854898 0.06044336
-0.05550233 -0.70758402 -0.32913598
-0.28620982 0.09948424 0.14012589
-0.02296983 -0.09729081 -0.09866340
0.24496742 0.25509822 -0.34766921
0.29504654 0.08779871 -0.27725723
0.27012402 -0.39561227 -0.02257172
-0.27525675 0.14058244 -0.27660578
0.09779296 0.59505075 -0.27676252
0.24155450 -0.44081363 -0.04600579
0.51138687 0.50607449 -0.06938273
0.02198388 -0.79501271 -0.05864239
0.40449044 0.44923297 0.26278991
-0.10810854 -0.59408647 0.17464359
0.20914334 -0.58775198 -0.06313839
0.20912106 -0.13617596 -0.05473828
0.11359727 0.65047079 0.27831498
0.17073484 -0.01179649 -0.27331871
0.08569275 -0.05883833 0.39666384
-0.04102769 0.56155813 -0.29319787
-0.10967846 -0.80391347 0.14840209
-0.28729972 -0.77868229 -0.27859685
-0.08765291 -0.74726951 -0.32539743
0.20190653 -0.79862398 -0.00296285
-0.45680195 0.31524056 -0.10730669
0.13212307 -0.39214620 0.34109306
-0.14548194 -0.05315870 -0.05617761
0.52642107 0.80898744 0.03064311
0.08461058 -0.49436826 -0.17613180
0.35292175 -0.01414595 0.24408028
-0.34061965 -0.73891014 0.03690143
-0.02767281 -0.22445962 0.15689576
0.32593688 0.22233915 -0.29423508
0.30637076 -0.05730922 0.22550786
0.20714292 0.28397849 -0.36489552
0.49880940 0.40109909 0.09832188
-0.05044547 0.44229835 -0.35177884
-0.22912928 -0.20516786 -0.15757728
-0.05224507 -0.51956552 0.25088555
0.16765793 -0.45893413 -0.11417776
0.04105480 -0.18232861 0.27448785
0.33092228 0.16730833 -0.28077647
0.03754017 0.68425357 -0.14783363
0.30736777 0.31086904 0.36341000
-0.37373081 -0.58832890 0.10742702
-0.16799587 -0.79854852 0.20806272
-0.08177943 0.20720504 0.43129575
-0.16583994 -0.80633426 -0.22868758
0.01652581 -0.79539037 0.31027132
0.23300673 -0.40467802 -0.05792630
-0.28543434 0.49108168 0.12802222
0.02234392 -0.79781711 0.02807031
0.07433883 -0.06593527 0.38621244
-0.36630279 0.05877122 -0.23177955
0.24753153 -0.05212880 0.32849205
-0.15970930 0.46598831 -0.28885239
0.17029755 0.07271521 -0.32757309
0.04833300 -0.16257279 0.26891175
0.00698422 0.05116381 0.48485649
0.19030507 -0.80517733 -0.01762901
0.27399048 0.57009745 -0.22611246
0.24506281 0.17601843 0.47748125
-0.26830110 0.40177074 -0.24991214
-0.08327068 -0.74286532 -0.32002851
-0.22844923 -0.00133990 0.10470217
0.48777762 0.75154483 -0.09007841
-0.48922208 0.36672604 -0.08712375
-0.48245719 0.36705360 -0.10344280
-0.11948955 -0.58584690 0.16949043
-0.02738860 -0.20123468 0.14215058
0.00209735 -0.15568897 0.22528043
-0.29536811 -0.74781734 -0.29364175
0.09189544 0.49516770 0.41950035
0.23455654 0.33780983 -0.35303161
0.10563511 -0.48093277 0.31985813
0.41763264 0.25671428 -0.20111316
-0.34907681 0.34147796 -0.22470495
0.13470951 -0.76752114 0.13269103
-0.15965222 -0.69138038 0.21549813
0.00970097 -0.78219438 -0.02703030
-0.36811557 0.24126345 -0.22827941
-0.08828460 -0.08033054 -0.08379373
0.14814971 -0.72378522 0.13308859
0.18091020 -0.62773627 0.11984130
-0.35758185 -0.35219193 0.07381436
0.25988057 0.40040177 0.37629190
-0.29227337 -0.77859962 0.09852044
0.34173986 0.36836350 0.34176341
0.00700396 -0.74253446 0.31022725
0.11176211 0.72631985 0.06319844
0.05443845 -0.44055071 -0.31048542
-0.33828253 0.14872256 -0.06758015
0.04731528 0.67758805 -0.16587865
0.07678857 0.42553583 -0.38134679
0.33256644 0.68354666 -0.14599583
-0.26169762 -0.37100825 -0.43066418
0.48969686 0.75742525 0.04700243
-0.35785753 0.38020191 0.01576748
0.49225754 0.26897019 -0.01429519
-0.48759267 -0.30325809 -0.34604955
-0.02820235 -0.22304648 0.06999589
-0.05305169 -0.74738187 -0.30135822
0.19239922 0.71394706 -0.04256530
-0.11246672 0.22764181 0.37539691
-0.06777892 -0.68136793 0.24216624
0.17035837 0.05415289 -0.31358796
-0.07563910 0.60531491 -0.22795513
-0.25289840 -0.78361952 0.21212552
0.41440603 0.08182688 0.28603673
-0.32398626 0.14606576 0.08704358
-0.13861093 -0.25914255 -0.00139062
-0.35966346 0.05771588 -0.27609384
0.19233929 0.15698305 0.50997376
-0.12932248 0.15452468 0.37244669
0.49104947 0.31137484 0.12310893
0.25562540 0.27853960 -0.34429884
0.48438048 0.29368603 0.15823275
0.07438780 0.10521650 0.50692254
-0.07627930 -0.25496459 -0.16520673
-0.41575259 0.30301502 -0.17168199
0.30191249 0.33845961 -0.31718692
-0.11706118 0.57884103 -0.23047438
0.31259862 0.43236762 -0.28026825
-0.36193377 0.09577915 -0.18463828
-0.23272198 0.41268188 -0.26172304
-0.22360580 -0.80366671 0.01087891
0.15311858 -0.73018813 0.11329806
0.11031817 -0.26185057 -0.07538861
0.26749617 0.03443633 -0.24881849
-0.27264419 0.55211502 0.08059528
-0.30107033 0.12177868 -0.28590018
0.24102058 -0.42418960 0.28503320
-0.34755790 -0.33549511 0.07224864
0.49685365 0.64737004 0.05317599
0.14371783 0.72282737 -0.00277304
-0.11839378 0.63982266 -0.11157717
0.18653435 0.25166970 0.46911383
0.40668592 0.19234324 -0.20659778
0.11114869 -0.27617410 -0.07820277
0.08842762 -0.11372936 -0.12110625
-0.30571571 0.50344872 0.04952421
0.42166987 0.14962290 -0.16571133
-0.16800441 0.28894734 -0.32190162
0.01984740 -0.37949806 -0.32256928
-0.24451351 -0.20909801 -0.20482960
-0.29794285 0.32053757 -0.24793836
0.09927726 0.49025905 0.41793180
-0.11123587 -0.08558256 0.19553094
0.19815588 0.49049884 -0.31901112
0.08245453 0.07276261 0.48723844
-0.28905377 0.08087300 -0.04819401
-0.05783721 0.09566352 0.48638380
-0.02247225 -0.78241277 -0.06185454
-0.19498207 -0.23038924 -0.05170181
-0.21514072 -0.26884803 0.02660216
0.26929152 -0.19482826 0.15439025
-0.04836418 -0.71760142 -0.31437457
-0.45736167 0.33655453 -0.13902128
-0.44616759 -0.60800219 -0.08454274
0.04051899 -0.80646902 0.15911523
0.08804410 0.66590589 0.26327503
0.15537238 0.06309088 -0.32687089
-0.34687397 0.26072952 -0.22313240
0.29086342 0.26281279 -0.32334417
0.20132022 -0.17278676 0.26378202
0.41048649 0.13507965 0.32857871
0.07566972 0.05764011 -0.32896873
0.04055230 0.40764576 0.43913531
-0.44311547 -0.54443091 0.01980054
-0.44789571 -0.54925382 -0.16050535
-0.41982761 0.40868357 0.01597476
-0.25705528 -0.68075061 0.18113570
0.00578179 0.60556358 0.33521625
0.39282143 0.15867282 0.35460591
-0.27978531 -0.81008083 -0.10009296
0.06618120 0.14698641 -0.37474471
0.04505051 0.05238700 -0.32645425
-0.26165602 -0.27358791 0.02377185
-0.46185452 -0.39696926 -0.03880995
-0.26200551 0.04136069 -0.13732545
-0.09343717 -0.41041443 -0.42360848
0.07181647 0.12020637 -0.36124155
-0.36853188 -0.11706963 -0.24735117
0.06352794 -0.43656030 -0.25949213
-0.35293245 -0.04829933 -0.21767685
-0.27553466 0.40335813 0.26575303
0.05722743 0.42313471 -0.37661296
0.18708000 -0.72388595 0.08645338
0.46336126 0.28097156 0.22589427
0.46339285 0.18650270 0.23501332
-0.38643774 0.20697051 -0.12948266
0.11195495 -0.80517471 -0.05625119
0.27595752 -0.13825119 0.09995589
-0.04075520 0.66499418 -0.13791434
0.16915436 0.65893096 0.26102096
-0.02888979 0.10477879 0.50512636
0.48591840 0.27488974 0.15826458
-0.09563079 0.37571150 0.40990302
-0.44375196 -0.59506941 -0.12628992
0.05694940 -0.16343106 -0.04504254
-0.43107969 -0.59947067 0.00956961
-0.06818148 -0.36741936 -0.39586002
0.34533259 0.01817657 0.30365571
-0.23001307 0.25833508 -0.28301480
0.24961428 0.52540565 -0.27534595
-0.32779899 -0.74773890 -0.25414467
-0.28526941 0.60296404 -0.01272345
0.42217660 0.58680463 0.06710204
-0.35676908 -0.27819103 0.00134166
-0.26460427 -0.80033660 -0.03810518
0.01737577 0.58451581 0.36300090
-0.44073242 -0.53341424 0.03472995
-0.07533505 -0.09514131 -0.05061885
0.33099470 -0.01313948 -0.11870992
-0.33041129 -0.22374034 -0.35850719
-0.01478009 -0.80858743 0.26495779
-0.12623012 -0.79890335 0.10022069
0.09199639 -0.76705778 -0.24091724
-0.20503433 -0.44116625 -0.44596669
-0.40577692 -0.66254181 -0.19396697
-0.15687948 0.61386842 -0.11510238
-0.20361291 -0.02015473 0.03165299
-0.38617700 0.19076307 -0.00886849
-0.18014260 0.30605498 0.34243795
0.19831032 0.51164365 0.39092723
0.43708476 0.78864914 -0.08631924
-0.01999950 -0.46324232 0.28645232
0.34813476 0.52394164 -0.20750436
-0.20687464 0.03376237 0.28120774
-0.41834193 -0.02769164 -0.29825124
0.33587301 0.07991432 0.38762978
0.00366462 -0.04851773 -0.21532738
-0.27337646 0.32046255 -0.26221126
0.38668135 0.13640156 -0.21215680
0.00394891 -0.80525732 -0.21335000
0.22536567 -0.26153979 0.28174317
0.32669944 0.41449916 -0.27573335
-0.24376816 0.59667248 -0.02649137
-0.02029074 -0.18845399 0.07913298
0.37520722 0.56977433 0.13864458
-0.05026889 -0.80409187 0.22100556
0.44783524 0.19430570 0.26653832
-0.14825627 0.58862281 -0.19288363
-0.38703448 -0.64277536 0.06173130
-0.09764131 -0.80011964 -0.13015500
-0.20432286 -0.00072127 -0.03987767
0.02822363 -0.80317742 0.02025468
-0.44789797 -0.13945787 -0.25717813
0.28328371 -0.09608941 0.13704938
-0.14817931 0.61891520 0.20768389
0.40410125 0.78948253 0.07825632
0.08809518 -0.69160992 0.22998936
-0.31937867 -0.45734581 0.14277782
0.03605358 -0.81652355 0.16518679
0.04875940 -0.01001123 0.43702143
-0.34521899 0.42945734 0.02400169
0.49542978 0.35288656 0.05636941
-0.17269212 0.63421595 0.01959768
-0.14348294 0.63177007 -0.09513952
0.24341154 0.11489476 0.47783297
0.29039121 -0.07747229 -0.03254572
-0.32280815 -0.74432689 -0.26022732
-0.01124568 0.16431287 -0.36728680
0.54178357 0.50623035 0.01044985
-0.42589930 0.25248399 0.01423892
-0.41657504 -0.66108674 -0.03708778
0.43303987 0.10333584 0.26496506
0.00871899 -0.79844469 -0.29195708
0.48669258 0.66839290 -0.12146015
0.06966661 0.29843029 0.50830805
-0.08886755 0.62826538 -0.18295386
-0.26396149 -0.79354751 0.15555397
-0.13076001 -0.02710752 -0.16512309
-0.18307418 -0.40151301 -0.43791503
0.33356711 0.59037691 0.22136486
-0.02574970 0.69468832 -0.04680914
-0.40807965 -0.30503598 -0.04604556
-0.30895063 0.24423926 -0.25682330
-0.07352839 -0.26124471 -0.26222605
0.04230781 0.00973321 0.45183980
-0.47205257 -0.38315913 -0.14815807
0.55303001 0.73278904 0.02838195
0.46041378 0.73391253 0.05176833
0.37870187 0.46578962 0.30453002
0.32573336 -0.07073749 0.11743685
-0.06493898 0.59010541 0.32651520
0.09681625 0.00255853 -0.28918791
-0.47046751 0.39539722 0.02194560
-0.34008387 -0.73439062 0.05386791
-0.26708567 0.10611789 0.20667432
-0.10323878 -0.47548693 -0.43927050
0.13168469 0.33068460 0.44314551
0.17793371 0.42362165 0.41149119
-0.00283036 -0.10575742 -0.09981185
0.25430229 -0.80660605 -0.09139377
0.19142206 0.21798803 0.49797997
0.04428501 -0.54447770 0.27676970
0.31693372 0.57038188 0.26205346
-0.27192643 -0.53112459 -0.41548264
-0.46591526 -0.36780372 -0.12206830
-0.47341427 0.46139151 0.01124239
0.23656654 0.72183120 0.08482328
0.21940921 -0.17904063 -0.01764917
0.54377675 0.68687886 -0.05578958
-0.20264174 -0.80675894 -0.02003063
-0.11344840 -0.06358441 -0.11793114
0.49300486 0.28225449 0.10113409
-0.37400430 -0.13744365 -0.40028468
0.08719414 -0.71103305 0.23702979
-0.03584499 -0.68102753 -0.33511451
0.20386454 0.70223707 -0.08985375
-0.31448543 0.37421322 0.17691289
-0.07999470 -0.35142019 0.20096163
0.12362805 -0.62310094 -0.13586263
0.33904299 0.53330195 0.28552526
-0.21182342 0.11703359 0.29111293
-0.30378953 0.48479429 0.06645899
0.51019490 0.43753564 0.04336387
-0.46553102 -0.15268280 -0.38458204
-0.03418776 -0.64702278 0.23525399
-0.08543605 -0.79914057 0.09176946
-0.43490201 -0.60054278 -0.17554282
0.13957542 0.39206743 0.43173498
0.07038343 0.72336382 0.02325234
0.40508488 0.00757549 -0.01349100
0.23747246 -0.74489671 0.04019760
0.14911720 0.48842254 0.41108149
-0.24657989 0.25441885 0.28289920
-0.36831868 -0.70137638 -0.22522274
-0.25277230 -0.26629579 0.00980584
0.25613993 0.08912510 0.46566162
-0.02617978 0.20447043 0.50371528
-0.36488190 0.48754251 -0.20282215
0.18524951 0.30903229 0.41273606
-0.36645311 -0.18699697 -0.39615303
-0.06204607 0.69478971 0.04694754
0.35694796 0.61250907 -0.17748438
0.05453511 -0.69005889 0.26009840
0.14920165 0.57582933 -0.28476128
0.07619542 0.52304780 0.40540776
-0.41930839 -0.14220388 -0.42134464
0.05585685 -0.80764884 0.17204414
-0.44848663 0.50620878 0.00692202
-0.48404244 0.48861647 -0.12156731
-0.07358417 -0.25031579 -0.11564529
0.47095418 0.35227209 0.18104477
-0.45800155 -0.53784901 -0.03303737
0.01431565 -0.70669454 -0.28934917
0.28881177 -0.29292530 0.03121685
0.04097897 0.19225346 -0.38656324
0.04859892 -0.57060534 0.25443310
-0.38181725 -0.72064131 -0.15572862
0.10359731 -0.28037310 -0.08973363
-0.38695696 -0.70117390 -0.16717912
-0.32956511 -0.09914584 -0.30703920
-0.52469718 0.48750401 -0.04717872
0.05620726 -0.80857456 0.09914999
-0.36109781 0.07523746 -0.24854383
-0.32014152 0.31155562 0.17921492
-0.29641774 0.45076042 -0.22199193
-0.08006541 -0.25240883 -0.19227681
-0.29637256 -0.67405760 -0.33797765
0.05103452 0.25732452 0.54535222
-0.19965518 -0.59601241 -0.42102742
-0.27127022 0.06907310 0.15975085
-0.11256549 -0.49862891 -0.44040510
-0.21893656 0.35958359 0.33471367
-0.43634641 -0.36143690 -0.01541929
0.10617454 -0.62828571 0.20471226
-0.21007878 -0.56247979 0.16091627
0.25250417 0.31119764 -0.34355581
0.10601911 -0.40282944 -0.16784650
0.23628545 -0.26336130 -0.02175170
-0.24658269 -0.29227275 0.05560809
0.15175392 -0.46710250 -0.12904742
0.18263482 0.51920342 0.39588159
0.50831485 0.49949715 -0.07707554
0.29098815 0.35933658 0.35623193
-0.36822823 -0.73670661 -0.14182495
0.18380782 -0.51930022 -0.09096836
0.02148073 0.36010146 0.44687513
0.18133189 -0.07750345 -0.13654812
-0.33912680 -0.10709278 -0.33945879
-0.24519011 0.15836053 -0.28623343
-0.07568020 -0.04335297 0.34670758
-0.37729707 -0.20120043 -0.25639731
0.10916448 0.24347661 -0.39037246
0.20222078 -0.15676099 0.25739911
-0.31869158 -0.22807679 -0.29270217
-0.02542665 -0.18967521 0.09177849
-0.17652990 0.00605756 0.29802287
-0.02923072 -0.00445920 -0.24542090
0.35339317 -0.01553794 -0.05792315
-0.20913908 -0.00112613 -0.02421179
0.16524401 -0.51452297 0.25806770
-0.11472014 -0.35536599 -0.40221664
-0.22591251 -0.30831966 0.07207341
-0.02009339 -0.09188019 0.29994842
0.40147096 0.52860701 0.17272198
-0.21950816 0.58843136 -0.10966410
-0.35572785 -0.41232195 -0.40936524
-0.27682969 0.06814906 0.05305402
-0.01066716 0.43998423 -0.36877164
-0.06880016 0.12674202 0.48493108
-0.49212882 0.59347594 -0.07532209
-0.01855440 0.22732571 0.50434303
0.25031084 0.51672733 -0.28189084
0.42895687 0.04426125 0.14220184
0.19122587 0.62550288 -0.21590912
0.05557759 0.62382436 -0.24801418
0.40174401 0.19755337 0.34198135
0.08106045 -0.80643141 0.07364879
0.09518565 -0.54216945 0.26750815
-0.37471589 -0.08823721 -0.23348859
0.00846976 -0.05352444 0.38767835
-0.13188002 0.64771199 -0.06920870
-0.51343048 0.52428639 0.00508136
-0.01975536 -0.27169538 -0.15109210
-0.31162271 0.41066277 0.14636588
-0.48880902 0.33823076 -0.06862608
-0.19952367 -0.42626610 0.14622371
-0.20447835 0.46286204 -0.26034075
0.40828645 0.01697148 -0.01592470
-0.30607128 -0.78622347 0.04072575
-0.24904913 0.02863985 0.01744046
0.29411042 -0.73411494 -0.05948512
-0.01921590 0.55077696 0.37151203
0.00129624 -0.32793021 -0.27648768
-0.12602332 -0.57507527 0.15943763
-0.44631842 -0.36854073 -0.03061931
0.15245025 0.55674565 0.37704936
0.23240188 -0.54328406 0.09802245
0.44441521 0.52719045 0.09886432
-0.06073690 -0.78049099 0.28429484
0.45816410 0.69427824 -0.12505962
-0.12582426 -0.27227286 -0.33352920
-0.29699737 0.60635567 -0.04042865
0.25800645 0.28063020 0.39206967
0.01472409 -0.79378724 -0.06727757
-0.14827053 -0.07338662 0.12467339
-0.01072942 -0.19860810 0.20618901
0.08085938 -0.12222126 -0.09361167
0.27710855 0.46562847 0.36946708
-0.35811922 -0.73923588 0.00867435
-0.28422618 0.19605225 0.23374274
0.47792822 0.39542824 0.15662533
0.12818177 -0.80702525 -0.18682775
-0.39114165 0.37330297 0.02084306
0.15035670 0.33114892 -0.38067120
-0.06676789 0.58538246 -0.25476304
0.31020412 0.21293385 0.40567276
-0.09628562 -0.80805391 0.18262686
-0.01681479 0.68537831 -0.09295230
0.07977040 0.65294498 -0.20782933
-0.32513684 -0.44906631 -0.41388133
0.28702450 -0.01253024 -0.19344971
0.23844166 0.56683362 0.34351781
0.35896257 0.81695026 0.00338605
-0.32836574 -0.24352267 -0.04107326
-0.31252921 0.51150799 0.04450214
-0.13071992 -0.49633723 -0.44324675
0.30974406 -0.32076117 0.09032559
-0.24975568 -0.80659145 -0.26903680
0.05035979 0.66786748 0.26279670
-0.06816047 -0.48877960 -0.42674917
-0.48695531 -0.31024179 -0.26316851
-0.07293984 -0.11239193 0.03714870
-0.34438568 0.49385345 0.01929243
0.22316687 -0.56579459 0.04955016
0.20832059 -0.34102169 -0.06878461
0.19689465 0.53902984 0.37933332
-0.31503394 -0.53947693 -0.38803810
-0.20818825 -0.80183649 0.11632139
0.09315113 -0.63450730 -0.15909135
0.23236591 -0.08070182 -0.10977247
0.07163623 -0.43651178 -0.20490694
-0.40927702 -0.08478971 -0.22385764
0.09413939 -0.12103263 -0.10339358
-0.23081821 0.03353605 -0.19761239
-0.27649817 0.00632882 -0.21632910
0.07393043 -0.29833320 0.33240423
-0.34909591 -0.67755044 0.09201162
0.28222567 0.58088332 0.29511559
-0.45803079 0.28662553 -0.03606094
-0.12357180 -0.39187318 -0.42928678
0.53565454 0.67876625 -0.06779591
0.00248061 -0.09263728 0.31322929
-0.34820902 -0.17148031 -0.35366526
-0.35054076 -0.76785523 -0.04617189
-0.04489989 -0.23545313 0.08186331
-0.01852081 -0.19737346 0.16599616
0.45585451 0.64657652 -0.14023332
0.34234449 -0.04398976 0.17620121
-0.11742245 -0.48644251 -0.44400954
-0.32976404 -0.22541684 -0.36475480
-0.35859045 -0.23081312 -0.17524964
-0.40466994 0.26448870 -0.17610839
-0.33682933 -0.08333144 -0.23682058
0.38830304 0.14918347 0.35991549
-0.20685446 0.59812361 0.14125967
-0.39149895 0.00958947 -0.25399315
0.38540256 0.00157787 0.16639918
0.01263910 -0.29930985 0.29810020
-0.01513693 0.12092560 -0.35032582
-0.12180269 0.48431560 0.37021917
0.31404191 -0.06343700 0.18021584
-0.24703717 -0.81188172 -0.20555270
-0.42130202 0.31414950 -0.16682877
-0.10481234 0.67606664 0.03143834
-0.07314068 0.08558338 0.46444717
-0.13744463 0.62675148 0.20386276
0.34706742 0.23002554 0.37060139
-0.26411006 -0.80297601 0.03572956
0.09868975 0.71328169 -0.01462879
-0.45423365 0.29528964 0.03881672
-0.16759720 -0.29616529 0.06316371
-0.44377339 -0.52501380 0.02687924
-0.29291651 0.07074060 -0.29212177
0.08365621 -0.31995401 -0.13814466
-0.20932490 0.59493721 -0.09063433
0.30114785 -0.28174922 0.10083933
0.33472657 0.38927770 -0.27614483
-0.16689114 0.57295448 -0.19089915
0.02870097 0.66208184 0.26711506
0.16845627 -0.80376142 0.04519194
-0.40959528 -0.66392434 -0.15843590
0.15491617 0.03339083 -0.30517176
0.20784989 0.05017285 -0.31155777
-0.28320667 -0.31397933 0.07259641
-0.28567880 -0.80712336 -0.17505677
0.45870951 0.85242701 0.06004534
-0.33518413 -0.49994183 -0.39631969
0.22456342 0.67550492 -0.13759521
-0.33617032 0.50346112 -0.19196218
-0.36156538 -0.48774636 0.12198900
-0.17219754 -0.04779069 0.20151196
0.24891807 -0.69291753 0.01559116
0.05705304 0.07667106 -0.34062618
0.07620339 -0.36764953 0.33855924
-0.28957063 -0.78160572 -0.26221868
0.17242233 0.46969363 0.41439277
-0.13092507 0.03895511 0.38543382
0.29055321 -0.27818859 0.05099651
0.16562408 0.71520948 -0.04101783
-0.35228288 -0.27465513 -0.42690679
0.22720994 0.08860552 0.47981769
0.29589841 0.23466738 0.39306447
-0.04084370 0.10412953 0.50048709
-0.03710885 -0.22449818 0.07548804
0.38832399 0.83821744 0.01863140
-0.25543556 -0.22623959 -0.25577396
-0.48017547 0.50912833 -0.13452363
0.04613720 0.08210050 0.49966753
-0.01722965 -0.19353639 0.04475436
0.23294634 -0.79956269 0.00108009
-0.23025972 0.45332748 0.30456406
0.52737236 0.53289688 -0.05706651
0.02886648 -0.30300727 -0.17287938
0.28493777 -0.24526554 0.16855496
-0.14246882 -0.06111062 0.03440161
0.29773703 0.57925779 0.28568125
0.39467821 0.61805630 -0.16842347
0.03785763 0.48710838 0.41891596
0.35388297 -0.04337464 0.05634969
0.13319068 0.26947317 -0.38811183
0.18708964 0.65608877 -0.17858359
-0.24311849 0.25015029 0.28657907
-0.03805227 -0.25374582 -0.06262752
-0.46535724 -0.26729959 -0.24143183
0.03205153 -0.81067395 0.05769594
0.46434328 0.12032475 -0.02783719
0.42137009 0.10241386 -0.13073999
0.02145093 0.66772640 -0.18409735
-0.01696802 -0.80232638 -0.12227458
-0.23747626 -0.26466855 0.00692283
-0.32666394 0.34188497 0.13138315
0.04340616 -0.73553401 0.29261965
-0.25452518 -0.21275710 -0.21233428
0.13899189 -0.18989317 -0.05378814
0.10660477 -0.01516281 0.44571522
-0.39784148 -0.00236032 -0.28007624
-0.26635462 0.39520949 0.28476873
0.11423028 -0.39203534 -0.15439451
-0.17321971 -0.24460036 -0.03637481
-0.32982719 0.22555742 -0.27117360
0.40710533 0.45866618 0.25286403
-0.01198444 0.02453860 -0.28647199
0.27832720 -0.18367641 0.11458746
0.26072222 0.68214643 0.14948359
0.49489197 0.58528847 0.07473575
0.00078099 0.62625545 0.29730362
0.39093018 0.58053154 0.10035338
0.41035607 0.40861443 -0.18521400
0.07220645 -0.43887588 0.32741213
0.11481170 -0.23134711 0.31947529
-0.45407307 -0.34828389 -0.08593976
0.25668681 -0.03921387 -0.17123522
-0.05851658 0.66036123 0.23487172
0.42767090 0.12122191 -0.13444297
-0.11369580 0.66916281 0.04324707
0.11507465 -0.81092244 -0.04925811
-0.10584620 -0.79970652 -0.13237120
-0.24481198 0.01783947 0.03317773
0.19055106 -0.06600036 0.34319484
0.27528408 0.13447160 0.46051350
-0.16622086 -0.80061793 -0.04529676
-0.02486350 -0.19569574 0.05384982
0.47425473 0.12487917 0.15613990
