-0.16734773 -0.61581761 0.37127772
0.17067747 0.13766389 0.27184498
-0.11024528 0.89903271 -0.27645904
0.19515765 -0.29257363 0.37374258
0.04098823 0.07677004 0.32621026
-0.35216644 0.05509561 -0.20867041
0.23223688 -0.70494789 -0.19590473
0.03284294 -0.70400262 -0.13131361
-0.17684460 0.34793460 -0.27949670
0.28911346 -0.69188899 0.10143706
0.11430200 -0.69082439 0.01101949
-0.31472486 -0.00795591 0.03043764
-0.37983271 -0.54387659 -0.07252757
-0.25370976 0.08979355 0.19744514
-0.36897516 -0.19815263 -0.15619978
-0.36857280 -0.59248346 -0.08954939
-0.16067939 -0.09548320 -0.30184388
0.27717647 -0.40484899 0.30772799
-0.34908348 -0.59083831 -0.26396486
0.10635951 0.73526937 0.08560811
-0.26770788 0.52086508 -0.23443514
0.21952674 0.52878016 0.06463458
-0.37453219 -0.30545589 -0.19845745
0.14849086 0.54161525 0.34231645
0.31296057 -0.34912971 -0.22691610
-0.08289213 -0.54315031 0.41739926
-0.34644327 -0.70111459 -0.06234813
-0.13335939 0.19509071 -0.30523583
0.33061528 -0.05557862 -0.11165974
0.35169432 -0.21380189 -0.13845880
0.00550959 0.17964175 0.32811290
-0.18890640 0.76157916 0.06614143
-0.25522327 -0.01755321 -0.31271851
-0.27664450 0.14077415 0.13783646
0.20774202 0.74104154 0.01852564
-0.33632442 -0.51977140 -0.25553539
-0.11102811 -0.24322754 0.39598277
-0.20372534 0.88336056 -0.21200773
-0.15510988 0.18972717 0.24462233
0.05097470 0.01331816 -0.30333087
-0.33052048 0.02760793 -0.06986701
-0.04591595 0.17854613 0.32094812
-0.11171734 0.14463568 -0.30828044
0.15196158 0.80717236 -0.28089258
0.33621758 -0.48198032 -0.17111914
-0.29414877 -0.67932326 0.21108176
0.22898562 0.08545294 0.24402368
0.35669053 -0.31858960 0.02227049
0.23645301 -0.44658977 0.34893450
0.22304821 -0.56904209 0.34479207
0.28038308 -0.40181088 -0.22378594
-0.06605032 0.18297328 0.32254294
0.03107731 -0.69081342 0.35897374
0.21696445 0.62737465 0.08348008
0.18481416 -0.70361012 -0.29557636
0.19236785 0.79942000 0.07257070
-0.21046329 0.41485232 0.26943666
-0.01128962 -0.60958308 0.42305046
0.22127137 0.49383378 0.23262268
-0.30127388 -0.62404209 -0.31268883
0.00506470 0.63703293 -0.28738707
-0.24953735 0.58292079 -0.28477868
-0.02023897 0.83984071 -0.27873304
0.21840487 0.54096055 0.04424418
0.01638138 0.48111540 0.35670605
0.07795566 -0.69918919 -0.25710332
0.00674861 -0.58815050 0.43025032
-0.36622488 -0.32830000 0.03262157
-0.35576633 0.02160214 -0.16733834
0.03668571 0.14172776 -0.30383235
0.28583106 -0.70032352 -0.17640257
0.23071170 -0.69693524 0.10686239
-0.01100726 -0.01259959 -0.31356156
0.20921566 0.32830071 0.07435047
-0.39163154 -0.45617300 -0.13018696
0.10003857 0.21680251 0.34850225
0.14840107 -0.67935121 0.15970725
-0.00934746 -0.71443218 -0.17785095
-0.17488407 0.85764223 0.08068585
-0.12598775 -0.70003027 -0.20154031
0.29746616 0.12222808 0.11689407
-0.14354290 0.63001674 -0.28675428
-0.07541858 0.70192218 0.14324239
0.02726530 -0.68586916 0.05998117
0.29701942 0.20063740 -0.05599993
0.17360409 -0.20713839 0.37114769
0.27288184 -0.37089017 0.30844051
0.11490191 0.30001187 0.42085320
-0.30655143 -0.56735504 -0.30001631
0.21603775 0.74955899 -0.05987488
0.10457420 -0.24667352 0.40826371
0.18501006 0.85559559 -0.26985368
-0.16459467 0.67172295 0.13314283
0.16559130 -0.23175263 -0.28209189
0.27447316 -0.66795421 0.16553372
0.34007326 -0.63292193 -0.02798972
-0.21729223 -0.69722158 0.13992542
0.30509642 0.05664672 0.01597501
-0.15130921 -0.20917371 -0.29722926
-0.03903318 0.95461643 -0.22753614
0.16114579 -0.69421726 0.22787967
-0.27307349 0.03650533 0.18031229
0.07070749 0.35090202 -0.29339442
0.21375167 0.73973805 -0.27743861
0.06078863 -0.69017202 -0.03627322
0.02030693 0.85654765 0.15914094
0.04895381 0.18943742 -0.30375126
0.07888413 0.61575329 0.29452193
0.21543401 -0.47638315 0.36996713
-0.34189361 -0.52188617 -0.23696667
0.13058622 -0.26672897 -0.27532607
-0.34557450 0.16497499 -0.27261877
0.27577171 -0.07519874 0.22545336
0.13382506 0.83102614 0.12121435
-0.33557546 -0.11560521 -0.28930372
-0.05683122 -0.70038098 -0.17994200
0.32186583 -0.69944936 -0.07751419
-0.03985637 0.70678765 0.20808570
0.01055417 0.87398785 0.15690027
0.01141134 -0.38690495 -0.29563087
-0.36828250 -0.22729632 -0.10454196
0.06375396 -0.63589871 -0.34556526
0.08582442 0.33227319 -0.29391178
-0.18039092 0.25179294 0.25534359
0.21106701 0.76699299 -0.28446010
0.20767321 0.36074942 0.02765676
-0.30506694 -0.29365063 0.18059053
-0.02977912 0.50456607 0.36330545
-0.24697967 -0.51622778 -0.30643466
-0.21272765 0.87789845 -0.16948852
0.04085959 0.64966923 0.33135271
0.10465968 -0.70160693 -0.29700142
0.05631828 -0.12373221 0.38527259
0.22843055 -0.70134681 -0.30609828
0.26431277 -0.27619004 -0.26595259
0.32971516 0.11770887 -0.20624675
0.02348170 -0.69924361 -0.26045021
0.10750243 -0.55629784 0.40980884
0.03765159 0.79198122 -0.28624740
-0.24447267 -0.18988496 -0.29268032
0.30254701 -0.16599742 0.07336402
0.33503765 -0.16908085 -0.23107275
0.00881574 -0.64631063 -0.35540193
-0.22016093 0.67420220 -0.00448860
0.21547347 0.27958462 -0.22943854
0.20478252 0.56738985 0.20378038
0.24220482 -0.12281388 -0.28099743
0.22745334 -0.48345667 -0.28186995
-0.20573846 -0.25991547 0.35678980
-0.18645632 0.55587721 -0.28656352
0.11464006 0.65151978 0.17648943
-0.27912682 0.13228840 0.15061715
-0.19804415 0.75931191 -0.27533683
-0.00193777 0.55308354 0.39401653
0.03078566 -0.69313484 0.39442253
-0.18999083 -0.68612403 0.21301414
-0.28737220 -0.12271300 0.20580298
0.32613966 0.16929275 -0.08423541
0.03080670 -0.12666991 -0.30213398
0.19877720 0.08873366 -0.29339767
-0.28167778 -0.00019555 -0.30199683
0.12937516 0.52796686 -0.28700379
-0.04391581 -0.57497561 -0.34760162
0.23710039 -0.30204007 0.35766068
0.19818835 0.55902755 0.22796230
-0.25778171 -0.63306552 0.27549234
-0.21793078 0.34431672 0.01728863
0.26732418 0.17108937 0.15829390
-0.22441165 0.54049420 0.01079595
-0.22152936 0.14973418 0.20862126
-0.27011496 0.56455535 -0.21670896
0.32430950 0.17757288 -0.22564209
-0.28530294 -0.66806972 0.23589896
-0.26309633 -0.42624843 0.31163868
-0.32089442 -0.64177948 -0.30959457
0.15736215 0.34627825 0.39328444
0.10620882 0.76819319 -0.28971139
-0.21714012 0.87709850 -0.11174335
-0.31346804 -0.10005593 0.12038910
-0.10090405 -0.21046469 -0.29698008
-0.26843092 -0.69786727 -0.01419718
0.23362117 0.70360500 -0.14919834
-0.02957043 -0.68907505 -0.08370183
-0.03992254 0.23105681 0.38753456
0.14054379 0.19145434 0.28303930
0.10122814 0.84342849 -0.28483886
0.01047939 -0.63908708 0.42031157
-0.02371778 0.36570969 0.42453480
0.11309738 -0.69650280 -0.11991352
0.15326650 -0.69261622 0.32319665
0.09974702 0.08543403 -0.30029014
-0.05646361 -0.34284705 -0.28413773
-0.08293919 -0.22303942 -0.29860196
0.22128907 0.24007177 -0.29149529
0.10347100 -0.70995611 -0.32506472
0.23164217 0.51343226 -0.13078173
-0.37674031 -0.34446800 -0.06111007
0.33984348 -0.07901934 -0.16060446
0.20700435 0.27996427 -0.15634528
0.13586694 -0.10704550 -0.29662576
0.19072153 0.89210993 0.01508494
0.17919564 0.35158870 0.37698674
-0.09254039 0.50309229 -0.29367369
-0.09301005 -0.08722943 0.36706012
0.03061160 0.95164818 -0.04834008
-0.21792746 0.74206656 -0.12657899
-0.34844887 -0.27024028 -0.04186941
0.30591226 -0.52708066 0.21421909
0.12454768 -0.69254220 0.15562315
-0.32834309 -0.47650737 0.20261481
-0.11115539 -0.70809734 -0.31815013
-0.10227050 -0.69747889 0.19467066
0.07061849 -0.70165843 -0.21281794
0.20181946 0.54309833 0.24123062
-0.28948739 -0.69855243 -0.02957357
0.07082914 -0.47852719 0.43087739
0.02773067 0.64340949 -0.29157618
0.02552594 0.74986839 0.14511794
0.34332737 -0.46356493 -0.14774647
-0.16443947 0.94903916 -0.12676735
-0.16940588 0.38556746 0.35914910
-0.02755177 -0.40634292 -0.30025017
0.00339829 0.89052039 -0.27744099
-0.21840578 0.84063518 -0.06796152
0.14730330 0.83485985 0.10419583
-0.36649340 -0.16901743 -0.16281420
0.29447147 -0.01674423 0.14797008
-0.29655144 -0.11663370 -0.29914618
0.02224811 0.71111184 0.22447479
-0.13915849 0.00759001 -0.30536327
0.13294390 -0.46064585 0.40930396
-0.09635569 -0.46612889 0.41199857
-0.16390885 0.19773450 -0.30730692
0.02620081 0.40775734 -0.29132661
0.13215262 0.58038008 -0.28632474
-0.21552035 0.52994680 0.19949469
0.21197379 0.25455642 -0.11851826
-0.26764712 -0.02021712 0.20845693
-0.11509506 -0.31581011 0.41392168
0.09559461 0.94789743 0.01547100
-0.21585388 0.81771904 -0.04449578
0.11247249 0.48103467 0.34186062
-0.36445239 -0.13857615 -0.14893299
-0.21069700 0.24393927 -0.00671482
-0.02041646 -0.44890857 -0.31364715
-0.15837383 0.52224743 0.30268598
-0.35505745 -0.37812281 0.12176132
0.02070669 0.59578586 -0.29023409
0.28763747 -0.70520580 -0.19214074
0.26202157 -0.56051892 0.27993852
0.11602846 -0.59991634 0.39852482
0.18920559 -0.51521766 0.39248618
0.32836589 -0.24426070 -0.24038711
0.00411940 0.95175505 -0.08097304
0.19279622 -0.25975698 -0.27862185
0.15077434 0.53415579 0.31534138
-0.20651579 0.52402490 0.23911093
-0.30008721 -0.37322539 -0.26432827
-0.01640630 0.43928936 0.38752213
0.15504542 -0.00899284 -0.29868683
0.20297498 0.27184066 -0.02497558
-0.30881339 -0.56491894 0.21780673
-0.34629807 0.13012432 -0.21607336
0.20574327 0.34359163 -0.12497428
-0.32203227 -0.16178292 0.11699117
0.03689120 0.43486547 -0.29448444
-0.18634279 0.32069629 0.34427294
-0.06456703 -0.38870478 0.42022598
-0.11354809 -0.68919200 0.07632078
-0.15378650 -0.69057786 0.33606794
0.18166864 0.87888312 -0.25233865
0.01186601 0.22710282 0.39084744
0.16747816 -0.51641423 -0.31374508
-0.11170282 0.35498923 0.40163997
0.20506643 0.32485259 0.16248776
-0.11302774 0.64652491 -0.28414312
-0.26302493 0.64019442 -0.21500164
0.19442734 0.91954982 -0.09062923
0.20291771 0.84790915 -0.22355336
0.35455215 -0.64067721 -0.21279714
0.30670014 -0.23846039 0.15744689
-0.11863105 -0.18297830 -0.30034652
-0.26365864 0.08311172 0.17786887
0.36784562 -0.47120970 -0.06020473
-0.21259984 -0.69355178 0.19195765
0.13257433 0.75268668 -0.28334597
0.07652219 -0.69531149 0.12833571
0.35156259 -0.31202969 -0.18772402
0.02967477 0.93085188 -0.26887599
0.18710698 -0.62295574 0.33294421
0.19842781 0.38776374 -0.19646209
-0.26186898 -0.64815849 -0.33549148
0.02277896 0.11269151 0.32014838
0.33818749 -0.02310453 -0.12279093
-0.37726417 -0.27481794 -0.12265933
-0.07040638 -0.69209528 0.33741751
-0.32061365 -0.14880711 0.04898567
0.16077490 0.27551940 -0.28923500
-0.22866350 -0.57634598 0.33583167
0.15781820 0.43639645 0.35841525
0.29149225 -0.24496460 0.21851528
-0.21814854 0.75343120 -0.07614817
-0.15717369 0.28897059 -0.29389048
-0.19151799 0.94444108 -0.19253424
0.35395834 -0.50310415 0.04206099
0.05019301 0.63498694 0.37533230
-0.02023117 -0.69693774 -0.28542021
0.08466507 -0.07140270 0.36123031
-0.04575904 0.79894823 0.12450006
-0.24601234 0.78206390 -0.20470558
0.28326032 -0.00058082 0.18822180
0.13235806 -0.41069543 -0.28624409
0.25852048 0.05815536 -0.28668165
0.21535061 0.73385024 -0.05870962
0.19432092 0.17871821 0.22400279
-0.19777513 -0.09117053 0.31009489
-0.21372578 -0.56603694 0.34262151
0.11544596 0.95692259 -0.08082715
-0.20936728 -0.04670432 -0.30364087
0.04675803 -0.06519507 -0.30138278
0.13388190 0.64788574 -0.28627455
0.10184750 -0.66210425 0.41659644
-0.19344477 0.43237555 0.31324548
-0.08743048 -0.68362993 -0.36310053
-0.28715339 -0.71396118 -0.09818792
-0.38427314 -0.38962835 -0.08486232
0.24879347 -0.25032252 -0.27094916
0.30738792 0.10846655 -0.04995175
-0.03738083 0.67560136 0.26537669
-0.36901981 -0.55035800 -0.11308567
0.33076099 -0.16545987 -0.03093950
0.19283542 -0.68802625 -0.05858144
0.10682518 -0.63449931 0.40471074
0.26365149 -0.69686604 0.12818290
-0.08879843 0.85172302 -0.28245711
-0.31880060 -0.40515274 0.21753049
0.21189654 0.37617838 0.26774490
-0.25641903 0.61348116 -0.19783568
-0.33211449 -0.28823057 -0.00836978
-0.34532595 0.02426427 -0.09677754
0.29508469 -0.40738338 0.27765882
0.30472419 -0.10633415 0.12576783
0.00797594 -0.68815786 0.06784518
-0.36408520 -0.63819790 -0.10536455
0.20756507 0.34418541 0.23490696
-0.14084485 -0.10926948 0.35162991
0.17784990 -0.14984483 -0.29320291
0.09083710 -0.68995821 0.03074216
-0.05523134 0.13309401 0.30261350
-0.03104813 -0.38376707 -0.29549259
-0.30015129 0.15085027 0.08860424
-0.07062068 -0.12606385 0.37943956
0.30011767 0.09892761 0.00274646
-0.14146465 0.42286620 -0.28803307
0.15075473 0.54281890 0.31836811
0.05736865 -0.26449144 -0.28905314
-0.25192770 -0.15034619 0.27355835
-0.03589473 0.42349017 0.39097369
0.18151057 0.63985908 0.15424252
-0.02239366 0.76116753 -0.28217593
0.19612911 -0.21825165 0.36014232
0.01748176 -0.68362832 0.00100029
-0.25718933 0.64197695 -0.14477067
-0.20351246 0.39517054 -0.22928920
-0.02375769 -0.54288870 0.42789915
-0.20961601 -0.35463020 0.36679825
0.33965918 -0.13666862 -0.16700736
-0.00310069 -0.48636204 0.43528351
0.09467399 -0.04381995 -0.30021209
-0.10011814 -0.37616336 -0.29242161
0.13578501 0.30328208 0.41322508
0.05400054 0.90973908 0.12784196
-0.21715213 0.25469202 -0.11743809
0.11198093 0.59581220 0.23245397
-0.21140277 0.33533075 0.07066590
0.09907307 -0.70366567 -0.22450301
-0.31520644 -0.46304774 0.23268561
0.23175623 -0.70293063 -0.26326472
0.18094954 0.39792493 0.35673717
0.19390564 -0.68737221 0.11351956
-0.22471808 -0.24367285 0.32481089
-0.04236083 0.41793674 0.39001438
0.20808098 0.82872385 -0.08830187
0.36172727 -0.46219420 0.06910009
0.32426357 -0.62485409 -0.29669106
0.13699849 -0.19403109 -0.29062355
0.00325491 0.10750603 0.31983322
-0.19344938 -0.34205016 -0.27608192
-0.00635241 0.35607383 -0.29917681
0.13954984 0.95021540 -0.24127388
0.04387593 0.67723930 0.27829942
0.36354750 -0.33606371 -0.08713771
0.16808961 -0.68515879 0.31066334
0.06978123 0.72516489 0.13025208
0.30624878 -0.00639993 -0.27290642
0.03905068 -0.69742119 -0.11917681
-0.31721804 0.24325606 -0.22863010
0.26682320 -0.25018439 0.30879456
0.13243605 0.56490648 0.29125953
-0.21808022 0.61618257 -0.02457449
-0.19352087 -0.02370128 -0.30613512
-0.01659368 0.51659763 0.37269887
0.00395597 -0.49825525 -0.32174927
-0.38046867 -0.32969752 -0.12381826
-0.31908795 -0.35978404 0.22143333
-0.13228242 0.30380794 -0.29712385
0.28489417 0.24257274 -0.23513392
-0.27831206 -0.45891750 0.28781772
-0.11464172 0.24026442 0.35900149
0.05602902 0.30727357 0.43081501
-0.25040036 -0.10879970 0.26525339
0.07812791 0.82707524 -0.28544098
0.10483029 0.70377356 0.12386597
0.20668940 0.47740626 -0.25380903
0.06342565 0.91551989 0.11585570
-0.20585896 0.29142082 -0.25532264
0.32565132 -0.02465567 -0.23016584
0.25201347 0.55259120 -0.16659106
0.01948793 0.94842875 -0.04591118
0.09940252 -0.01545553 -0.29867104
0.08825604 -0.68629831 0.08879089
-0.21781951 -0.32798910 0.35631353
-0.36924049 -0.35251957 0.05802428
-0.36708954 -0.64479375 -0.19016100
0.12850207 -0.69558150 0.05313163
0.21757832 0.72253454 0.03991304
0.03770618 -0.69404107 0.10842481
0.27885857 -0.20857278 0.27271777
-0.05882866 0.54589564 -0.29076192
-0.29905528 -0.69690424 0.13392416
-0.25711924 0.72074795 -0.25784412
-0.12810729 -0.12811264 -0.30358365
0.31149420 -0.08958356 -0.26554298
0.09773436 -0.68611002 0.36715502
0.18981184 0.23525357 0.22475448
-0.03375031 -0.68946874 0.18099681
-0.12217461 -0.32520631 -0.28740031
-0.35746151 -0.32303020 0.03368574
-0.10951997 0.94645530 -0.08427711
0.30504626 -0.29092604 0.17101848
-0.12051191 0.58088195 -0.28674939
0.33399141 -0.53027505 -0.20503244
-0.01440648 -0.57798213 0.42786387
-0.26862308 0.16935799 0.10903898
-0.02391348 0.80176044 0.12551871
-0.10850564 0.68043286 0.15132159
-0.38325045 -0.40224916 -0.06764898
0.21329091 -0.60720545 0.32456744
-0.26214898 0.69079322 -0.19287388
0.02383224 0.72238636 -0.28604680
-0.28624061 -0.24679404 0.23552006
-0.37334904 -0.29273543 -0.20573466
-0.34431487 0.01659065 -0.08337805
-0.11649944 0.87040514 -0.27943626
0.15394086 -0.05906959 0.33998677
-0.23954313 0.27563435 -0.22311154
0.15586048 -0.12552842 0.35677767
0.32127905 -0.12770855 -0.24327397
0.21276781 0.40671274 0.06114832
-0.17220785 -0.46462858 -0.31206533
-0.35538942 0.00482611 -0.20965087
0.32179481 -0.01452430 -0.24089113
-0.03112108 0.73802483 0.16394536
-0.21107209 -0.20000482 -0.29541105
-0.07439726 0.82628244 -0.28022373
-0.02501355 -0.70050514 -0.20032252
-0.14217514 0.24653178 0.35281622
0.25437200 -0.69771719 -0.16098461
-0.13992003 0.88326401 0.10484913
0.21848170 -0.69337982 -0.11634512
0.01860078 -0.63621223 -0.35585669
-0.05474776 0.62942386 0.34642440
0.03774934 -0.07841612 -0.29805562
-0.11734321 -0.70757425 -0.28444406
0.06954853 -0.38241839 0.41451252
0.11450822 -0.68553203 0.35831657
0.33103710 -0.31788006 0.14418033
-0.12708709 -0.30706200 -0.28589004
-0.24704531 -0.45977950 -0.28373989
0.02069107 -0.67469782 0.41681355
-0.01531835 0.30420926 0.43254146
0.24316593 -0.68847698 0.02824471
-0.35487655 0.13404498 -0.18389401
0.21331917 0.68910253 -0.03989928
0.22292197 -0.58890361 -0.32746378
0.26973292 -0.69436884 -0.03057812
-0.17033753 0.13280536 -0.31169820
0.05754919 -0.21892837 -0.28973833
0.18855381 -0.68854851 -0.04836451
0.32140872 0.19038899 -0.09653276
0.09676578 -0.69244212 0.29840624
0.22440207 -0.00462884 0.27388474
0.05638720 -0.69274503 -0.06053383
0.12768529 -0.67625499 0.35645184
0.21822828 0.60770297 -0.04107193
-0.29167521 -0.00192910 0.14909983
0.22576497 -0.04326694 0.28934777
-0.26402545 0.65716648 -0.23538384
-0.26311755 0.59392077 -0.20975608
0.30344012 0.00825067 0.06597525
-0.31581658 0.08040477 -0.03826343
0.27562246 -0.70149773 -0.16392057
-0.08847871 0.46212316 0.35579318
0.08849682 0.67008138 -0.29222322
-0.24218711 -0.22380888 -0.29924256
0.02013489 0.92927527 -0.27343178
0.16685484 0.45367301 -0.27441305
0.30632764 -0.13378704 0.07736501
-0.10026925 0.21284834 0.33300102
0.18925600 -0.03150782 0.31672069
0.11567613 -0.24945229 0.40369913
0.32990986 0.01920922 -0.21708250
-0.22714284 -0.10425009 0.28688085
-0.14604226 0.37358624 0.37626857
-0.11272943 -0.68345928 0.12324701
0.33059031 -0.51494527 -0.21460211
0.09845717 -0.32519868 -0.27666956
-0.26726615 0.18905963 -0.30301651
0.17606662 -0.47841150 -0.29996008
-0.15477401 0.31047422 0.39171034
-0.20926668 0.25690216 -0.02559230
-0.20476013 0.25881755 0.01821534
-0.26927370 0.25721228 -0.21329051
0.19801652 -0.05853023 0.32096723
0.13809018 0.95303571 -0.21104711
-0.17451416 0.94581038 -0.08629490
0.11265411 -0.69358230 0.05282049
0.24782293 -0.34611967 -0.25026989
0.19172296 0.37369937 -0.22924569
-0.20337403 0.34490669 -0.19917233
-0.22429009 0.15789260 0.20465197
-0.22846952 0.52242231 -0.09823202
-0.13734438 0.94042975 -0.03162705
0.03685463 -0.70570886 -0.31460831
0.06558298 0.53205061 -0.28874013
0.18482105 0.81842899 -0.28017581
-0.06443415 -0.69421828 0.21033725
0.13438706 0.04116771 0.31906709
0.31247127 0.12222182 -0.06525893
-0.31972709 -0.27920282 -0.00642318
0.13717139 -0.70665318 -0.25290710
-0.23544547 -0.52905798 -0.31211090
-0.07368870 -0.70669794 -0.34792581
0.26579526 -0.32008442 -0.25264630
0.30238536 -0.49836451 0.25002801
0.09493202 0.14278981 -0.30032957
-0.18247728 0.20756288 -0.30933452
-0.04231369 0.88515770 -0.27939081
-0.08036591 0.30869517 -0.30515566
0.00802294 -0.70322895 0.19962472
0.34766415 -0.24281058 -0.19229020
-0.18280150 -0.50268048 -0.32069126
0.00959534 0.94698930 0.06173887
0.17923710 -0.27778634 0.39237669
-0.25575614 0.64002711 -0.17685997
0.06963341 0.64757669 0.27598929
-0.03961903 -0.19610906 -0.29589722
-0.17091382 -0.70352918 -0.24423969
-0.11425174 0.15452011 0.28269750
-0.03925786 -0.46438956 -0.31780675
0.18047330 -0.68691987 -0.09393138
-0.20538495 0.14727725 0.23314080
0.11780437 0.94837099 0.00348837
0.29274833 -0.18585494 0.20974122
0.31739008 -0.54907131 0.12790826
-0.13333595 0.83736020 -0.27946112
0.11380851 0.34460759 0.41577706
0.22159420 -0.38485485 0.36764377
0.11355330 0.10616469 -0.29988077
0.31665793 -0.32878840 -0.23155859
0.33510858 -0.08600217 -0.16111667
-0.22793913 0.82779336 -0.26326990
-0.35151929 -0.01119921 -0.26636919
-0.29214066 -0.22119382 0.22268847
-0.27578244 0.22311571 -0.30690962
-0.38184187 -0.41724306 -0.01326416
-0.05993223 0.69465250 0.17667024
0.15980895 -0.01796107 -0.30163515
0.01911511 -0.69289517 -0.02084633
0.31910536 -0.70206314 -0.22164240
0.12555172 0.56584746 0.32127547
0.05401227 0.93367898 0.10482994
-0.31147382 -0.03992368 0.10859007
0.20012920 0.88783824 -0.12044075
-0.16714957 0.26555523 0.32205877
0.19104239 -0.11848712 0.33634943
-0.02173631 -0.69057375 0.27944213
0.18305668 -0.69374257 0.27700585
0.11646447 -0.15223023 0.38068199
-0.25539616 0.22202557 -0.04345268
0.21834134 0.50659597 0.02667677
-0.13915618 0.87452030 0.11174154
0.03862974 0.60758239 0.40235889
0.11450063 -0.32036254 -0.27188081
0.04225865 -0.37181252 0.42311153
0.21752834 0.53994858 0.01203955
-0.18536270 -0.58398658 0.35901740
0.00178168 0.69325608 -0.28369132
-0.31247032 0.13046342 0.05479680
0.06125077 0.50668603 -0.29526293
-0.01194114 0.83199370 0.15182677
0.10510761 -0.69477665 0.04427914
0.22157696 0.53378212 0.10371886
0.14712033 0.26299161 -0.29128721
0.19550088 -0.45745295 0.38307300
-0.10310724 -0.69359607 -0.22674587
0.32680726 -0.46083128 -0.17425361
-0.01592033 0.29081100 -0.30107072
-0.07301362 0.67579007 -0.28793499
0.12626852 -0.35970423 0.42125615
-0.36724982 -0.55010790 0.02685930
-0.21847494 0.54143393 0.06455515
0.14838248 -0.69491339 0.30299941
-0.24210961 -0.40515983 0.33778721
-0.17787437 -0.69312626 0.02985642
0.22999156 -0.43869001 -0.26084983
-0.10301059 0.00524312 -0.31151661
-0.24705954 0.15694517 0.16501969
-0.25951859 0.60940170 -0.23199385
-0.12948591 0.56730199 0.32924959
0.01783586 -0.71675104 -0.19706269
0.00990986 -0.04635176 -0.30718929
0.14169955 0.95063990 -0.05831434
0.15597524 0.61234975 0.19672835
-0.21480760 0.78387207 -0.06857021
0.34527907 -0.59233171 -0.10629894
0.18146017 0.65979278 -0.28161800
-0.33995423 -0.70159918 0.03249750
-0.20855729 0.60067296 0.16968708
0.32152942 -0.56219476 -0.25254482
0.14153205 -0.69090015 -0.34919724
0.35787261 -0.33787072 -0.01035355
0.33618802 -0.04954678 -0.13468756
0.30525726 0.02972339 -0.00219713
0.31881028 -0.65083712 0.02515357
-0.35326877 -0.34659201 -0.24065560
0.03410891 0.86352116 0.15781528
0.19176847 0.21931648 0.19641711
0.31690368 0.00244646 -0.04993127
0.29846311 -0.16312447 0.18696380
0.26263300 0.25246289 -0.23879960
0.23260385 -0.34013018 0.36217448
0.16203478 0.79216939 -0.27950448
-0.19063450 -0.69104469 0.23709440
-0.03174421 0.78616434 0.12381582
-0.20656407 -0.46328056 0.37458751
0.04120583 -0.69571316 -0.21770877
0.20876911 0.34941533 0.19739458
-0.17190160 -0.33599803 0.39204198
-0.34274840 -0.53607947 -0.24227834
-0.06653234 0.06669433 -0.31288129
-0.05435932 0.33040768 -0.30320215
0.30157721 -0.17728710 0.03333277
0.06451933 0.79426229 -0.28934559
-0.38745183 -0.44603288 -0.12970227
0.21090491 0.32358402 0.13488570
-0.06945381 0.22034048 -0.30679470
-0.07014144 -0.69487244 0.32117566
-0.18117459 -0.16737032 0.34306815
-0.26060182 -0.61874747 0.28441668
-0.26338574 0.11016721 0.17664777
0.20699844 0.33485013 -0.09951180
-0.03034308 -0.31869596 0.43559092
-0.03492599 -0.64799792 0.41242117
-0.25393382 -0.39798057 0.33213711
0.06957307 0.58769035 0.39973357
0.13616844 -0.28256232 0.40586701
0.18372843 0.92606080 -0.02622872
0.16459483 -0.31644917 0.40345502
0.08193392 -0.69184208 -0.11519857
0.15979233 0.62758905 -0.28030697
0.28769219 -0.52180254 -0.26724735
0.18931411 0.88405615 0.03438374
-0.38662279 -0.38940728 -0.10271281
0.10324389 0.58000684 0.36514065
-0.35420889 0.00426901 -0.24300805
0.30956736 -0.15890571 -0.25431618
0.30845407 0.13903190 0.02819397
0.08731253 -0.69569337 0.27560100
0.17342559 0.81795502 0.09143816
-0.13877515 0.93995714 0.04369709
-0.20674331 0.32191795 0.21101531
-0.11365153 0.63379753 0.20615467
0.21622436 0.60482550 -0.27962065
0.20572773 0.81875360 -0.16016431
-0.05805771 0.20221907 0.34753340
-0.15306379 -0.71197587 -0.12778187
0.22341205 0.64617908 0.10042431
-0.21896768 -0.56878144 0.35297933
0.30190957 -0.07837643 -0.26922870
-0.36671633 -0.30047691 -0.04258401
-0.08264347 -0.10834630 -0.30397856
0.10185144 0.85642201 -0.28769803
-0.17483497 -0.62228394 -0.35305518
0.16452648 -0.10236567 0.34905294
-0.34687740 -0.06783724 -0.05654200
-0.24603285 0.27131176 -0.24311590
-0.31670192 -0.04846627 0.01769989
-0.20234460 0.29985714 0.24114862
0.34878737 -0.31152177 0.05186551
0.31435490 -0.33233929 0.18691200
-0.24383864 -0.62858486 0.30138871
-0.21646662 -0.69163465 -0.09283459
0.20466894 -0.44814545 -0.27519318
-0.17837024 0.04289494 -0.30400681
0.12458189 -0.29679888 0.41717267
0.05615176 0.95318240 -0.10680175
0.23738378 -0.37752843 -0.24219069
0.08949377 -0.68834037 -0.01266385
0.11760934 0.57349843 0.30972764
0.30873904 -0.69467610 -0.30961269
-0.30212173 0.11497973 0.08933856
0.02192958 0.94843900 -0.24294272
0.20375837 -0.15336427 -0.28957048
0.34008959 -0.62504834 -0.04259931
-0.11355095 -0.56016982 -0.33779281
0.26295564 -0.57165039 0.25826606
0.35743898 -0.48656291 0.08205552
-0.31851116 -0.59277356 0.17809418
0.21490622 -0.44116181 0.36641255
-0.13876648 -0.14574391 -0.30154389
0.33514231 -0.51910031 -0.20449600
-0.15776610 0.45871931 -0.28198072
0.27915868 -0.69640052 -0.01677171
-0.10190630 0.42168120 0.37987533
0.01049883 -0.03590420 -0.30491742
0.35214517 -0.64650249 -0.13182846
-0.28224313 -0.69447881 -0.01916682
-0.16666554 0.94061369 -0.24827769
0.20619431 0.79386252 0.02606741
0.35585353 -0.49529600 -0.00446526
0.14836575 -0.65842897 -0.34597403
-0.36133546 -0.61433107 -0.23082063
0.33909529 -0.60989541 -0.01628333
0.34487507 -0.24114701 -0.03170610
-0.21907391 0.59187746 0.04614916
-0.13928761 0.49998111 0.32855895
0.20965374 0.28379613 0.09636179
-0.11521479 0.51260233 0.33826169
0.32951295 -0.30076835 -0.23200098
-0.34980512 -0.62354910 -0.27642128
-0.11477955 -0.69067186 0.16716731
0.17845799 -0.33870912 -0.26334721
-0.06537353 0.36316860 0.41762158
-0.01320590 0.71254033 0.22489846
0.27361286 -0.25239778 0.27175042
-0.05493094 0.11056019 -0.30837834
-0.32982582 -0.25398460 -0.28019118
-0.03427761 -0.68667197 0.11059726
0.10910984 0.95050097 -0.18423945
-0.05575870 -0.33355868 0.42894030
-0.26693410 -0.37878478 0.30829704
0.33050117 -0.21661142 -0.00631894
-0.23485713 -0.57222682 0.32211328
-0.23094013 0.51236701 -0.28339428
0.34315252 -0.30733031 0.08701243
-0.11849298 0.57497990 0.31913912
0.36019853 -0.39072859 -0.16308810
0.08823875 0.60036719 0.34267223
-0.08390740 0.43678457 0.37092218
0.11620910 0.60881829 -0.28378776
-0.20579250 0.24384822 0.01427296
0.08092807 0.61965072 0.26981783
-0.06900205 0.89254665 0.13677752
0.11552141 0.94974101 -0.22825876
0.02561988 -0.45802081 0.44064447
0.29585570 -0.28820431 -0.25306019
-0.10025109 0.94274688 -0.23916548
-0.34269610 0.23651361 -0.24804643
-0.26611575 0.63195002 -0.23794252
0.05013870 -0.58279258 0.42758986
-0.01900241 0.94908243 -0.15813158
-0.37736842 -0.36488998 -0.00837104
0.01703019 -0.69956923 -0.14006899
-0.01521850 -0.69317943 0.20927338
-0.01888234 -0.69652075 0.37343544
-0.35229814 -0.70641506 -0.20932224
-0.20722161 0.65620703 0.12186725
-0.21551208 0.77593172 -0.00745935
-0.15239586 -0.68629444 0.20045127
-0.31023240 -0.24478325 0.14955366
0.09202357 0.21565479 -0.29267919
-0.35928321 -0.32874569 0.07201914
0.24671234 -0.15570739 0.30171314
0.09806692 0.66416848 0.15729536
0.23712513 0.58888847 -0.27838385
0.34063235 -0.61813086 -0.24872261
0.20552638 0.27189064 0.07319710
0.21852492 -0.22963992 0.34726137
0.24299249 0.57429385 -0.22757128
0.21979940 0.71758014 -0.13665546
0.00360161 -0.69621873 0.12327996
-0.26199839 0.18029670 0.08887056
0.01876370 0.95007080 0.00046450
0.22201841 -0.25987929 0.35523406
-0.35782868 -0.59517014 -0.00036307
-0.08242228 -0.00716107 0.34858823
0.21819648 0.67247885 0.08463183
0.34604532 -0.35677564 0.11863482
-0.09611870 -0.44452614 -0.31228441
0.22408183 0.22024524 -0.01297290
-0.18736544 -0.68422234 0.09786443
-0.07271165 -0.02910128 0.35857713
0.36379996 -0.36573043 0.03002943
0.03566833 0.68296981 0.26298216
0.32158145 -0.34263945 0.18770634
0.34809622 -0.50926059 -0.11376990
0.02259649 0.95525360 -0.09515838
0.08349039 -0.66079944 0.42133987
-0.19687784 0.22743605 0.14735949
-0.21566425 0.84794551 -0.11706619
-0.15166594 -0.24456978 0.39296892
-0.22179374 0.43294030 -0.10411464
-0.12034413 -0.20703331 0.38638324
0.35109180 -0.20493928 -0.09514076
-0.30952609 0.02200738 0.11127934
-0.21000133 0.51384699 0.23361947
-0.22328031 0.60849583 -0.08746098
0.31851822 -0.47682863 0.21442252
-0.21462645 0.35005611 0.18947181
-0.15883066 -0.24884021 -0.29399887
0.28955671 -0.68476129 0.09759969
-0.30801833 -0.70660454 -0.02966763
-0.29250047 -0.55316478 0.26360321
-0.32516146 -0.62513345 0.15045956
-0.35820451 -0.04923248 -0.19257998
0.31172699 -0.24398634 0.02800613
0.24985358 0.67007613 -0.16492146
-0.21515441 0.82168341 0.00766967
0.16312462 -0.64058220 -0.34198517
0.01916021 -0.06230815 -0.30229816
-0.17237560 -0.44665521 -0.31274936
0.07786047 0.54146552 -0.28965905
-0.21075605 0.47801134 0.24034148
0.15196244 0.76260501 0.08115952
-0.15373200 0.94956452 -0.18012029
0.20747648 0.68579280 0.09123227
0.12017086 -0.61873394 0.39231750
-0.10974792 0.94454867 -0.12261499
-0.13712037 -0.47597712 0.41243297
0.20920026 0.43000126 -0.13070010
0.30078116 -0.15363094 -0.25918362
0.21472445 0.43730885 0.21553507
-0.29681605 -0.70284820 -0.26685742
0.19448592 0.38558206 0.35616145
-0.26074228 0.11896162 0.17461252
-0.13982974 0.03741112 0.31443951
0.33888459 -0.30392116 -0.22003362
0.25429043 0.62425941 -0.17024373
0.03946575 0.36601526 -0.30021888
0.21100248 0.66285503 0.11482476
0.02969951 -0.08924021 -0.30578053
0.29365075 -0.52845669 0.23541600
-0.29909495 -0.67388940 -0.32306504
0.30861750 -0.14489126 -0.26196074
0.32221434 -0.33133486 0.18794754
-0.25902370 0.74316227 -0.22202736
0.04468675 -0.61039650 -0.34421936
-0.32200119 -0.09808497 0.04756324
0.11046232 0.29638407 -0.29285049
0.01601586 0.60699773 0.40970472
-0.32723758 -0.12058762 -0.01754293
-0.06929477 -0.69441581 -0.20873144
-0.12278781 0.01787682 -0.30745649
0.36683822 -0.41465640 0.00954114
0.35521537 -0.24733469 -0.08401886
0.11080339 0.94431740 0.01478411
-0.24495275 0.75579101 -0.18715836
-0.17346776 0.84662223 0.09527529
0.17947672 0.55523980 0.25234127
0.31883135 -0.70600414 -0.16696730
-0.15859519 -0.71280015 -0.29054749
-0.31338808 -0.07166460 0.09357356
0.27927455 0.14494607 0.15583177
-0.34604427 0.02339173 -0.08857127
-0.15234697 -0.64463747 0.36227137
-0.13429360 -0.69441247 0.03325516
-0.31678814 0.05280478 0.02300490
0.24826682 0.70490175 -0.19508019
-0.16564381 0.94745469 -0.08999455
0.17373924 0.61538833 0.19030823
-0.20422404 0.22983764 -0.30724239
-0.36988184 -0.27616870 -0.08888830
-0.16989094 -0.39316189 0.39756420
0.21703123 0.73992348 -0.01490752
-0.35802275 0.00330728 -0.18960844
-0.13114543 0.86755925 0.11773218
0.28277346 -0.01316488 0.19321397
0.01061912 0.00984117 -0.30580616
0.20715016 0.30767870 -0.16316384
-0.02309294 -0.34601116 0.43285289
0.13311213 0.09554891 0.30129659
0.21765418 0.45802107 -0.00182322
-0.10913078 0.82427275 0.13239291
-0.21462379 0.78592861 -0.00698099
0.19690241 0.43441540 0.32493842
-0.12335487 0.57911575 0.26417971
-0.22464260 0.74059922 -0.27453139
0.00050311 -0.64894748 0.42097914
0.34239632 -0.29846117 -0.20871580
-0.03151181 0.94429970 0.08588922
0.28372192 -0.33975640 0.29071796
-0.26155207 0.50549901 -0.24276581
-0.08636490 0.03129885 -0.30750477
-0.36916384 -0.69097954 -0.15598226
-0.36690181 -0.65059257 -0.24295539
0.08690126 0.63178241 0.24132326
0.03492001 0.21937726 0.37911576
-0.36332130 -0.53027219 -0.16161881
0.06734096 -0.68974078 0.35186708
0.21631509 0.18797038 0.11826441
-0.12254717 0.31573406 -0.29752934
-0.04926120 0.40672791 0.40640756
0.04893795 -0.69056827 0.38740990
-0.04702076 -0.09455572 0.36154300
0.35757324 -0.63577354 -0.15916774
-0.13622122 -0.29295492 -0.28401083
-0.30834183 -0.25554883 0.01870321
-0.36404809 -0.38933659 -0.21749416
-0.05412402 -0.11458200 0.37525842
-0.10378262 0.80234027 -0.27698770
0.29037055 0.22476971 -0.09341149
0.18448092 0.92398530 -0.17920688
0.25724623 -0.57483006 -0.30932292
0.32655713 0.00211175 -0.05897018
-0.13209835 0.92305684 -0.27113041
0.30986914 0.00248985 -0.02029924
0.00342966 -0.47012526 -0.32068726
0.03350367 -0.15155277 -0.29839247
-0.01945243 0.21009779 0.36260602
-0.02994043 0.54306364 -0.28873429
-0.27135417 -0.37932253 0.29829699
-0.09379259 0.26806954 0.40187973
-0.21177389 0.91053385 -0.06699664
0.27040690 -0.01919252 -0.28524876
-0.12566863 0.26628149 0.38461438
-0.29371548 -0.70617825 -0.30293319
0.11131689 -0.70509011 -0.13730478
0.04991739 -0.31105548 0.42930111
0.06294598 0.68749428 0.20923707
0.12419818 -0.67767835 0.17946820
0.25170484 0.53337324 -0.15049616
-0.20878719 0.34503925 -0.06850506
-0.09126547 0.58946943 0.34223771
0.21754763 0.61089516 -0.09238084
0.21888536 0.48464766 -0.01479239
-0.34537539 -0.61242360 0.04829855
0.23969109 -0.67808902 -0.35055295
-0.20957096 -0.68997198 0.09977241
-0.34807494 0.09741828 -0.27619156
-0.19954927 0.44067034 0.31045303
0.14824414 -0.70702654 -0.30024385
0.33556595 0.03201529 -0.15951426
0.23407510 -0.69590002 -0.31275967
-0.20823364 0.43094400 0.27658403
0.20395815 0.29742759 -0.17316693
-0.36941299 -0.62251580 -0.20658776
-0.34724924 0.09264630 -0.16862722
-0.30835685 0.19299197 -0.02682141
0.08040207 -0.68179786 -0.35158241
0.15432735 0.55325294 0.30417931
-0.19725047 0.64465714 -0.28029612
-0.21133189 0.14432974 0.22721276
0.20500499 0.30061209 0.17407730
0.09376592 0.57538348 0.37947676
-0.32407406 -0.17095286 -0.00981746
0.34500954 -0.47633755 -0.14765520
0.10440669 -0.70111442 0.16573648
0.29686478 -0.19073302 0.18905836
0.08040789 0.59586132 0.36681908
0.03348544 0.74769294 0.15291896
0.05666167 -0.38015068 0.42187524
-0.27180296 -0.70488167 -0.11823365
-0.34589285 -0.49677438 -0.22770998
0.20078316 -0.32435322 0.38647047
0.24153537 -0.04867300 -0.28601128
-0.25816512 -0.02488537 0.22466554
0.32139996 -0.05671807 -0.02533492
-0.37434044 -0.25663349 -0.16328953
-0.17155284 0.21929610 0.24714701
0.20435463 0.28108212 0.15815029
-0.28024182 -0.65008652 0.23823094
0.30436954 -0.59916347 0.10028294
-0.20731078 0.32717133 0.23165241
0.17375290 -0.70014650 -0.33476055
-0.06023333 -0.20938915 -0.29904699
0.29905412 -0.22570395 0.18621786
-0.19894317 -0.01023504 -0.30775437
0.06554005 -0.24227700 -0.28812894
0.10849556 -0.66178805 0.38939518
0.08313593 0.95288706 0.02029999
-0.25693595 -0.70522648 -0.20681930
0.20013714 -0.68782550 -0.12401292
-0.18610352 -0.70829827 0.00024998
-0.19669452 0.11426409 0.25652346
0.13255054 0.04386903 -0.29621580
-0.37694129 -0.38064247 0.01753791
0.19472542 -0.28988492 -0.27290583
0.08182629 -0.34409958 0.42398077
-0.35255367 -0.57352465 0.01577615
0.33101222 0.02874766 -0.21735156
-0.22438161 0.70627350 -0.11964352
0.23983429 -0.68758726 -0.01268693
-0.19307156 0.25517958 0.17643167
-0.17163505 -0.70586956 -0.30607477
0.35062438 -0.57844764 -0.09069648
-0.21869704 0.62319040 -0.10832007
-0.35113141 0.00787252 -0.16274208
0.23100346 0.09784614 -0.28950197
0.13291568 0.56897515 0.30878928
-0.03412412 -0.71803570 -0.17822182
-0.29828277 -0.42797375 -0.24693415
0.26598555 -0.14295247 -0.27522418
-0.00063207 -0.70145851 0.21336773
-0.14952104 -0.71256024 -0.07483360
-0.05886246 -0.37529516 -0.29379201
0.31667536 0.07418757 -0.26313022
0.19784561 -0.51631331 -0.30564553
-0.34882131 0.14332455 -0.20375010
0.23007125 0.22283211 -0.02720873
0.24487703 -0.13877234 -0.28577003
-0.02436929 -0.58568031 0.42842132
-0.14194587 -0.68611217 0.08564475
-0.36408740 -0.67952245 -0.12943543
0.00974732 -0.55657762 0.42992833
0.32658377 -0.07981715 -0.24671191
-0.35930467 -0.57182187 -0.18739706
-0.33593130 0.07024723 -0.28379163
0.02373366 0.34094369 -0.29852745
-0.05066665 0.41846937 -0.30273023
-0.21064703 0.38412923 -0.18061960
0.21239665 0.84384114 -0.20238578
0.14467672 0.55935359 0.33860618
-0.13600138 0.73664969 0.07907658
0.26813152 0.04524396 0.19624610
-0.34686670 -0.71258736 -0.18153839
-0.17958595 0.39190289 0.34959060
-0.23091184 -0.32460913 -0.28380272
-0.36897573 -0.18281704 -0.16306104
-0.11712077 0.83178085 -0.27559832
0.31873366 0.23004818 -0.20864338
0.34851396 -0.59751856 -0.06910760
-0.30910328 0.00773256 -0.29986754
0.26975474 -0.69534898 -0.14927971
-0.07727349 0.36308628 0.41213396
-0.15642080 0.51193047 0.30871022
-0.22153996 0.74982560 -0.00527817
-0.33276847 -0.31813928 0.15190530
0.10960112 -0.68856347 0.12691166
-0.24042624 -0.69707018 -0.01469547
0.36517942 -0.36484030 -0.09724091
0.09319054 0.33576289 -0.29337737
-0.20699161 0.26869538 -0.08663978
-0.21715230 0.39152139 -0.14921719
-0.26177529 -0.09333108 0.24120329
-0.21330312 0.36899209 0.08259874
0.21854259 0.48992074 -0.00515049
-0.35600677 -0.46856326 -0.19869576
0.17540239 -0.51269215 0.39703783
0.26598907 0.01109385 0.22644655
-0.08591258 0.20368569 -0.30960104
0.06155781 -0.69186491 0.23430932
-0.27230370 -0.25634488 -0.28674558
0.07952297 -0.16919693 -0.29527381
0.08210377 -0.69232690 0.17001268
-0.24200600 -0.69314462 0.22387937
-0.15261137 0.90697116 0.07048021
0.34573120 -0.34966803 -0.18985361
-0.28544644 -0.38128781 0.28361666
0.29805431 -0.29138958 0.18764035
-0.24186260 0.72758168 -0.14477938
0.20578815 0.32977757 0.23908867
0.03348199 -0.65607017 -0.35506061
-0.12216143 0.64250255 0.18492590
-0.35370317 0.03896711 -0.17369768
0.36162826 -0.38206625 -0.13352390
-0.19037460 0.45402619 -0.28016329
0.29621121 -0.01341143 -0.27973056
-0.08639356 0.54612780 -0.28966960
0.30756721 0.15255693 -0.04238891
-0.25017560 -0.69670719 0.09305579
0.11502404 -0.70940566 -0.32855350
-0.11720091 -0.26293930 -0.29303282
0.13724372 -0.62986034 0.36953503
0.22666661 0.20829105 0.03022388
-0.28599340 -0.49812400 -0.27970934
-0.25538486 -0.63133395 0.28704160
-0.23281612 0.20619714 0.03905303
-0.02678587 -0.11291181 -0.30728257
0.18376777 0.89145297 0.03842668
-0.22972180 0.45996758 -0.18693592
-0.17612426 -0.27325210 -0.28703889
0.27186158 0.21720529 -0.03158175
0.07822392 0.82120186 0.13215071
-0.25976571 -0.69652659 0.17713770
0.26442510 -0.69972473 -0.04291622
0.12518261 0.84835243 0.11795804
-0.36639678 -0.53985047 -0.13451298
0.17009734 0.86538464 0.07787742
0.18688847 0.20232108 0.22815214
-0.01359343 -0.50209212 0.43273148
0.23923540 -0.50641227 -0.28981933
0.06010677 0.87157869 -0.28469557
0.13011825 0.70045024 -0.28281066
0.36014548 -0.48532218 0.07227540
-0.27024379 -0.54089761 -0.31173724
-0.28352019 0.18398559 0.06629628
0.24562730 -0.27134031 0.33912936
0.29281828 -0.02474543 0.17282352
-0.34462997 -0.38635272 0.16554770
-0.26964501 -0.18057841 0.26299739
-0.01302591 -0.40573078 -0.30554521
0.09035155 0.44119745 -0.29296952
0.31081688 -0.04753175 -0.01981574
0.11105185 -0.68297172 0.10655291
-0.23819458 0.03998601 -0.30651942
-0.29641944 0.00989026 0.14070912
-0.37182686 -0.64280617 -0.15062310
-0.00186591 -0.04872020 0.36274824
0.20461495 0.27200794 -0.03742604
-0.31955132 -0.16315177 0.04593235
0.00808969 0.89006793 0.14741907
0.21013626 -0.68505299 -0.05878711
0.09110550 -0.28787115 -0.28171858
-0.20004877 0.30557930 -0.25471473
-0.20737028 0.30593759 -0.23186627
0.32729706 0.08517711 -0.11949104
-0.06851039 0.39683479 0.40563649
0.19549750 0.81499690 0.04141346
0.23692057 -0.69889653 -0.24850109
0.20842926 0.32601523 -0.08948424
-0.34604555 0.16086325 -0.19030577
-0.29785979 -0.10490176 0.17264594
-0.16484410 -0.68999708 0.25137240
0.33218265 -0.44396746 0.17342377
0.10643713 0.25626898 0.40029895
-0.03977011 -0.69133031 0.31110924
0.29474589 -0.58617908 0.12188669
-0.13277633 -0.70724988 -0.27758566
0.34693897 -0.26700544 -0.02940469
-0.28615347 -0.52330238 -0.29706997
-0.10709745 0.36235312 0.40177706
0.20926364 0.80533004 -0.26912692
0.33002615 -0.27877405 0.04524493
0.25865021 -0.69238961 -0.09194648
0.05026038 0.20203401 0.35717118
-0.26463917 -0.30604103 -0.27757651
-0.36084959 -0.57606602 -0.01660021
0.07612988 0.17506163 0.30244002
-0.21492563 -0.02395655 0.28071225
0.08356225 0.14309263 0.29992053
0.00890654 -0.69363707 0.04849418
0.08192091 -0.69539011 0.21363543
0.07143918 0.60484481 0.37344724
0.06018800 0.21250348 0.35617593
-0.31674990 -0.68875760 0.09823173
0.00161590 0.71422476 -0.28404188
-0.01697533 0.65568173 -0.28535235
0.30599487 0.04962713 0.06277379
0.07120104 -0.66822469 -0.35325241
-0.13654462 0.57818806 -0.29227167
0.25199679 0.17936051 0.10590608
-0.28598282 -0.68667519 0.17898791
0.07925966 -0.51081580 0.43058190
-0.11739708 -0.04244266 0.34310511
0.17052917 0.16162500 0.25046000
-0.09902473 -0.50617504 -0.32881415
0.17766635 0.24838632 0.28680748
-0.14046505 0.80167758 -0.27639094
-0.22035125 -0.65439963 0.30850062
-0.14425580 -0.11717938 0.35209745
-0.37494352 -0.41260368 0.03079952
0.03570471 0.44306403 0.39520910
-0.21710575 0.84160817 -0.11232011
-0.20869333 -0.59156513 0.33819017
-0.23983283 -0.15526626 -0.29511613
0.07728529 -0.04128586 0.35529217
0.31172878 -0.40847385 0.23393014
0.17363335 0.08702919 0.29082978
-0.23056579 -0.34036508 -0.27782845
0.18253130 0.11538439 0.27555090
-0.31385329 -0.06356995 0.07392898
0.09602199 -0.56611079 0.42136475
0.37069121 -0.37534106 -0.00949686
-0.06365647 -0.48411590 -0.32121447
0.24414529 0.66258883 -0.19457960
0.32834190 -0.52345151 0.15905388
-0.10991324 -0.06740886 0.35083169
0.15112375 -0.68873268 0.16031435
-0.18505110 -0.06236911 -0.30549714
0.06766798 0.66831017 0.23866890
0.31470403 -0.65967548 0.08358362
-0.04511552 0.61115134 0.37822244
0.28159413 0.23975430 -0.14757226
-0.33035880 -0.29442737 0.11725895
0.29459259 -0.43282950 -0.21842539
-0.27723894 -0.40967715 -0.27033982
-0.20077488 0.59477592 -0.28344080
0.08028962 0.46344984 0.36206725
0.29674056 -0.17995995 0.19000207
-0.09282533 0.53574449 -0.29143709
0.22498226 0.49892393 -0.11458352
-0.00208478 0.73379183 0.19035019
0.08291973 -0.41823208 0.42970890
0.29936999 -0.09526710 0.15211262
0.12096337 -0.69373411 0.30110088
0.03053496 0.18916842 0.32977298
0.34875911 -0.25485930 -0.08536936
0.23891279 0.71465319 -0.16273569
-0.31434467 0.17220099 -0.29577962
-0.04003408 -0.09697682 -0.30865866
0.19809452 -0.69597316 0.11247142
0.20968403 0.26446265 -0.18549962
-0.36587811 -0.31965590 -0.23642203
-0.02118130 0.83466846 0.14972958
0.10919613 -0.68645221 0.20373031
0.06786232 -0.70474958 -0.17262612
0.25139171 0.06962377 0.22477300
-0.20647521 -0.40950412 0.36534011
0.33277443 -0.39354742 0.16899472
-0.11253583 0.82379651 0.11765782
0.34845063 -0.54613972 -0.10872895
-0.08752842 0.18478259 0.31391034
0.28502053 -0.66389418 0.15296504
-0.37423256 -0.53203541 -0.00978587
0.00386925 -0.68785214 0.04443074
0.03010864 -0.36700118 -0.29035148
-0.03147276 0.54372513 0.39241415
0.07948488 0.01562934 0.33876815
0.20044492 0.21076801 0.10693154
-0.35881245 -0.03881085 -0.24609813
0.25580654 0.13903069 0.19576511
-0.03284671 0.00906858 -0.31475231
0.23710187 0.18648319 0.11755486
0.26096877 0.25154155 -0.17563270
0.35878536 -0.45814776 0.08239987
-0.16713455 0.42833111 0.33881524
-0.37101904 -0.70291656 -0.20674028
0.03294720 0.94208467 0.10058680
-0.08460076 -0.69726932 0.20671828
0.21055056 0.44844314 -0.16830471
0.28944224 -0.67071378 0.12702571
0.25617123 0.56448257 -0.15920304
-0.23972711 0.26724589 -0.29410142
0.28102291 0.08935312 0.17366399
0.27582183 -0.01347154 0.21093132
-0.27532440 -0.69748193 -0.06267241
0.31440774 -0.70518196 -0.12349984
0.00863389 0.80047303 0.12594789
-0.22387464 0.50747287 -0.01509468
-0.34788376 0.10649630 -0.27881190
-0.02613621 0.33733669 -0.29705098
-0.02012195 0.20754087 -0.30417231
-0.06530938 -0.24843168 -0.29697090
0.24959189 0.53714526 -0.13969983
0.21569552 0.70295078 -0.07709851
0.20294069 -0.12090990 0.33087930
0.29882425 0.16405495 0.08384338
0.08531084 0.45991948 0.36783159
-0.20598854 0.21965845 0.04782420
0.24667218 -0.70352548 -0.28748181
-0.01340196 -0.59493929 0.42856434
0.21606638 -0.51148254 0.36895117
-0.12884569 -0.47230279 -0.31784841
-0.09805878 0.17476410 0.29177949
-0.21103306 0.82571191 0.02288637
-0.22049521 0.45264590 0.04333485
-0.17043930 0.24717356 0.29038721
0.01968673 -0.06149504 0.36787963
0.19602972 0.46196046 0.30142707
0.01536162 0.64095008 0.35395086
0.30188769 -0.01313893 0.00745247
0.23618948 0.69761902 -0.26159599
-0.00710552 0.10779148 -0.30947903
-0.21371080 0.88283592 -0.06676269
-0.17735025 -0.69942391 -0.05747476
0.01914848 0.35218206 -0.29845837
-0.06751612 -0.69314307 0.22643162
0.28786492 0.23070988 -0.15163916
0.31389773 -0.36450222 0.23733425
0.18967628 -0.50485599 -0.30706355
-0.01895204 0.06802865 0.32267740
0.10835139 -0.32791132 0.42716309
0.26459414 -0.20295089 -0.26735669
-0.35261759 -0.51032627 -0.18622082
-0.06397120 0.48124549 -0.29240888
-0.37115118 -0.66943651 -0.18878619
0.35511380 -0.44427103 -0.14595525
-0.26692149 -0.48111176 0.30756256
0.13116819 -0.69356555 -0.02291523
0.07252406 -0.23545033 0.41320321
-0.10493107 0.53135931 0.35693625
-0.26739243 0.16111811 0.13271227
-0.29018506 -0.24022314 0.22680500
-0.34586897 -0.18680602 -0.27652296
0.30791074 -0.39021975 0.24415705
-0.13819708 -0.18130967 -0.29931346
-0.01281955 0.50916684 0.36553076
0.33916903 -0.23446041 -0.22112116
-0.27000499 0.00335809 0.20032956
-0.13093704 0.03686779 -0.30619827
-0.21779780 0.77700311 -0.13343160
0.13101375 0.30766881 -0.28849193
-0.17988196 0.81373566 -0.27722117
-0.33917430 -0.70905185 -0.08583756
0.31082407 -0.32849172 0.20472689
0.13097280 -0.69773901 0.04468609
0.14533834 0.54629236 0.34822708
-0.04519932 -0.19189391 0.39602003
0.32510507 -0.06686510 -0.03460921
0.36314136 -0.35077071 -0.11386012
0.28874543 -0.38036728 -0.23054308
0.19860543 0.89303041 -0.00809054
-0.11134336 -0.69727111 -0.06328684
-0.10627525 -0.04305106 0.35246193
0.21937746 0.62047273 -0.06822273
-0.16874759 -0.62162137 0.36187825
-0.25901666 -0.70367950 0.06367998
-0.38468754 -0.37880427 -0.06025302
0.31413925 -0.70240384 -0.24359128
0.21871921 0.15786049 -0.29409972
0.35899645 -0.36308622 -0.17386435
0.13433830 0.41556504 -0.28974012
-0.32176167 -0.16935608 0.10084635
0.08847877 -0.31272578 -0.27738154
0.10163747 -0.22731578 -0.28625795
-0.24401033 0.04851590 -0.30540445
0.09541150 0.95806193 -0.18009199
0.17352311 -0.31537634 0.39750439
-0.02893402 0.03988598 -0.31096688
0.20910716 0.22932300 -0.29369798
0.20451479 0.85333294 -0.01912489
-0.26106524 -0.18274277 -0.29436406
0.20378077 0.33959678 0.20802201
0.14320962 0.36694211 0.39170167
-0.14688143 0.83089465 -0.27821556
-0.13963559 -0.67318755 0.35778329
-0.15861785 0.04501785 0.30393395
0.24468309 0.51305801 -0.15075749
0.04165113 -0.70740527 -0.27989674
-0.13851115 0.05958966 0.31062442
0.33621991 -0.24050167 -0.23487610
0.16528541 0.70011872 0.10998935
-0.07426024 -0.28991577 -0.29078147
0.26218975 -0.04850753 0.25757962
-0.28912419 -0.02908565 0.17093034
-0.21318917 0.39081624 0.24631165
0.36573946 -0.36522150 -0.13422267
0.31188762 0.20297527 -0.07296444
0.18083227 0.86343390 -0.26039582
0.21706928 0.75136107 -0.04464559
0.33159199 0.10809515 -0.19850980
0.17962518 0.02391705 0.30352682
-0.25221607 -0.63144118 -0.33569935
0.13787612 0.95025867 -0.11201116
-0.20416643 -0.69110787 0.13160394
0.07966839 0.64136142 0.24471669
-0.17163667 -0.26576820 0.38029850
-0.26477331 0.49754870 -0.23122352
-0.37116760 -0.17646265 -0.20248416
0.23330788 -0.70208704 -0.28914291
-0.12861706 0.91152346 -0.28031459
0.32964256 0.10233257 -0.07487506
0.30284572 -0.21364427 0.17696062
0.20726365 0.19292462 0.11011412
-0.30376846 0.04798751 -0.30007601
-0.12325308 -0.66839677 0.36688539
0.07211439 0.56554437 0.38526598
-0.16413143 -0.52772659 -0.33318073
0.29736748 0.18922664 -0.29337612
-0.26364580 0.53470093 -0.17388082
-0.30465364 -0.21841696 0.18710211
-0.09372179 0.37857261 -0.29491749
0.04922366 0.02994756 -0.29900661
-0.20179747 -0.64068359 -0.34879917
-0.05649934 -0.68762058 0.02808706
-0.29858869 0.17629984 -0.29996997
-0.03612984 -0.60891432 -0.35096699
0.10389104 0.55838960 0.37815675
-0.30073106 0.08050339 0.10233386
0.06784203 0.91950577 -0.27747086
-0.01856173 0.79477030 -0.28403902
-0.12433380 -0.30957595 0.41103932
0.17286219 0.91801345 -0.26050970
0.21941803 -0.69462037 0.08304225
0.32253250 -0.54674047 0.10527772
-0.34986845 -0.46176088 -0.20252132
-0.08520248 0.77604520 -0.28951824
0.20820594 -0.23707345 -0.27865186
-0.20525679 0.26169145 0.06331845
