-0.21361092 -0.49412701 0.30262208
0.13768902 -0.76107520 -0.10121299
-0.67144120 -0.00796648 0.32125521
-0.11981663 -0.81995785 0.06831956
-0.47171780 -0.37601560 0.15707150
-0.09755591 -0.56215930 -0.36368921
-0.21476482 -0.22871558 -0.57769567
-0.44529030 -0.11568701 0.44289726
-0.12356727 0.35071871 0.51898187
0.51264757 0.03325309 -0.45057932
0.20483391 -0.56172830 0.22530234
-0.14271736 0.40465432 -0.46541172
-0.00829455 -0.03563238 -0.97746718
0.21198782 0.13717209 -0.64674896
-0.46116483 0.27076247 0.26616108
0.36986044 0.49239951 0.10717955
0.30494201 0.28639430 -0.40410024
-0.25704917 -0.63759518 0.11587308
0.23029871 0.50064260 -0.26682320
-0.33848202 -0.65222609 -0.04287383
-0.05991571 -0.64790750 0.29952759
0.04488519 -0.65896815 0.29183099
-0.48502696 -0.35558036 0.16294749
0.35153058 -0.23416877 0.40898472
0.43637812 -0.19976664 0.36589912
-0.15581003 -0.21716309 0.63248378
-0.39061031 0.35803548 -0.25071523
-0.55587536 0.22427933 0.21277583
0.21611908 0.21259157 0.55079013
-0.17632383 -0.51765084 0.31427452
-0.40782765 0.13041967 0.45986089
0.21187583 0.47541615 -0.30648723
-0.10469642 0.55587751 -0.34619290
0.08596655 0.22570245 0.67081821
-0.59196270 -0.32538980 0.08856663
0.30741933 0.35325289 0.31726632
-0.00141194 -0.18572867 -0.80559427
0.23320417 -0.32409868 -0.44414821
0.07631802 0.87930369 0.00080537
0.03872939 -0.34667143 -0.61391109
-0.21959472 -0.57120126 0.21753030
-0.76572835 -0.04609211 -0.20717549
-0.76658332 0.12956709 -0.11123610
0.44280428 -0.52391744 0.02266325
-0.80037379 -0.16746634 -0.06160624
0.21561781 0.17697431 0.59195274
-0.61907679 0.03943669 -0.35046130
-0.14601271 -0.59191006 -0.28535765
0.48284698 -0.28672224 -0.23322998
-0.18773083 0.09692414 -0.73027462
0.21482693 -0.33361399 -0.45937839
-0.25971943 -0.09862811 -0.67109311
-0.10244747 0.64908540 0.24849612
0.49073654 0.18494111 -0.32543498
0.51496249 0.08766034 0.37386361
0.11037765 0.35469559 0.51488733
-0.04191190 0.88368529 -0.08576020
0.27381060 -0.29446530 0.42467895
-0.23665521 0.63178289 -0.14102131
0.36741284 -0.03172503 0.61250472
0.47461510 0.48705646 0.01039213
-0.44993234 0.29294914 0.25671670
0.19777480 0.40639424 -0.38827252
-0.22808078 0.65041167 -0.12827753
-0.04314218 0.53302777 -0.42744759
0.02468448 -0.74946421 0.21763870
-0.29063940 -0.44966269 -0.27781302
-0.15202254 -0.54787481 0.30320641
-0.13317618 -0.04580804 -0.84834027
-0.02642234 0.15467338 -0.82633275
-0.04687615 0.47146806 -0.49390140
0.10312324 -0.75730026 0.14135791
0.62815577 0.23890975 -0.12187170
-0.57797450 -0.22553359 0.21666484
-0.50378335 0.19692366 -0.31105483
0.43471217 -0.28460833 -0.28442335
-0.64966077 -0.29556784 0.05813679
-0.11028588 -0.29427814 -0.61413234
-0.58756047 0.01581345 0.38953683
0.57834035 0.09821972 0.30617571
0.26664510 -0.56051475 -0.17301275
-0.39285722 -0.46038994 0.14765987
0.05878189 -0.39505634 -0.54946989
-0.61831695 0.22049959 -0.17638026
0.77570498 0.10183644 0.10911579
-0.37091583 0.30211788 -0.34682319
0.70932108 0.01319372 0.26370263
-0.37696287 0.58996236 -0.03677754
0.73269671 -0.24249929 -0.01263520
0.33573499 0.19263373 -0.46636027
0.13284817 0.58118892 0.26838997
-0.13145860 -0.06011343 -0.83482945
-0.18994214 -0.60822433 -0.21694089
0.28503338 -0.40032500 0.31424859
-0.66448283 0.06690261 0.26806241
0.48527527 -0.07094727 -0.44432324
-0.12280360 -0.71328384 0.17491135
0.30491322 0.59799600 -0.09271899
0.12431102 0.35798892 0.48966056
-0.01603864 0.23549703 0.73672771
-0.98052686 -0.01211897 0.02448888
0.05464022 -0.79504240 0.14398549
-0.55917156 0.13440932 0.30679604
0.45124260 -0.38319966 0.16410698
-0.42932701 0.33100122 -0.24034655
-0.41264707 0.42811155 0.15953490
-0.24264929 0.40431654 0.35133159
0.27864143 0.38900879 -0.32631913
0.05769350 -0.52754271 0.41069067
-0.28225532 -0.70001197 0.02402073
0.26037142 -0.26698861 -0.48254564
0.00409710 -0.43015257 -0.55921888
0.73128861 0.02155637 -0.24034177
-0.35042459 -0.53954870 0.12132514
-0.22069785 0.57377535 -0.21697651
-0.32722721 -0.05336569 0.62584734
-0.52992463 -0.17159346 0.30468839
-0.05597095 0.22077924 0.72222477
-0.36919484 0.47010496 -0.16889493
0.21532923 0.32335967 -0.45439208
-0.57389396 -0.07010089 -0.37744540
0.71276027 -0.11022367 -0.18036777
0.34075239 0.31374499 -0.33655202
-0.29086152 0.45940244 0.24660386
-0.60927236 0.32106206 0.06039456
-0.45542377 0.50693864 -0.04430879
0.17539351 0.35742286 -0.45847332
-0.40133449 0.52878320 0.06441750
0.69551152 -0.02248448 -0.28316101
0.33030927 0.18255031 -0.48112169
-0.35667768 0.34652990 -0.30376953
0.11673192 -0.48533601 -0.40104154
0.35237864 -0.57774585 -0.07242770
-0.59913903 -0.11206520 0.30334306
-0.33259574 -0.00305673 -0.66027248
0.23187891 -0.17387410 0.58311170
-0.45064777 0.07283223 0.47433069
0.21971826 0.44349977 -0.32942989
0.10661776 -0.51798159 -0.37495777
-0.04878024 -0.66553247 0.29197869
-0.08733458 0.16994047 -0.75050068
-0.15359487 -0.29970708 0.54806995
-0.54977840 -0.03015210 -0.43917355
-0.83859825 0.14899066 0.01518277
-0.16766968 -0.23651391 -0.61226386
0.22898540 -0.59769678 -0.17191365
0.55183244 0.21003452 0.21363270
0.73851633 0.07115550 0.17047650
0.05840328 0.50213969 -0.43432629
0.27709800 0.55956846 0.14419319
-0.04932716 0.09883128 -0.85569018
-0.06407295 0.64083880 0.29628673
0.58806902 -0.37398857 0.02245229
-0.35343352 0.39232650 0.25383928
0.58138692 0.13059361 0.25859043
-0.36590588 -0.39174640 0.24690941
-0.00443058 0.64594722 -0.34658256
0.08445331 -0.09897362 -0.82055074
0.05072533 0.12548487 -0.81982791
0.87478471 -0.05342866 -0.07172094
-0.00556605 -0.48659232 0.50496638
0.19691207 -0.09125805 -0.71421176
-0.32224402 0.01090012 -0.66538990
-0.30262145 -0.09251697 -0.62836975
-0.04733972 -0.76597989 -0.22112428
-0.47047925 0.25729004 -0.28123394
-0.77911729 -0.18730722 -0.05878089
-0.42895284 0.09435865 0.47208646
-0.13884665 0.79752499 0.06672188
0.03589907 -0.55253524 -0.41234139
-0.43635353 0.40347204 0.15355541
-0.07013208 0.46504307 0.46791920
0.85130638 -0.02419804 -0.12546432
0.09274381 -0.17655033 0.72422236
0.52498621 -0.25170508 0.21849914
0.21152304 -0.61199206 0.16775188
0.02083369 -0.47157875 0.49839509
0.59784365 -0.07086687 -0.33648491
-0.77507758 0.19035773 -0.04470478
0.16263665 -0.66984063 0.15231238
-0.32284564 -0.47630927 -0.22010292
-0.47046423 0.14779539 0.38105747
-0.05254742 0.72211838 -0.23214354
-0.65356302 -0.20227316 0.15576702
0.55416596 0.07982361 0.34620693
-0.20630686 -0.03076503 -0.79554045
-0.15496916 -0.12899199 -0.73029429
-0.07122229 0.91325390 0.00506010
0.37669826 0.41531014 0.18489127
-0.29749659 -0.60653597 -0.11895274
-0.33684638 0.49898279 0.15497904
-0.16920418 0.18260714 -0.65710300
0.54723412 -0.43373743 0.01061863
0.19326986 -0.46026188 0.34447411
0.02681558 0.22440717 0.72455412
0.21694636 -0.01034894 0.76456887
-0.12110920 -0.64903480 0.23838450
0.19731057 0.30383700 0.48017320
0.75441432 -0.18337348 0.05598760
0.05216543 0.04728122 0.88001132
-0.28359294 -0.55565262 -0.18490534
-0.36675483 0.50698793 -0.13288102
-0.18259515 0.06512949 0.75401950
-0.63483721 -0.01287600 0.35190865
-0.59930426 -0.35493347 0.05693577
-0.39359403 0.06781447 0.53803658
-0.82856047 -0.16478500 -0.04591327
-0.01167483 -0.12754875 0.86186689
0.13096768 -0.63554752 0.22843748
0.62828064 0.17095494 -0.19666810
0.06526776 0.00593919 0.89668834
-0.52086765 -0.44658038 -0.05245824
0.25110692 0.58796871 -0.15373783
0.38443914 -0.58396906 0.00816214
-0.30876333 -0.41780108 0.27555496
0.85622370 0.05556118 0.06755953
0.28443331 -0.15032196 0.55682182
0.10872357 0.72294927 -0.15970802
0.36354482 -0.05997452 0.57481492
-0.18093549 0.15357564 -0.67018574
-0.57901615 -0.23878984 0.19012006
0.31197727 0.63851887 0.03276103
-0.73286080 0.19186664 0.07730327
0.44700879 0.36549708 -0.18095826
-0.40923086 -0.15207233 -0.45921475
-0.16147646 0.36575699 0.46842992
0.01637757 0.21658663 0.74798453
-0.56416619 0.16743325 0.26133153
-0.76349467 -0.06507140 -0.19364381
-0.27161247 0.26177543 0.46686900
-0.80069166 -0.10046871 0.10735646
-0.34818330 0.14590251 0.49810305
-0.26265040 -0.20838024 0.53580076
-0.59903365 0.32196915 -0.08386842
-0.61261380 -0.32619274 -0.07632142
-0.21546026 0.43874595 -0.34984067
-0.00575843 -0.69423801 0.29611450
-0.11435512 -0.03173482 0.86087400
-0.56170231 -0.10800197 -0.35362771
0.03526689 -0.94232273 0.02164864
0.59553343 0.22414181 -0.17260908
0.44884250 -0.05042817 -0.50768030
-0.02895504 -0.11796016 -0.86394924
-0.13344181 0.56842077 -0.30689037
-0.14316222 -0.66942847 0.19364701
-0.31467760 0.25821888 -0.43436477
0.68770123 -0.02964534 0.27471039
0.25375289 -0.58061808 0.16569054
-0.19424212 -0.08041658 -0.73843241
-0.89169002 -0.08879176 -0.05161149
0.60218251 -0.11744428 0.27958676
0.87076586 0.03865108 0.07275728
-0.35726306 0.32134184 -0.33558774
-0.15991203 0.33133733 0.50606084
0.09312697 0.18524083 -0.71219087
-0.00565590 -0.90387219 -0.10192004
0.68774742 0.20663212 0.08184503
0.12110563 -0.09539521 0.77690291
-0.20955528 -0.18483023 -0.62422520
0.10117655 -0.73691010 0.15434931
0.12143518 -0.56763804 0.30928230
0.45178595 0.49382624 0.03328426
-0.31319028 0.58207017 -0.10828765
-0.02735632 0.21672152 0.75537950
0.44443581 -0.53412074 -0.02089651
0.25179636 -0.43950212 0.29974008
0.02076162 -0.32751620 0.63944417
-0.39052656 -0.32385835 0.28956866
-0.58451170 -0.26319426 -0.16950819
0.11734738 -0.62559974 0.25501487
-0.61077881 0.06018838 -0.33349255
-0.08432879 -0.71248496 0.20784372
-0.39167574 0.08199551 -0.53109384
0.29943392 -0.06355000 0.62787449
-0.71271849 -0.04855181 0.25043488
0.28132385 -0.67657799 -0.04755750
-0.34795210 0.38464996 -0.27296686
-0.35604998 -0.52569467 0.12831596
-0.31011340 -0.40529913 0.28481311
0.30811918 -0.07354876 -0.61883700
-0.42312667 -0.11316764 -0.48135796
0.59874058 -0.22401953 -0.17826755
0.41717342 -0.45510623 -0.13375218
-0.12697762 0.05501148 0.81757933
0.27820066 0.29901519 0.40696827
-0.90563589 -0.07870355 0.01563129
0.62316549 -0.01397688 0.35089189
-0.57833332 0.39775270 -0.03433242
0.01417004 0.56918091 -0.40868443
-0.09560868 0.88935190 0.00857077
0.43877399 0.36887163 0.16821662
-0.03110926 0.79154044 -0.18365923
-0.76273978 0.01141425 0.22170733
-0.59162605 0.20554446 -0.21106592
-0.39389551 0.45255572 0.15554477
0.20099252 0.34970847 0.42800853
-0.18027323 0.72169173 0.09702795
0.08733727 -0.83265722 0.08618388
-0.14480127 -0.48158619 0.38321480
0.35487920 0.55335021 0.06726615
-0.34894308 -0.24168357 0.41944385
0.40983593 -0.38964432 -0.19990925
0.54352117 0.35920447 0.07948168
0.19870052 -0.76214200 -0.03973011
0.17804572 -0.13100961 -0.68873036
0.80366021 -0.16832858 0.03718781
-0.44388849 0.50374001 -0.06289238
0.88991362 -0.02517674 0.06800308
0.38281870 -0.51082271 0.09865694
0.67609298 -0.14618838 -0.18083549
-0.09233601 -0.43404540 -0.49091542
-0.16893254 0.33733630 -0.50032437
-0.05853629 -0.51079726 -0.46206596
0.08173651 0.83911711 -0.07472761
0.07165945 0.88880247 0.01647081
-0.40180543 0.40604326 -0.18211965
0.58446562 0.25328949 -0.15484530
0.42390913 0.54018390 -0.02218817
0.57472521 -0.32493374 -0.10270622
-0.05869190 0.70239550 -0.24127835
-0.05161962 0.51176167 -0.44529334
-0.71936280 0.06339036 -0.22311074
-0.28059042 0.12697913 0.59071356
-0.00098094 -0.44885904 -0.54378849
0.13335747 -0.33873716 -0.53994548
0.08975467 -0.41562518 -0.49212995
-0.38795158 -0.02907034 -0.60963750
0.69008994 -0.21498485 0.09920995
-0.59753072 -0.34307465 -0.08269076
-0.35741147 0.08772638 -0.55646890
0.12640819 0.00679826 -0.86034614
-0.09095655 0.75212747 -0.16015717
-0.07107955 0.80117613 0.12875737
-0.04775313 0.16638553 0.78156894
0.49763408 -0.20341460 0.29384038
0.24285576 -0.43617398 0.31436405
0.03488714 0.45633927 -0.49885178
0.54643559 0.04169015 -0.40683123
0.31145167 0.06053697 0.61857152
-0.04826574 0.73047888 0.21535996
-0.05793995 -0.86880362 -0.09853712
0.60603285 -0.08087393 -0.31534204
-0.09239790 -0.60821134 -0.32157430
0.69799691 -0.21514486 0.07224962
-0.67590684 0.05477230 0.26857287
-0.14185077 0.17701000 -0.69223493
-0.41966397 -0.41262147 -0.18933526
0.17449073 -0.23273297 0.58372325
-0.09824507 0.60829490 -0.30231526
-0.29460171 -0.55353659 0.15859917
0.41981590 -0.39229009 0.18033752
-0.37025595 0.35022864 0.27830219
0.07145555 -0.77387041 -0.16246921
0.69501585 0.15077443 -0.14733115
-0.54773116 0.17286621 -0.29415572
0.40270293 -0.53010243 0.06056767
-0.18794355 -0.37476364 -0.45267907
-0.07833442 0.90571535 -0.02145376
0.00192996 -0.45949587 0.52247441
-0.59273875 0.37308437 0.03483501
-0.48640865 0.13857885 -0.38362530
0.44162348 0.15293872 0.39027297
-0.33728021 -0.21548383 0.45612940
0.57485998 -0.29835752 0.12123349
0.48337644 -0.44047272 0.07591497
0.48849630 -0.49614039 -0.01314370
-0.28397268 0.36458680 0.34743497
0.19846070 0.33037451 0.45149845
-0.53209484 -0.01979042 -0.46185237
-0.33393830 -0.00252493 0.66461223
-0.22952712 -0.40920669 -0.37949306
0.48755902 0.19251347 0.30249321
-0.04354811 -0.92608744 -0.04617857
0.06439304 0.65100473 -0.27601451
-0.47138989 -0.00031422 0.52030569
0.35725796 -0.52103162 -0.12801261
-0.09734028 -0.81099826 0.09785334
-0.02615526 0.02674525 -0.95258254
-0.13940573 0.10654350 0.75391030
0.40923440 -0.33149806 -0.26120442
0.19006197 0.71416289 -0.08830694
-0.19841959 -0.18405925 0.62508053
-0.37660265 0.28867340 -0.34415019
-0.20931925 0.64348364 0.14573513
-0.84623927 -0.05699068 -0.10954029
0.28417394 -0.22146495 0.49623901
-0.09410831 -0.45573023 0.45447481
0.55955911 0.30656499 0.12000563
0.73792607 -0.06881379 -0.19529188
0.10236338 -0.24288324 -0.66041607
0.07672206 0.21837538 0.68742818
0.09614243 -0.62060601 -0.29494813
0.37188667 -0.12498964 0.49548593
0.36934248 0.19173345 -0.43281367
0.17938061 0.37799689 0.43033376
-0.02158211 -0.27993149 0.70012134
0.41174746 -0.44836971 0.13558269
-0.78855020 -0.14948379 0.07261650
0.44102693 -0.07974859 0.47920817
0.29944706 0.25569004 0.42816770
0.40917805 -0.01052493 -0.57677853
-0.16665997 0.77710032 -0.06536310
-0.17874591 -0.52183872 -0.32566348
0.08627114 -0.80474895 -0.11563084
0.10081300 0.57835668 -0.31650677
0.58209521 -0.29897550 -0.12219366
-0.52301812 -0.00988048 -0.47131091
0.14918762 0.02274876 0.80730468
0.67074829 0.20387883 0.10408816
0.09542864 0.84317678 -0.05673533
-0.66649330 0.17286202 -0.17373708
0.14340478 0.25359106 -0.59214509
0.44870305 -0.16869147 0.37807664
-0.04469865 0.90614069 0.04836501
-0.12055656 0.87198436 -0.01416051
0.10042346 -0.36059096 -0.54738653
0.66433364 -0.22779663 -0.10816652
-0.31077141 0.64380497 0.04199956
0.02753887 -0.69477773 -0.27912810
-0.21236922 -0.19212702 -0.61181360
-0.81285310 0.11619837 0.07166028
-0.36966926 0.12584147 -0.50812411
-0.68652213 -0.06407110 0.25626644
-0.56747925 0.11561178 -0.32189772
0.40370920 -0.05533408 0.54245311
0.22781503 -0.63765079 0.12661539
0.36076823 -0.13450971 0.49689853
-0.30418321 -0.56694901 -0.15505160
-0.50086862 0.36159056 0.13442847
0.25207669 -0.54699057 -0.19918333
-0.61900568 -0.35745445 0.03684417
-0.28415167 0.60234374 0.11707240
-0.67186594 0.07430059 0.25075516
0.19824383 -0.52753735 -0.27558967
-0.75333905 0.04472162 0.21030112
-0.33052173 0.40548471 0.26388326
0.26174602 -0.34794241 0.38468248
0.43362188 -0.13266419 0.41950354
-0.89533806 -0.07278449 -0.05501951
-0.48094857 -0.31267923 0.21407035
-0.73611718 -0.22462662 0.04460791
0.33952001 -0.46509650 0.19937921
0.51051247 0.45635858 -0.01964740
-0.37789962 0.53806615 0.08069132
0.18215388 -0.55892384 -0.25861272
-0.50404829 0.40495777 -0.10144053
-0.78253919 -0.16486679 0.05526914
-0.17288253 -0.37643760 0.45817295
-0.14756568 0.47063607 0.38917574
0.18388470 -0.66110325 -0.16078864
0.08567084 0.77992970 -0.12922895
-0.05667119 -0.14186004 -0.81530881
0.42238042 0.35403600 0.19692965
-0.54016614 0.08540831 -0.38782302
-0.13681521 0.13434377 0.72766793
-0.16685526 0.16409688 -0.68507469
0.03743626 -0.10835137 -0.84920830
-0.61686671 0.19933125 -0.19966501
-0.11299901 0.45685974 -0.42693749
-0.43898574 -0.22629863 -0.35217780
-0.29205316 0.19501932 0.50556690
-0.47375754 0.16568185 -0.38392508
-0.43038410 -0.45948225 -0.12478077
-0.19143315 0.16340238 0.64148015
0.11443058 -0.80401725 0.07579552
-0.42252907 -0.18287857 0.39767134
0.49840993 -0.14096440 -0.36257896
-0.45456868 0.42689136 -0.12471399
-0.55192000 0.05866803 -0.40368792
-0.10612459 -0.90079671 0.00078032
0.70002300 -0.05787308 0.23519698
0.17065251 0.02867945 0.78182822
0.54208016 0.07670921 0.36013469
0.83726668 -0.14310940 -0.01693403
0.19308920 0.12721874 -0.67752182
0.83638537 -0.09365804 -0.08110514
-0.32675928 -0.24331056 0.44030809
-0.53967309 0.35936868 0.09139127
0.03050029 -0.92514920 0.04076760
-0.01519774 -0.35460985 -0.64561957
-0.08633794 -0.43874919 0.47589332
0.20938472 -0.71153831 -0.08067390
0.44826189 -0.44257039 -0.11477926
-0.07235630 0.37715745 -0.55972111
-0.01235287 -0.07652272 0.91008401
0.32203639 0.40443921 -0.26245010
0.22298045 -0.05486524 0.71055245
0.05864298 -0.33306307 0.59943032
0.47461078 -0.11185607 0.40346843
-0.48683617 0.43942171 0.06179546
0.66941607 -0.18337022 0.14102308
0.68008143 0.06475074 0.24198605
-0.40630582 0.14019787 0.44600764
0.39476764 -0.44064620 -0.16891508
-0.17675646 -0.07868648 0.75466174
0.14787646 0.21192826 -0.63103741
-0.69239092 -0.00742567 -0.30728048
0.68231100 -0.11445839 0.19899274
-0.17251660 -0.53436410 0.29454449
-0.39637861 0.51650977 -0.09387901
0.80688196 -0.13119181 -0.06883696
-0.00071205 -0.09524976 -0.92076236
-0.02514121 -0.00714337 -0.98180944
0.02095046 0.08156131 -0.88671362
-0.38602754 0.12193573 0.48809871
-0.33418551 0.04019035 -0.63770390
0.26913640 -0.40331745 0.33832940
-0.24876809 -0.70563823 0.05667279
-0.34552893 0.12398210 0.52646697
-0.27477038 -0.51549149 -0.22771780
0.05878747 0.53114223 0.39330846
-0.52321684 -0.29353726 0.18881764
-0.12578492 0.39002332 0.48147485
0.43420053 -0.40912053 0.15023382
0.77105737 -0.20951511 0.00656251
0.09375758 0.02894699 -0.86913913
0.41995966 -0.01829594 0.55018830
-0.63436401 -0.12025040 0.25293306
-0.12440184 0.32422832 0.54767722
0.31982172 -0.01461924 -0.66267294
0.38746965 0.26750287 -0.34022108
-0.19697660 -0.74376333 0.06798588
-0.35628656 -0.33814359 -0.32555410
-0.12033385 0.12056848 -0.76120734
0.61365688 0.35818279 0.01093828
0.42355397 -0.15344156 0.40693939
-0.16947512 0.16664860 0.66287857
0.15868135 -0.06811748 -0.76768571
0.20429508 0.45295247 -0.33079448
0.85718125 -0.04132354 -0.10118370
-0.23304681 -0.38790572 -0.39575431
0.39175376 -0.39687142 0.20640844
-0.11384881 0.49924427 -0.39321423
-0.90890419 0.00380845 -0.08748832
-0.69146132 0.08518192 0.22015561
-0.58531940 0.14833751 -0.27601308
-0.44774067 -0.17001592 0.39201796
0.85870135 0.00618071 0.11110708
0.34660071 0.51278460 0.10942237
-0.46920502 0.26663810 -0.26874664
0.34266859 0.48786399 -0.15483785
-0.02481655 -0.43211979 -0.55999970
-0.52996832 0.44477761 -0.02893580
0.44952044 0.22125483 -0.32119197
0.78975445 0.05837169 -0.14690447
-0.69256306 0.22550349 -0.10490596
-0.48049721 0.37946716 -0.14726508
-0.60137975 0.10698208 -0.30402523
-0.09185847 0.08038469 0.81712693
-0.41472599 0.44788703 -0.14893305
0.12916905 0.79415351 0.04863520
-0.08545121 0.47663409 -0.43805930
-0.76489037 -0.02149886 0.21815488
0.53038949 -0.17819734 -0.28935507
-0.72246331 -0.08424061 -0.21476009
0.35904187 -0.10124583 -0.54407036
0.95966834 -0.00968725 0.00782684
-0.41586095 0.40558583 -0.18883643
-0.36849535 -0.44937298 0.18577830
0.02253797 0.00129790 0.95279729
0.02279098 -0.71413428 0.25078952
0.15549044 -0.68765688 -0.16842481
0.80791080 0.12495612 -0.05958215
0.37843463 -0.24461937 0.36652672
-0.30045503 0.60539484 0.08700176
0.00812630 0.38136429 0.58234453
0.29290569 0.54923666 0.13812155
-0.60674882 -0.37260005 0.03478735
0.06488244 -0.03203166 0.89552408
-0.53248638 0.06362616 -0.41230351
-0.54886544 0.31928372 -0.14025418
0.37358403 -0.59249002 0.02804125
-0.62178057 0.01073483 0.36105996
0.49713147 -0.30496269 0.19560462
-0.10607381 0.62307209 -0.27935457
-0.20921919 -0.14242455 -0.66606438
0.18191887 0.76553690 -0.04632894
-0.13200602 -0.67901963 -0.20550299
0.06917162 0.55371624 -0.37435919
0.65748328 -0.17694707 0.15673801
-0.09135327 -0.51998842 -0.40257299
-0.85711378 0.09809756 -0.04969249
0.84386873 -0.08267808 -0.07485238
0.14003059 -0.61353570 -0.25321746
-0.74927241 0.13235553 0.11818986
-0.15979142 0.07027377 -0.77678633
-0.31891701 -0.66097593 -0.03496163
0.07289681 0.28614029 -0.62652647
0.24171159 0.12459669 0.61187989
0.18050297 -0.75775647 -0.06108558
0.08978109 0.29521412 0.59299332
0.38789436 0.16386200 0.43977299
-0.34266302 -0.47048649 0.18759166
-0.27208784 -0.51740652 0.21874890
0.26255879 -0.12868890 0.59966314
-0.86763740 0.07583211 0.05522285
0.15362011 -0.83477402 -0.01262303
-0.00529349 -0.97281688 -0.03158250
-0.15892990 0.05631311 0.78914571
-0.27465314 0.47742245 0.24307968
-0.10981546 -0.12597349 0.77382773
0.63083303 -0.03931880 -0.32730597
0.45158422 0.40047628 0.13221151
-0.50449592 -0.00225001 0.48353210
0.24245739 -0.37192199 -0.38916090
-0.35063684 -0.21587421 0.44293982
0.00870441 -0.94093961 0.05691059
0.00197982 -0.57813501 -0.43280017
0.02562171 0.82506448 0.12999517
-0.00457533 -0.55179846 -0.45265695
0.28857976 -0.63423961 -0.08072050
-0.19126472 0.63401049 0.17398949
-0.32946828 -0.12475999 0.55042738
-0.79567093 -0.21526049 0.00943504
-0.43664598 0.02703714 0.53483170
0.58388495 -0.11413895 0.29371685
-0.34437659 0.62715399 0.02265620
0.00270902 0.24003118 0.72479582
-0.94858402 -0.05450911 0.00918352
-0.15742701 -0.72216219 0.12960264
-0.10067277 0.17603235 -0.72837067
-0.50600439 0.02792886 0.47076523
-0.26742777 0.51956004 0.21224362
0.45050153 0.25394526 0.28032628
-0.16109434 -0.69929969 0.14717302
-0.07190831 0.27209693 0.65312856
-0.32666603 0.46164170 0.20695995
-0.29556909 -0.48885366 -0.23221792
0.67477554 -0.00943036 -0.31533790
0.57819128 0.39431596 0.00231468
0.01572169 0.11794534 0.83541793
-0.20485021 0.37853476 0.40483424
0.69854838 0.06663436 0.20972218
0.17207110 0.12852764 0.68260115
-0.02086070 -0.32307759 0.65411204
-0.25704950 0.02397358 0.71247935
0.29337341 0.03047537 0.66125083
-0.24811554 -0.27223107 -0.50903988
-0.77367789 0.08093178 -0.15439360
-0.37679523 0.27321634 -0.36115867
-0.18119814 0.35112661 -0.47095996
-0.12746494 0.55360377 -0.32788473
0.11226459 -0.22038244 0.65336412
-0.02624587 -0.95583576 0.02210740
-0.65923625 -0.08309325 0.26471129
0.10896534 0.34490341 -0.53825277
-0.54498565 -0.33521476 -0.13810265
0.50738990 0.43511531 0.03078524
-0.52886844 -0.45512235 0.03904972
0.33888870 0.10129747 0.54457963
-0.46441534 -0.24694148 -0.30394688
-0.87389833 0.04338055 -0.10308102
0.45158949 0.11431354 0.41770378
-0.75493896 0.10089755 -0.15108921
0.62715578 0.06067202 -0.30190045
-0.40848270 0.20479259 -0.39261350
-0.06233259 0.50051653 -0.44856402
-0.49295631 0.38998979 -0.12637231
-0.12935714 -0.20824510 -0.68370819
-0.09073734 0.57140744 0.33334243
0.86792237 -0.08758309 0.03942723
-0.73295593 0.25036538 -0.02800137
0.23066092 -0.34194967 0.41425925
-0.31578258 0.55021828 0.13394275
0.25632301 -0.15518023 -0.58799404
0.47355282 0.03264657 0.46881184
0.54948252 -0.31580979 0.12990290
0.74450767 -0.23429683 -0.01375044
-0.91889280 -0.01767573 0.07684999
-0.49885654 0.12423606 -0.38523412
-0.32710639 0.09864147 -0.58019817
0.37416074 -0.39545757 -0.23450547
0.15643097 0.61341637 -0.22455315
-0.04422480 -0.77294576 0.19384938
-0.07962379 0.66197658 0.25304583
0.10412534 0.24094075 0.63128853
-0.20046310 -0.50462925 0.30446482
-0.18160549 0.06632374 -0.75887954
-0.39794347 0.05786141 -0.54592055
-0.15596932 -0.58529121 -0.27609396
-0.29328105 -0.23882772 -0.49185970
-0.01506737 -0.45995051 -0.53742224
0.53075284 -0.36296594 -0.11600598
0.49879253 -0.28190580 0.21021028
-0.05121709 -0.21471423 0.73950291
-0.13161893 0.10597306 -0.77700263
0.07262059 -0.65893263 -0.27141288
-0.24567887 -0.09817593 0.66021144
-0.40175056 -0.38832155 -0.23367620
0.09141269 0.66461647 0.22676864
-0.15969467 0.33131704 -0.52239907
-0.24801227 0.18508518 -0.57636416
0.87141055 0.08793734 -0.02489551
-0.41631034 -0.16089134 0.43205628
-0.46060440 -0.03018329 -0.53476381
-0.19949949 -0.70403260 -0.11216061
0.65925384 -0.13366820 0.20366701
0.34457529 -0.19412215 0.45079345
-0.82301521 -0.04588455 -0.15236178
-0.23283786 -0.01364685 0.75975841
-0.11245222 0.65274364 0.23273188
0.53711182 0.03199680 -0.43158653
-0.03533160 0.28790742 -0.68534511
0.32321599 0.33103237 0.32028544
0.77280807 -0.06792846 0.15524770
-0.00763740 0.86240220 -0.13093898
-0.75171655 -0.10328344 -0.16501893
0.46515942 -0.51852089 0.00527422
-0.07897680 -0.36912155 -0.56899399
0.03976475 -0.03599325 -0.93893296
0.08859966 0.27780762 0.61278576
-0.57833916 0.33505180 0.08172330
-0.36714259 -0.27263799 -0.38761449
0.60000443 -0.19197361 0.20760949
-0.39561835 -0.20352119 0.40479848
0.66510004 0.06759780 0.25180280
0.32925761 -0.22313838 0.43686339
-0.38159987 -0.45563564 -0.18594439
-0.15094994 -0.68662530 -0.17776392
0.10676337 0.81486297 -0.07596812
0.49935809 -0.23998544 -0.25873318
0.24650644 -0.49758765 -0.25576469
-0.51836842 -0.18504485 0.30147532
-0.42208883 0.56980520 -0.01587352
-0.31180990 0.04616343 0.64326382
0.35509962 0.08564197 0.53958023
-0.41944221 -0.57208139 0.01189578
0.23917405 0.54619938 -0.20806389
0.14749095 0.77206975 -0.07300484
0.31800449 0.49757785 -0.17186184
-0.58713633 0.29211581 -0.12738496
-0.04756968 -0.56953871 -0.41917419
0.90523374 0.05702435 0.01090213
0.20343263 0.61802620 -0.17744310
0.65036774 -0.26671353 -0.08799910
0.20295869 -0.01000039 0.77940857
-0.79873735 -0.03460892 0.17944174
0.23499545 -0.26952448 -0.50088662
-0.40149191 0.25998211 -0.33945617
-0.35856655 0.12809920 0.50517356
0.46052217 -0.12820148 0.40159029
-0.62267578 0.34903684 0.03284071
-0.88801181 0.01455064 0.09337696
0.03940629 -0.78793186 -0.17490362
0.51974034 -0.03292510 -0.45013219
0.20344351 0.17269126 0.60355169
-0.38126063 0.25051945 0.36351794
0.33682194 0.58419758 -0.07088678
0.30123028 0.63475770 -0.06039316
-0.66468775 -0.24581714 -0.11640857
0.36084610 -0.60397524 -0.03654195
-0.41991124 -0.11504435 0.47170928
0.00414491 -0.57966071 0.40089408
0.17021467 -0.81406903 -0.01387039
0.19381978 -0.68692178 0.11112667
0.01131521 0.79613125 0.17548293
-0.83318079 0.12864803 0.03346986
-0.26129296 0.32012990 0.41409484
0.20394546 -0.63916636 -0.16496429
-0.06948931 -0.13755964 -0.80999076
-0.57904792 0.28696910 0.12372527
-0.31757656 -0.21577017 0.47461584
-0.36437595 -0.13509159 -0.52174443
-0.89490950 0.03332438 0.06676129
0.44567204 -0.30386189 0.25315723
0.02151185 0.74864620 0.20031571
0.04791626 -0.27510718 0.66983199
-0.59885091 0.03764588 -0.37024713
0.95058709 -0.02211726 0.01949823
-0.31013936 0.17003463 -0.52564365
-0.08342114 0.28682807 0.62692475
0.25206363 -0.26994637 0.47627047
-0.01456118 -0.36997250 0.61577666
0.08697661 0.88936281 -0.01030627
-0.79348272 -0.08835474 -0.13481468
0.40490299 -0.28688374 0.30817971
-0.81860083 -0.05997276 0.13225941
0.55451620 -0.36473092 -0.08034130
0.25339866 -0.14833975 0.58896017
-0.03637521 0.91867816 0.04334133
0.20577846 0.25371343 0.52024710
0.27701196 0.02900418 0.67221081
-0.54302400 0.36208853 -0.10178559
-0.66618729 -0.24569942 0.09517487
0.21317253 0.69331187 -0.08608928
0.71445549 -0.12932283 0.14314713
0.01431796 -0.42963749 0.54339492
-0.00914516 -0.23294155 -0.76799929
0.51232350 0.17841266 -0.30745417
0.75061977 -0.13631700 -0.10865470
-0.69758248 0.27321213 0.02560778
-0.23221585 0.15798771 0.60630542
0.02655006 -0.08513761 0.89421624
0.06008159 -0.24872223 0.68008220
-0.43652180 -0.19346339 0.38020059
-0.34323755 -0.44779500 -0.24123767
0.50889605 -0.11457479 -0.38232008
0.14687489 0.66944379 -0.16539137
-0.91661519 0.01396451 -0.07222433
-0.03097691 0.20489466 0.76617670
0.15666099 -0.05149439 -0.79621893
0.74191368 -0.10802648 -0.15514135
-0.11587541 0.18326707 -0.70131290
0.55874014 -0.22277790 0.21765326
-0.63291663 0.15030365 -0.23723549
0.23230182 -0.35424477 -0.41920117
0.00233313 -0.15053658 -0.84850252
-0.06406108 -0.44410673 0.49341697
-0.20066543 0.76711035 0.03612764
-0.19494194 -0.39866385 0.40820640
0.68228537 0.28435174 0.00358225
-0.64398283 -0.18661059 0.17694752
-0.10911441 0.15276465 0.73748553
0.47809649 0.25391003 -0.25616771
-0.26847899 -0.40571716 0.32887337
-0.40742338 -0.21055083 -0.39674166
-0.45316654 -0.34687471 0.20875964
-0.67341685 0.19095318 -0.14326347
-0.54937565 -0.06733558 0.39063224
0.24376652 -0.65270144 -0.10496085
0.17359425 -0.18800385 -0.64174640
-0.15593530 -0.29740024 -0.57557219
0.17985567 0.14195204 0.65666240
-0.70505434 0.03055089 0.26223150
0.10795937 -0.69303930 0.18966447
-0.89009559 -0.07187766 0.04046994
0.19153836 0.03982230 0.75217640
-0.10411080 0.46548188 0.42965087
-0.39820054 0.43395555 0.16564175
-0.15527968 -0.75882930 -0.11815127
-0.11130877 -0.01428540 -0.89421898
-0.00140555 0.86104661 0.11226790
0.15485334 -0.27748567 -0.57339877
0.40336084 0.38930345 0.18773358
0.35431123 0.20155406 0.41382897
-0.09429615 -0.72505301 0.18426350
-0.66869646 -0.01958854 -0.34146991
0.23052746 0.65468162 -0.11002526
0.06845836 0.87164932 0.03984743
0.85214907 -0.01976821 0.11921705
-0.20298420 -0.03340050 0.77444822
-0.16521150 -0.62651694 -0.22536390
-0.51531953 0.40888208 0.07162126
0.57683313 -0.27810624 0.13902950
-0.46116674 0.44603816 -0.10096042
-0.46842763 -0.48002559 0.06093404
0.26029804 -0.51898879 -0.21690674
0.13268372 0.22256874 -0.63294864
0.18841662 0.65762222 0.13025887
-0.14692087 -0.19901939 0.65676475
0.66031057 0.06768464 -0.26126999
-0.04040910 -0.36163735 0.60366988
-0.23746735 0.57936794 -0.18902212
-0.31724054 -0.56737661 0.12954403
-0.36023998 0.50138474 0.13472870
-0.16337551 -0.41925320 0.42329592
0.43563086 0.04472153 0.49862376
0.11675087 0.53696054 0.32932484
0.16079411 0.31173080 0.50535035
0.07047099 -0.54879791 0.37438494
0.14242609 -0.13128188 0.72308093
-0.20588394 -0.52193785 -0.28930411
-0.54357845 -0.28467429 -0.20007315
0.43097171 0.48408380 -0.07908329
0.36932039 -0.04697463 0.57631844
-0.15779577 0.59200603 -0.25880590
0.21540342 -0.72351575 -0.06431729
0.25365323 0.06215201 0.66616488
0.08396752 -0.58661896 0.32663247
0.17459011 -0.47711024 0.34498271
0.16132747 -0.59951854 -0.24577396
0.66729879 0.27238664 -0.05484195
-0.33500022 -0.26460817 0.42366725
0.50953269 -0.29876536 -0.19772899
0.12928429 -0.32604930 0.54297268
0.71364462 0.20255157 0.06551876
0.32525975 0.56953681 0.08233371
-0.38943321 -0.17967649 0.44416997
0.36463916 0.12359124 0.49557173
-0.14627996 0.66928726 -0.19292787
0.03153560 0.58184451 0.36543804
0.27855518 0.01782282 -0.69817853
0.34807590 -0.11267430 -0.54470134
0.48301074 0.15024315 -0.36138335
-0.59673262 -0.10195932 -0.32335848
0.32518283 0.17577508 0.47461754
0.33714467 -0.49564731 0.16043021
0.70036870 -0.15490229 -0.14967018
-0.51309979 -0.44935918 0.04438024
0.04873651 0.25543123 -0.69191855
0.13781807 0.35457182 -0.49948174
0.07106974 0.61122960 -0.30801678
0.45193201 0.06989065 -0.47231686
0.14117846 -0.72959632 0.12382175
-0.67409366 0.03920146 0.28665876
0.09646661 -0.59410489 -0.31554988
0.48892507 0.15198329 0.33864558
-0.83027267 0.02623895 0.14712949
-0.14774273 0.35191810 -0.50805962
0.11515862 0.06770129 -0.80832690
0.50104594 0.16248323 0.31515938
-0.46324632 -0.13223691 -0.42466778
-0.00625795 0.69328886 0.28132793
0.46721730 0.15321499 -0.37482524
-0.01519178 0.72585416 -0.26412904
-0.53349566 -0.24182774 -0.25007495
-0.27676973 -0.32488388 0.40044257
-0.12703651 -0.31670153 -0.57215732
-0.20703386 0.51017785 0.27814314
-0.46428961 0.13950422 -0.40613884
-0.20956373 -0.68049639 -0.14631929
0.02612516 -0.96530557 -0.01015286
-0.36490563 0.02935418 0.60227406
0.81273013 -0.15595308 0.02267017
0.39469427 0.33250853 0.25678635
-0.14564829 0.04878703 0.80689996
0.38416150 0.45601055 0.12548679
0.33807945 0.60292757 0.04208345
-0.16656899 -0.81369764 0.02690230
0.05971438 -0.71232396 -0.23051448
-0.19869350 -0.77117276 0.05093550
-0.25097844 0.68465161 0.06325914
-0.06825606 -0.31508008 0.63682419
0.22625424 -0.42107511 -0.35462409
-0.20490158 0.49417445 -0.30196050
-0.22371820 0.75995672 -0.00715538
-0.13188760 -0.42535084 0.44764778
0.08742514 -0.48609483 0.41693410
0.42495054 0.50608480 -0.05750042
0.30978280 0.54717547 -0.13222466
0.17085667 0.33961701 -0.48069140
0.11134314 0.52303177 0.34656385
-0.33851603 -0.46148348 0.19998260
-0.70102084 0.09159353 0.20146680
-0.42842427 -0.08227815 -0.50876576
0.42750221 0.30667800 -0.26009071
-0.64794111 -0.25779867 -0.11732315
0.10061994 0.39842108 0.48243961
0.45849872 0.45957485 -0.07595743
-0.42248246 -0.37599739 0.20894261
0.62718564 -0.18305546 -0.19226573
-0.24659222 0.63766277 0.11515559
0.00667084 0.25952068 0.70551848
-0.02811812 -0.27403867 -0.71432209
-0.96479195 -0.03187658 -0.02704217
-0.39098105 0.34382272 -0.27202511
-0.16654119 -0.09976015 -0.75262511
-0.32763484 -0.12917912 -0.57312608
0.71167934 -0.18344219 -0.10083732
-0.20434605 -0.66767609 0.14367980
-0.21128051 0.50289536 -0.29234594
-0.33910879 -0.11471271 -0.56996608
-0.62152249 -0.21169589 -0.18325125
0.29511288 -0.62886792 0.07280166
-0.19796006 -0.44325051 -0.38797709
-0.34342557 -0.24031621 -0.43591303
-0.18608707 -0.08508532 0.74275291
-0.55278629 -0.28761631 0.16458990
-0.17508398 -0.15465152 0.67912114
-0.14558664 0.09568004 0.74705291
0.26410496 -0.69407052 0.03534645
0.78197843 0.14353946 0.05185622
0.29622069 -0.23574312 -0.47720894
-0.66032571 -0.00050450 -0.33992496
0.26070994 -0.26887032 0.45876083
-0.09155036 0.60121739 0.30311242
-0.52356023 0.38658175 0.08666636
0.46182355 -0.50486058 0.01704356
0.20580110 0.26811984 0.50439411
0.36933386 -0.27665377 -0.35660776
-0.08879746 -0.63498408 0.28675377
0.05173486 0.02687801 -0.91072208
0.20558177 -0.53939581 0.24771221
0.34709495 0.32897720 0.30948856
-0.80040735 -0.12485396 0.08364256
-0.13717699 -0.47026852 -0.41652396
-0.21552798 -0.46912482 -0.34170565
0.10464518 -0.28510684 0.60899949
-0.21420547 -0.37225872 0.42516544
0.34418684 0.21754935 -0.42705634
-0.19832538 0.70202994 -0.11181675
0.12802446 -0.44360843 -0.43092844
0.61531615 -0.31009346 -0.07369747
-0.08061963 -0.34886351 -0.58833104
-0.52002358 -0.12538072 0.36205190
0.53273374 0.43420395 0.00897682
0.69923377 0.20808776 -0.08631151
-0.17013180 -0.03540222 0.80231833
0.16557512 0.65264076 -0.17819174
0.00181687 0.83982211 0.14110051
0.71053344 -0.08396995 -0.21265376
-0.65656894 0.11155190 0.23640922
-0.33672658 -0.20909463 -0.46889922
0.44873261 0.51458168 -0.02724868
-0.27423692 0.70384771 0.01391188
0.74519110 0.20322846 -0.04595274
-0.11034554 -0.80326021 -0.10872891
0.59286797 -0.20565292 0.19741562
-0.51702517 0.20902272 0.27051783
0.31897047 0.26683766 0.39276659
-0.09742502 -0.18519929 0.72021782
0.45714521 0.38857821 -0.13628441
-0.53316796 -0.44036925 -0.03964148
-0.54999828 0.15953256 0.28772509
-0.09435152 0.30687839 -0.61323690
0.55184561 0.16611643 0.26162261
0.33016646 0.16368268 0.48461485
-0.44070253 0.32488069 0.23602018
-0.45995894 -0.10664471 0.43618828
-0.26119924 -0.49741545 -0.26048520
0.08300246 -0.45384961 0.44965032
-0.51804507 0.37913054 0.10150817
0.21093869 0.18432307 -0.59769380
-0.65311700 0.20761289 -0.14444284
0.14471607 -0.23786573 -0.61048359
0.29291016 -0.59124398 0.11305489
-0.35112000 -0.61457145 -0.04957056
0.36930761 0.54047650 -0.08411580
-0.00581384 -0.05376150 -0.95785129
-0.22721343 0.51063842 -0.27115589
0.33138791 -0.25350106 -0.41697732
-0.51087737 0.08416275 0.40611598
-0.42903677 0.54128689 -0.04432270
-0.03876140 -0.81097651 0.16037726
0.42903230 0.52796471 -0.03370732
-0.05359292 -0.55342829 -0.41383544
0.21426527 0.60367960 0.15465215
-0.20404756 0.61449367 -0.18784168
0.12082184 -0.15864895 0.71439332
0.71255749 -0.02299582 0.25664687
-0.77607340 -0.01362623 0.21153094
-0.79668802 0.01474530 0.18968607
0.18276447 -0.29936880 -0.52285957
-0.19979174 -0.34786111 0.46766242
-0.17794386 -0.78913653 -0.05333544
0.24771091 0.33643913 0.40145928
0.46510321 0.47695687 -0.05010562
0.33541757 -0.31364709 -0.35443911
-0.38892427 -0.06330618 0.55085278
0.49302024 -0.23223691 -0.27643141
-0.26128918 -0.61208063 0.13270856
0.20802797 0.30964395 0.46774653
0.22453466 -0.68586099 -0.09093630
0.13511443 0.81815541 -0.03554869
-0.12204076 -0.73406523 -0.17194727
-0.07867449 0.46386304 -0.46197036
-0.23800349 0.09442587 -0.67476624
-0.21360910 -0.77040935 0.04266042
-0.12137921 -0.02172321 -0.87130427
0.87072980 0.00441064 0.10085774
0.04600940 -0.46313268 -0.49412397
0.23858795 0.10079406 -0.65622026
0.05200993 -0.07089356 -0.89372450
0.18313794 -0.15152709 -0.66559833
0.47122371 -0.46775028 0.05668190
0.06047066 -0.53407794 -0.40948763
-0.76113075 -0.01327220 0.23144628
0.19351028 -0.14958133 0.65471029
-0.55004317 0.43383473 -0.03069375
-0.36985260 -0.61511552 -0.03096477
-0.21727730 -0.64544672 -0.15656777
0.79521078 -0.07188069 -0.13749734
-0.41411600 -0.31365332 0.27587157
-0.26906720 -0.64359123 -0.10610073
-0.03724211 -0.73164630 0.24143164
0.30675861 -0.55856556 -0.15342510
-0.30472443 -0.59133589 0.11496481
0.83722508 -0.06176641 -0.09849469
-0.00871524 0.88382220 0.08337174
-0.82167250 0.16513920 -0.01480488
0.18907668 -0.61732423 -0.19879720
-0.55449170 -0.41959730 -0.04510641
-0.30175957 -0.08147247 -0.63745856
-0.41009399 -0.50762892 0.08820964
0.12870778 0.16922945 0.68654168
-0.52701014 0.01210397 0.46709853
-0.33911064 0.50756443 -0.16069491
-0.04444375 -0.04917992 -0.93025345
0.42782444 -0.46323714 -0.10759050
-0.42318302 -0.56054068 -0.03142542
-0.39737359 0.37062266 0.23070237
-0.06320320 0.11904176 -0.83053648
-0.36293903 0.06400811 0.57046402
-0.32045680 0.09107875 0.59068704
-0.89258039 0.09823619 0.00304669
0.75900841 -0.16938111 -0.07920938
0.37532791 -0.41389877 0.20334662
0.58977932 0.08532865 0.30433515
-0.76984406 0.11483921 0.11694542
-0.29630059 0.28023538 -0.43134356
0.12327833 -0.76938641 -0.12441809
0.37278751 0.45601758 -0.16142435
-0.44298920 0.33830726 0.22176757
-0.12966187 0.58558202 -0.29496908
0.60445744 -0.09663637 0.29367736
-0.03810434 -0.21475264 0.75583678
-0.37501824 -0.21160071 0.42644164
0.09453418 0.38748631 -0.51185554
-0.05562164 -0.45065302 -0.51366723
0.33353779 0.21695901 0.43312758
-0.50035858 -0.21110696 -0.30648366
0.39896277 0.53603113 0.04160282
-0.52778411 0.14710164 -0.32809722
-0.25664797 -0.48450252 -0.27717108
-0.74126703 0.17524396 0.08404767
0.21297763 0.47346815 0.29334331
-0.75690776 0.17976807 -0.07225652
-0.00119526 -0.63740748 -0.37390319
0.57194257 -0.19436517 0.22259203
-0.07895815 -0.14128873 0.78995246
0.60505986 0.12869439 -0.26130703
-0.09356511 0.27807108 0.62147146
-0.02490822 0.33549708 -0.64028966
0.26129258 -0.00156882 0.71062523
-0.42457357 -0.04733057 0.53022760
0.23476900 0.23142776 0.51604819
0.34358117 0.55487257 0.07901093
-0.61555934 0.17100994 -0.22114857
0.56373447 0.31104627 -0.11876151
0.91754740 -0.05821908 -0.03121201
-0.44885311 -0.02133549 -0.54867440
0.68073934 -0.03997269 -0.28081390
0.56064427 0.00500952 0.40793601
-0.88170648 -0.09740590 -0.05881295
0.92025024 -0.00790061 -0.06636769
-0.07086258 -0.84637523 -0.11031342
0.25554204 0.17169705 0.54970855
0.16766258 0.03759957 0.76724064
0.41305867 0.28293151 -0.29566327
0.24334629 -0.34960663 -0.40967530
-0.84803784 -0.14922193 0.00117743
0.00931474 -0.04114271 0.93926460
-0.39678270 0.18503939 0.41906846
-0.57217628 0.26763463 -0.17298879
-0.20396884 -0.65999180 -0.15761812
0.10137127 0.24693522 -0.64592773
0.17223927 -0.24921691 -0.58578414
-0.01432466 0.20531273 0.77765697
-0.11262564 -0.65245122 -0.25739035
0.58345658 0.11147783 -0.29786927
0.41732073 0.22334024 0.34026060
0.43591571 -0.27148849 -0.29767066
-0.12402119 0.28754070 0.58662796
0.49138397 -0.22753572 0.27956739
0.06511116 -0.38313848 0.53682369
-0.28216356 0.25731155 -0.46859449
-0.13795510 0.27489710 0.58676243
-0.28592542 -0.13528217 -0.59072268
0.27692246 -0.57419324 -0.14609377
0.54970384 0.22370005 -0.21957727
0.43558446 0.27388918 -0.28092110
-0.81543344 0.00621381 -0.18034495
-0.71765858 -0.13468035 -0.17242688
-0.12814797 -0.61804307 -0.27347675
-0.27467850 -0.68624181 0.05269952
-0.07996900 0.46718255 0.45244822
-0.80846065 0.03645813 0.15618335
-0.12207469 0.76241946 0.11639912
-0.32619047 0.42809513 0.24293731
-0.34290794 -0.15471382 0.50938660
0.27341485 0.57659441 0.13171278
-0.18539470 -0.28622758 -0.55033243
-0.19487868 -0.36441514 0.45279416
0.18226133 0.17559116 -0.63500601
0.02441047 -0.54154187 -0.43556967
-0.38161913 -0.28837776 -0.35522681
-0.01623405 0.12974983 -0.84488505
0.49536893 0.37282169 -0.11981818
-0.15438162 0.22296977 0.62043411
0.22599040 0.66446424 0.07689830
0.60240406 0.19435646 0.18965369
0.46897855 0.50036919 0.00256332
-0.65320134 -0.06242850 0.28915563
-0.07706342 0.42575109 0.49323407
0.33769733 -0.51290828 -0.16264233
-0.22396007 0.59696811 0.17942396
0.11022613 -0.15817948 0.73348892
-0.72039920 -0.05351166 -0.24361552
0.53997397 -0.39976734 0.05742696
0.53856152 0.20555171 -0.23530634
0.12425942 0.11401965 -0.75288695
-0.10747534 0.66114521 -0.23653619
-0.06362613 -0.39956233 -0.56683165
-0.14100653 0.33132866 -0.53056371
0.21632574 -0.66751188 -0.11881927
-0.09063529 -0.40482187 0.50390220
-0.35041314 0.58424371 0.06251340
0.37801507 -0.14474189 -0.48190525
-0.28654790 0.33659247 0.36988103
0.80842000 0.09163588 -0.08978339
0.23706289 0.05389064 0.69412374
-0.00194290 0.90864807 0.06320968
-0.04780173 0.00799618 0.94219792
-0.66097116 -0.05043053 0.29390442
-0.30383849 0.59647447 -0.10254822
0.10841558 0.04985921 0.81605577
0.14989112 0.14285102 0.69455194
-0.46223938 0.23251335 0.30665323
-0.27321285 0.13195322 -0.59771621
0.77406800 -0.07663231 -0.15022933
0.60242677 0.25698769 0.12857391
-0.14874518 -0.77855808 -0.09449676
-0.21138242 -0.24562441 0.54810941
-0.87358409 0.01566840 -0.11918083
0.53680253 0.40816149 0.03342527
-0.65618020 0.14398368 -0.21428999
0.21507286 0.38759744 -0.39114070
0.29677737 -0.04958624 -0.65572309
0.26209190 -0.41877815 0.31580079
-0.00162469 0.23991531 -0.73770863
0.46759874 0.50938904 -0.01086755
0.06668920 -0.05508106 -0.87219417
0.04577001 -0.22544682 -0.74485493
0.07589485 0.73468280 0.16625939
0.04480819 -0.14956233 -0.81449449
-0.83999425 0.03269874 0.13203196
0.06693526 0.81083536 -0.11003274
-0.69897407 0.17161550 -0.14295793
0.47171944 -0.37717861 -0.15637220
0.37117535 0.56091154 -0.06786697
-0.00018323 -0.33737367 0.65119624
0.03219600 -0.08309921 0.87997186
0.40116373 0.22228780 0.35622734
0.22557977 0.34544426 0.41172025
-0.28004628 -0.60840964 0.12052945
-0.04937515 -0.01069845 0.93824935
-0.00060953 -0.56265140 0.42001110
0.10566285 -0.13842086 0.75194746
-0.06734823 -0.56580871 -0.39341480
-0.02478805 0.05620540 -0.92847550
-0.16111599 0.02256814 0.80249095
-0.75319624 -0.16618125 0.09570723
0.41409975 -0.24740146 0.32889730
0.25115329 -0.04028305 -0.70841855
0.77518034 -0.06534961 -0.17218615
0.38188806 -0.00060218 0.59421200
-0.44559541 -0.50666416 -0.07065944
-0.09329996 -0.03630829 -0.89769679
-0.54327136 -0.37616840 -0.10808841
0.08562365 -0.46801475 -0.44638506
-0.25603929 -0.00460261 -0.74644697
-0.37401703 -0.36910093 0.26225209
-0.47069910 0.51443851 0.01869765
0.18925209 0.46222392 -0.34012964
-0.17381808 0.29768589 -0.53244370
0.26192677 -0.72265494 0.02152317
-0.34193996 -0.66181046 -0.03311495
-0.12173358 -0.16421080 0.71796322
-0.45194447 0.39056522 -0.16938013
0.02620550 0.28684047 0.66469818
-0.30141151 0.67171240 0.02294652
0.18889968 -0.70556355 0.08037639
-0.38889587 -0.26250988 -0.36662868
-0.70420283 -0.17776060 -0.13477139
-0.09693832 -0.04764998 -0.87368315
0.22774385 -0.67555749 0.08615986
0.55269134 -0.19833317 0.23813538
-0.26521629 0.55779052 0.17512423
0.26258105 -0.06499471 -0.67770118
-0.90968299 0.04415723 0.04517977
0.23727998 0.47224781 -0.28295434
0.03325552 0.72733420 -0.23998508
-0.33261725 0.32919472 -0.34431696
0.12635908 -0.45494157 0.43122494
-0.01294984 0.28982836 -0.69783992
0.06129450 -0.28948751 0.64337522
-0.45275769 0.26430762 -0.28896695
0.07523648 0.51301080 -0.40909609
0.74987102 -0.12106007 0.13285077
0.06555657 0.35146746 0.56409115
-0.92837739 -0.06722581 -0.04091218
-0.29834634 -0.16244611 -0.55949885
-0.08139021 -0.42620096 0.48926023
0.64544594 0.04933000 -0.29638687
-0.34281212 0.40554920 0.25134167
-0.25752148 0.24955556 -0.50119245
0.42608708 -0.54805672 -0.03806114
0.17235030 0.44177574 -0.36961329
0.60274619 0.13993050 -0.24645741
0.58756423 0.34070343 0.04585559
-0.25093308 0.30249095 -0.45620015
0.31183574 0.22775920 0.43519890
-0.16807696 0.71812332 -0.11531331
-0.89733410 -0.01157925 -0.10739195
-0.51932085 0.35546020 -0.13920888
0.03605171 -0.60473430 -0.36693636
0.22989284 -0.43734282 0.32290959
0.48730573 0.21903889 0.27498838
0.32236296 -0.66448641 0.02782853
0.55525935 0.04173666 0.38187540
0.05282684 0.77595705 0.14857133
0.19940563 0.50631475 0.27761000
-0.21875528 0.64645678 0.13430238
-0.00653698 0.17560294 -0.81456059
-0.21143311 0.39080179 -0.39762104
0.09799673 0.68627363 -0.20728682
0.29965174 0.56377947 -0.13206404
-0.35191512 -0.64827371 0.03351370
-0.08500987 -0.66101533 0.26434559
-0.09361533 -0.68834174 0.21817473
0.28072411 0.26213318 -0.45233524
0.14531846 0.54642284 -0.30311570
0.03710844 0.69388324 -0.26099983
-0.75087082 -0.21480386 -0.04727320
-0.08066490 -0.47594178 -0.47368240
-0.06605598 -0.91428322 -0.02593734
-0.02623108 -0.72681546 0.25021753
0.02620953 -0.75789982 -0.22435717
0.27390075 -0.25380009 0.47432327
-0.60707480 0.28695008 -0.11509515
-0.42309868 0.06905080 0.50510883
0.00618328 0.95562333 0.01278251
0.14663507 -0.57985955 0.27788258
0.02401544 -0.57633740 -0.40767407
-0.50475788 -0.28583959 -0.22895122
0.19075561 -0.51631051 -0.29556352
-0.51082981 0.39550385 0.09344953
0.73004508 0.12090211 -0.13562000
0.46999252 -0.15589084 -0.37511414
-0.23977174 -0.32596946 -0.44988009
0.29878199 0.62017488 -0.06868393
-0.31625655 0.29072478 -0.39967352
0.23837125 0.15667911 0.58556175
0.46402389 0.45499900 0.05854020
0.40387362 0.46012482 0.11942467
-0.17536794 0.68106627 -0.15136060
0.06278326 -0.73636723 0.19401139
-0.08288263 -0.91669446 0.01727508
0.10323036 -0.81445640 -0.07713465
0.40003887 -0.42842048 -0.17488322
0.47798321 0.34025818 -0.17583056
0.38900855 -0.32622010 0.28621721
-0.59485674 0.33187133 0.06938347
0.21707048 0.28607079 0.48106098
-0.45959559 -0.41852325 -0.14733629
0.44577351 0.44029066 0.09594513
0.17905447 -0.77550107 0.03483457
-0.22880666 -0.69029301 0.08945453
0.10275652 -0.48832074 -0.41335917
-0.16832611 0.42009571 0.40645519
0.51622277 0.13929385 -0.33700007
-0.13827071 -0.86577278 0.00037853
-0.15359619 0.62658656 0.21959707
-0.20276576 0.60135710 -0.20454741
-0.02240069 -0.66360891 -0.33822623
0.25456488 0.35631427 -0.37721530
0.61551613 -0.15225577 0.22436592
-0.03019428 0.93655974 -0.04738484
-0.61655688 0.20170806 0.17862073
-0.23569565 0.12275067 0.63812584
0.56145209 -0.19048938 -0.25038680
-0.29699218 -0.65483886 0.05381933
0.26602483 0.32295746 -0.40759224
-0.13086215 -0.79754883 0.08172318
0.48375198 0.41094121 0.08706563
0.00135275 0.55352145 0.40922838
0.17216451 0.63275319 -0.19074473
0.10808668 -0.12696706 -0.76010323
0.91554767 0.01589996 0.03907065
0.03976937 0.39088905 0.54909980
-0.05544107 0.71611768 0.22205582
0.05010916 0.64789331 0.28598478
0.92585409 -0.01789254 -0.05010587
-0.01127867 0.79703933 -0.19069234
0.74979097 0.10070939 0.13099878
-0.05779233 -0.24218547 -0.71606153
-0.04098155 0.73575622 -0.22484389
-0.05756312 -0.42875201 -0.52982134
-0.01078473 0.38410529 -0.60615289
-0.74282646 0.20910385 0.04320315
0.59656411 -0.21651743 -0.18994954
0.72313690 0.00055939 -0.26804072
-0.25280625 -0.40836677 0.35255757
-0.48818237 -0.53074354 -0.00212471
0.69895607 0.12992167 0.14961034
-0.03144376 0.38042548 0.57742774
0.57368433 -0.06553364 0.36846292
0.46709427 -0.36671013 0.16144398
0.46841773 -0.23255144 0.29561448
-0.34389174 0.38349545 0.27071401
0.63010478 0.22156315 0.12476481
0.17615654 0.74517870 0.06188622
0.31360406 -0.12001607 -0.56794566
0.12647590 -0.78635019 -0.08389214
0.60059845 0.36836833 0.00746214
0.66867691 -0.04218551 -0.29096234
-0.26651049 0.01154052 -0.72291285
0.10615639 -0.10355831 0.78543460
0.04106273 -0.00395263 0.94114304
-0.03053029 -0.40815726 -0.58562565
