0.12994367 -0.44291615 0.54557043
0.29159397 -0.10796604 0.70607841
0.15169737 -0.21058282 0.91330367
-0.24749629 -0.12783438 -0.03956549
-0.07601122 0.19851717 -0.08623484
0.20176232 0.09682049 0.44055596
0.18453072 -0.36432624 0.78176415
-0.05282281 0.24947429 -0.25993752
-0.36177373 -0.10412745 -0.34110141
-0.13795845 0.13266690 0.39162445
-0.14051908 0.21369353 -0.54353732
0.22179860 -0.26033029 0.35285759
-0.30621564 -0.16676567 0.70558429
-0.08399111 -0.47442248 0.47985062
-0.15997534 0.14349237 0.41441226
-0.00253023 0.04879934 0.76787597
-0.28221685 0.06789415 0.51485568
-0.27977869 0.03328709 -0.32693386
0.04054263 0.22895363 -0.58607423
-0.00498558 0.16303200 -0.62802559
-0.10372511 0.25911957 -0.39348757
-0.09463371 -0.35453886 -0.07108223
0.23679812 0.04035781 -0.22017807
0.21777205 -0.36175629 0.60657632
-0.17796911 -0.17665324 -0.20386752
-0.25046098 -0.09126404 -0.43160206
-0.16094169 0.19163454 0.11273625
-0.24827518 -0.01972683 0.24838184
-0.12553912 -0.37200946 0.00468913
0.15343915 -0.23416269 -0.12118995
-0.31850150 -0.04997499 -0.30355009
0.23185895 -0.33861303 0.49058071
-0.10172464 0.16581252 0.19058813
0.15594456 0.23295504 -0.29898855
0.27402622 0.00948247 0.13413762
-0.29401156 -0.04819667 0.54130524
0.20208956 -0.21895561 -0.04193091
-0.07600722 0.15178934 -0.59629893
-0.21018846 -0.34570235 0.39625579
-0.09084986 0.20479542 -0.14231145
0.19713736 -0.12707174 -0.23631272
-0.30199817 -0.14332351 -0.32629451
-0.20111626 -0.36617601 0.36260104
-0.29861426 0.20581877 0.04326244
-0.26429927 0.02014041 0.17948990
0.26645616 -0.29094434 0.56365603
0.11690834 -0.21424660 -0.30122405
0.23383971 -0.13736400 0.84309661
0.10222793 0.07368587 -0.49851966
0.20455724 0.14597201 -0.21884885
0.27810743 0.00540265 0.63896847
0.25978136 0.07250503 -0.34844816
0.23905367 -0.08818904 0.38188124
0.36723214 -0.11121769 -0.41388893
-0.01599598 -0.29916155 0.94660240
-0.16534740 0.10796425 0.35248342
0.18085694 -0.29796022 0.85246527
-0.07811853 0.10137673 0.70018840
-0.24990839 -0.25341010 0.42410359
-0.31082287 -0.22035974 0.59851158
-0.13092014 0.10894227 0.69047290
0.27208757 -0.26755565 0.53744221
-0.23712085 -0.05561558 -0.40409565
-0.29964197 -0.19621664 0.71521205
-0.23067267 -0.38064006 0.59349877
-0.06669083 -0.14679579 -0.47301352
0.05168965 -0.41239163 0.08347844
-0.02185086 0.18446350 -0.62468386
-0.18294710 0.10237928 -0.05842699
0.00047855 -0.47340491 0.71964484
0.21071658 -0.13183872 -0.26756945
0.23622540 0.01869121 0.74938619
0.28745592 -0.25059551 0.66422623
-0.25634283 -0.15468648 0.32270694
-0.16144063 -0.10246328 0.90872383
-0.01565036 -0.49492717 0.59372902
0.21475020 0.14129004 -0.23362857
-0.20171323 0.11016311 0.40227124
0.23757422 0.12096663 -0.23392540
-0.15642251 -0.37263754 0.14332074
-0.22660115 0.01115116 0.39901161
-0.27799949 -0.18022749 -0.39345545
0.30689391 -0.10867758 -0.44526005
-0.17450178 -0.35151634 0.14558950
-0.12340809 0.17057842 0.56907928
0.26417893 0.15797213 0.62137902
0.11743424 0.22719431 -0.51814854
0.25096992 0.04316787 0.17235522
0.22685574 -0.31265008 0.44416913
-0.27684274 -0.12342900 0.78566217
0.16581371 0.10091759 0.41866791
0.17942978 -0.17362262 0.89749277
-0.32056090 -0.15794186 -0.37341201
0.07872449 0.08545540 0.72362852
-0.02477684 -0.18156505 -0.44094074
0.19431511 -0.11462007 -0.19416410
0.22998811 -0.05450205 0.37698585
-0.20458359 0.09995675 0.21027094
0.12783216 0.14898589 -0.08985317
0.38828999 -0.15650955 -0.37567198
0.08435144 -0.23559953 -0.29886782
-0.14000562 0.17218348 0.12821050
0.17048204 0.11904845 -0.13048100
0.16051692 0.19055736 0.12012011
-0.12339076 0.13699773 0.37253153
-0.21828347 0.13591023 0.68426436
0.29155713 -0.23909047 0.60447198
0.28773710 -0.00956486 0.59974396
0.20073776 -0.13753246 0.88049889
-0.28121278 0.00820926 0.02830812
-0.24954332 0.04942097 -0.42165631
0.28126660 0.09286182 0.58852136
0.23964132 -0.00350812 0.49601638
0.02119109 -0.47061563 0.42677194
0.25466770 0.06573810 0.15606862
0.30136421 -0.11090712 -0.40930724
0.12929630 -0.25277409 -0.16455510
0.05046120 -0.32282263 0.93490601
-0.19671634 -0.15118352 0.89419609
-0.06526867 -0.26859260 -0.28992000
-0.10128214 0.19745445 0.04800420
0.23092140 0.00896810 -0.20389658
-0.15783033 -0.37468547 0.19197653
-0.30853477 -0.08731357 -0.38397586
0.14844048 0.22288156 -0.48398751
0.24351540 0.11075261 0.13497925
0.22971506 -0.27708220 0.78872693
0.15801567 0.07844299 0.73838371
-0.06241212 0.19838315 0.04037400
0.25572097 -0.31105849 0.64619869
0.08139166 -0.04251452 0.88401192
0.18114163 -0.15703900 -0.25621852
-0.22292767 -0.08563901 -0.43159091
-0.21875523 0.04258294 0.33601201
-0.18624918 -0.10418548 -0.47790551
0.07278415 -0.46222132 0.44518661
0.38038763 -0.16885254 -0.40486747
-0.11217619 -0.40619880 0.06301153
-0.30703905 -0.09683268 0.55325270
-0.26754507 -0.04391653 -0.37969762
0.16884567 0.08582190 0.38862294
0.21898459 0.20148271 -0.30512512
0.21241318 0.02462642 -0.16567132
0.25895226 0.14061472 0.40964407
0.29301623 0.15550095 0.47004089
-0.23890862 -0.33178431 0.72677034
0.22276400 -0.35846704 0.57135689
0.13877821 -0.40188831 0.29409575
-0.28734690 0.05692691 0.54898125
-0.23053731 -0.36917913 0.57948083
-0.13425417 -0.39213374 0.15093175
0.17462558 -0.38539746 0.41921791
-0.03358896 -0.24279447 -0.36620194
-0.29409674 -0.24434258 0.67339534
0.00525124 0.17465138 0.43115404
-0.22952496 -0.05320423 -0.03892519
0.05163302 -0.12509930 0.93032235
0.20376913 -0.28224307 0.12580359
0.14569889 0.12906866 -0.05688782
0.10172138 -0.44020143 0.72163332
-0.34934035 -0.17277792 -0.46252811
-0.21347749 0.09440921 -0.16298246
0.03978347 0.22720122 -0.17736343
-0.19588804 -0.33676052 0.24985953
-0.06280996 -0.42018175 0.08161636
0.12393816 0.19332391 0.54683530
-0.26043761 -0.29451048 0.73507452
0.27110666 0.04992113 0.65516126
-0.22268187 -0.25697565 0.01081964
-0.23401341 0.06030385 0.21119528
0.18563282 0.10518944 0.22467047
-0.12449787 0.18970290 -0.03194074
0.11057181 -0.21842787 0.93834966
0.14335451 -0.29200476 -0.07870935
0.14100885 -0.39104864 0.26050916
-0.01981155 -0.24820210 -0.34779346
-0.14982848 0.24791718 -0.31203228
-0.05791957 -0.08643381 -0.50708580
-0.25025511 -0.08357131 0.37352902
0.27579132 -0.11790552 0.76227230
-0.17278998 0.21824303 -0.48825395
-0.24290638 -0.34302136 0.47973144
0.20992912 0.08774655 -0.03263372
0.23446010 -0.34333146 0.52787411
0.07717122 -0.38327235 -0.00392166
0.14353353 -0.40941712 0.37422180
-0.24428272 -0.02503731 0.33977765
-0.14037341 0.21451917 -0.51120681
0.20979621 0.11776552 -0.04436705
-0.07928074 0.24460828 -0.55126297
0.00361440 -0.43805549 0.11466599
0.20516962 0.09819743 0.71121192
0.17344539 -0.40924636 0.48895884
-0.21988046 0.20408279 0.11386278
-0.13173191 -0.43913132 0.70077610
0.20594384 -0.16977823 0.86801142
0.20890605 0.09410082 -0.46457177
0.26312864 -0.03215117 0.72953218
-0.11452559 -0.34241104 -0.09041065
0.08630633 0.17750564 -0.10006055
-0.31672427 0.17406267 0.42088377
0.22834726 -0.01408619 0.44281259
-0.26602805 -0.18894634 0.15242605
-0.29315746 -0.17363384 0.10248893
0.25541788 0.01986952 0.52045333
0.23230258 -0.09740686 -0.43462974
0.09501756 0.19033456 -0.04095624
-0.06860609 -0.32303059 0.93125725
-0.00149502 -0.10236108 -0.50698417
0.25240415 0.02145047 0.72071457
0.27244222 0.09547268 0.03354041
-0.24245851 -0.21937141 0.82496828
0.30127400 -0.17466921 -0.46636856
-0.07274168 0.16413274 0.40692383
-0.27131957 0.10875469 0.12676898
-0.04907053 0.24542207 -0.56595206
0.18910043 0.17913082 -0.06952086
0.14140826 -0.07978929 -0.47920001
-0.18324880 0.17194155 0.62681520
0.23400709 0.09639777 -0.45023012
-0.21621716 -0.13351622 -0.49845016
-0.29194748 -0.00465497 -0.34704643
-0.13232282 0.19637710 0.06928132
-0.20984657 -0.13694057 -0.08573759
-0.15540741 0.12111636 0.38918817
-0.28980684 0.05384803 0.64953202
-0.32627314 -0.18374586 -0.40849352
-0.02123232 -0.44626763 0.23328532
-0.16280973 0.13934907 0.19612621
0.01988193 0.26349211 -0.37479246
-0.21940660 -0.27799705 0.04912176
0.03221889 -0.48663741 0.63148654
0.07582214 0.17868361 -0.60536516
-0.21351770 -0.10736866 -0.47535306
0.15102431 -0.26890004 0.89474440
-0.10433929 0.09657829 -0.51106620
-0.23773932 -0.25817508 0.33242548
0.18189013 0.08808731 0.72875392
0.17897324 0.05890521 0.40665781
0.31656221 -0.09496954 -0.39113218
0.20454818 -0.00826961 -0.14569429
-0.12233439 0.21758732 -0.19921315
-0.16037938 -0.32018071 -0.03369384
0.26892728 -0.15915835 0.08569141
-0.26607484 0.19646963 -0.06819351
-0.39522436 -0.11712071 -0.36191875
0.24513410 -0.08188553 0.27056557
-0.13750291 0.12572496 0.35998207
0.13470264 0.14674950 0.21493581
0.10595273 0.16508588 -0.07403575
-0.20436417 -0.07352562 -0.10985115
-0.29645526 -0.12489390 -0.50701863
0.07088289 -0.06736572 0.88340515
0.01321493 -0.36534131 0.90501040
0.20902373 -0.29220581 0.31811604
-0.08627351 -0.47123724 0.57710892
0.25083762 -0.17119640 -0.34892976
-0.22544849 -0.27799755 0.08588050
-0.16495551 -0.19904467 -0.29338461
0.25015393 0.05803590 0.49812290
-0.28159225 -0.05213434 0.74971688
0.23201369 -0.24145710 0.10792679
-0.27837485 0.05583261 0.14038160
-0.07789540 0.22160387 -0.18370563
-0.00725314 -0.42804247 0.06304093
-0.29183477 -0.04990043 -0.29172945
0.00441428 0.16938975 0.47756827
-0.06878167 -0.22075285 -0.37677085
0.23701796 -0.21445738 0.40213564
-0.12545490 0.17201293 0.11255399
0.00707493 0.17636734 0.25181419
-0.11629321 0.03378497 -0.51000684
0.25255293 0.09746163 -0.25463310
0.11799361 0.19761598 -0.56398255
0.04137665 -0.48167387 0.44501978
-0.20414715 -0.40080974 0.64292586
0.23857455 0.03622800 0.50011015
-0.01835516 -0.28722391 -0.28509068
0.18781573 -0.30374444 0.06868700
-0.28739324 0.05412692 0.11702845
0.11081150 -0.08960958 -0.49706727
-0.22775915 0.09133103 0.44304159
-0.16028348 -0.40242457 0.31441593
0.17009385 -0.31545347 0.02123955
-0.15806317 -0.08164661 -0.47531992
0.02755317 0.11178721 0.66619742
-0.15985079 -0.01389894 -0.50361091
-0.29480961 0.07571843 0.63749152
-0.00895561 0.18576598 0.30065995
0.26955566 -0.03342555 0.03998291
-0.20073503 -0.08649452 -0.43462032
0.20946175 0.02915780 0.29130718
-0.26296741 -0.31242692 0.50002241
-0.00158418 0.14926344 -0.61464512
-0.11602086 0.09681650 0.70793217
-0.15921888 -0.24636835 -0.13943732
-0.05338586 -0.33514774 0.92917675
0.09975397 0.23412937 -0.25849655
0.00636183 0.20469663 0.02054931
0.23858517 0.17385831 0.62409157
-0.04901743 0.20497072 -0.06430501
-0.02802542 0.11895894 0.65033603
0.11596332 -0.44172847 0.69332850
0.28803158 -0.04994933 0.68366832
-0.04771385 0.25994751 -0.52286232
0.16108607 0.24037912 -0.36132956
-0.20924917 0.00469367 0.80311930
0.26659811 0.18583816 0.60081983
0.27611101 -0.15014288 0.75257266
-0.01258781 -0.45124540 0.30080637
-0.09911415 0.16409779 0.50182080
-0.03220239 -0.03072467 -0.51946038
0.27590910 0.05868824 0.58906913
-0.16775768 -0.13708439 0.91070163
-0.08750105 0.15890399 0.42864048
0.04837589 -0.46367255 0.41488236
-0.04584875 -0.39612651 0.85777777
0.14570586 -0.36512402 0.17398697
0.21714376 -0.05177124 0.83998823
0.25480574 -0.31801248 0.62590903
0.24130549 -0.21848041 0.81354946
0.26476878 0.08113874 0.67059493
-0.08041120 -0.43630028 0.26472867
0.20522335 -0.23126227 -0.02855583
-0.17448328 0.13310283 -0.06182586
-0.15159950 0.23717192 -0.27828953
0.27981472 -0.26082146 0.57165110
0.18594393 -0.28498793 0.01197760
-0.08709113 -0.33032876 0.91460091
0.08229771 -0.31443194 0.92734152
0.23634766 -0.15954790 -0.32497659
-0.00298704 -0.43840024 0.80151963
-0.00838828 0.18042195 0.33393729
0.04592308 -0.35983190 0.91605622
0.03581137 -0.04889489 -0.51698118
0.26607963 -0.01031353 0.71217495
0.20837675 -0.30738324 0.39189655
0.11175928 -0.03471585 -0.51297492
-0.28452024 0.16356349 0.39007130
-0.03476130 -0.47281927 0.35111150
-0.25099373 0.16635993 -0.06193106
-0.11463684 -0.31126273 0.90985233
-0.07099115 -0.09514060 0.91861212
-0.29006609 -0.16812210 0.75181758
0.25427368 -0.08437330 -0.28376138
-0.36129802 -0.17147762 -0.40495622
-0.20289196 0.14570990 0.15901481
-0.11074680 -0.32165879 -0.14501041
-0.23218971 -0.17110173 -0.45787442
-0.12249242 -0.23955257 -0.25963795
0.25731230 -0.29370216 0.50869775
-0.03426126 0.16650483 0.46688712
-0.09679295 -0.22205716 0.94622797
0.10361082 -0.28463638 0.93304467
-0.04283625 0.17509249 -0.63439810
0.19081299 -0.17464244 -0.09243208
0.25251767 -0.07678022 0.45424205
0.13055940 -0.34753430 0.00639255
-0.19485354 -0.33263057 0.19307801
-0.28785586 -0.17181030 -0.35587132
-0.26108387 0.18007821 -0.39158010
0.22343029 -0.21596514 -0.01095866
0.23389161 -0.21915683 0.22933657
0.27049938 -0.08868436 0.49122760
0.20085481 -0.38165385 0.63680673
0.02331243 0.16470727 0.45332476
-0.02777342 0.26423797 -0.34335858
0.32759440 -0.05286682 -0.31809697
-0.27192667 -0.01392779 -0.37750036
0.06899600 -0.39293945 0.01303115
-0.02241079 -0.35153750 0.92092568
0.01488262 0.12734997 -0.59456497
-0.26029891 0.02520660 -0.01440039
0.27175739 -0.05933914 -0.37987113
-0.11408783 -0.45228666 0.63221192
0.22819114 -0.04647224 0.40345120
-0.27245253 -0.05772056 0.48851845
0.23029378 -0.30822784 0.76811844
0.14383976 -0.19291839 -0.35572374
-0.23339650 0.16836879 0.64540887
-0.04078751 -0.46098250 0.73943877
0.27720639 0.08594932 0.54287624
-0.21299741 -0.31427705 0.24892116
0.19675101 0.01036535 -0.11189285
-0.33518869 -0.10996719 -0.42624277
0.14373764 0.02391301 0.81114405
0.11091801 -0.45699477 0.60963833
-0.27238521 -0.21556364 0.77642924
-0.02967458 0.00357680 0.83625519
0.09018300 -0.08807195 0.91225815
-0.30692455 -0.14719090 -0.34724581
-0.00679075 0.26415995 -0.52697998
-0.09437319 -0.34549677 -0.08617491
-0.06097392 0.18993732 0.10649236
-0.13150771 0.16003132 -0.53334463
-0.15122369 -0.16894132 -0.43327248
-0.03249314 -0.29100135 0.94535625
-0.25047609 -0.23260193 0.31372920
-0.04782097 -0.00742965 -0.52077967
0.04980347 0.17944598 0.03912030
-0.26924121 -0.21210793 0.06592779
-0.07764244 -0.25512066 -0.30728242
0.25391519 0.14828727 -0.43243605
-0.10989352 -0.15086931 0.93511540
0.20620126 -0.35315043 0.70566761
0.00590773 -0.19637355 0.93219328
-0.15050159 -0.36449867 0.05742078
-0.26956421 0.07057108 0.00774120
0.26099229 -0.15250097 0.80008125
0.14714293 0.14140362 0.16442631
0.12790132 -0.43885124 0.62830508
0.18037909 0.11541004 0.20262024
0.00462312 -0.44534466 0.29990906
-0.18944545 -0.18350562 -0.39509934
-0.27505019 -0.18243352 0.05495674
-0.18032023 -0.23055449 0.89602929
0.22603987 0.02773441 0.23388451
-0.29933813 -0.01427776 0.07392049
0.20284137 0.11760031 -0.18950695
-0.25640383 0.16511822 0.37301353
-0.10509607 -0.06969570 -0.50901997
0.03480611 -0.18046290 -0.43947238
-0.06054313 -0.46036452 0.36315072
0.16475701 0.10578635 -0.09657082
-0.17201219 -0.19921884 -0.34762549
-0.04056699 0.26489365 -0.44907308
0.10004833 0.23616558 -0.52094632
0.33874610 -0.11758843 -0.44057608
-0.26280358 -0.00529403 -0.39418966
-0.18460557 0.17611089 0.13313627
-0.30271360 -0.01134928 -0.33478445
-0.19117942 -0.32740510 0.08685306
-0.09600396 -0.37431249 0.85540450
-0.10593602 0.19022477 -0.03655921
0.19574860 -0.33800399 0.79290771
0.06451454 -0.46747679 0.46573898
0.22531073 0.18807226 -0.43899381
0.26218489 0.02404563 0.16459893
-0.34820455 -0.14198688 -0.36591655
0.27979532 0.06234698 0.09971418
0.12780413 -0.37438753 0.09227140
0.06363995 0.16245678 0.35219851
0.24185899 -0.20857078 0.02187988
-0.26592666 0.02224098 -0.26511082
0.20016266 -0.14943308 -0.27403143
-0.37793082 -0.11165503 -0.42018276
0.29746878 -0.07676268 0.66725945
0.05525375 -0.42432141 0.20698097
0.06101381 0.24459118 -0.54339999
0.27212027 -0.13390127 0.47740385
-0.02450284 0.13707955 0.60514474
0.24657431 -0.11560494 -0.28193152
-0.08427805 -0.25370300 0.94399351
0.12013770 -0.44154003 0.45898995
0.10247730 -0.45063594 0.43125853
-0.21929471 0.05607018 0.26801264
0.08623420 -0.39474887 0.82974380
0.03550103 -0.35689181 -0.10168803
0.21926132 0.14387253 -0.05533372
-0.09819904 -0.00234320 -0.52327937
0.02025822 -0.03333881 -0.52037567
-0.29137826 0.07387570 0.57714331
0.21296792 -0.32194710 0.41770810
-0.17614295 0.22295892 -0.25945634
0.28075996 0.00883078 0.08784463
0.14021090 -0.20398559 -0.24986422
0.17042638 -0.18347859 -0.18584502
-0.22414245 -0.29459623 0.18490520
-0.06481020 0.21093857 -0.60246056
-0.24253310 -0.24679960 0.29882422
-0.16871287 -0.39390728 0.35201275
-0.30212188 -0.17242040 -0.45509785
0.26039180 0.11464615 -0.28130203
-0.28321224 -0.18508083 -0.42394924
-0.14789993 0.01770498 0.81254894
0.14153081 0.25142622 -0.38655692
-0.22787881 0.07738674 -0.45674819
-0.29245770 0.09123687 0.60491383
0.16620255 0.13086192 0.68472755
-0.30476922 -0.11039684 0.50001454
-0.25456735 -0.16036065 0.38549736
0.23354438 -0.07079622 0.38822457
0.24345863 -0.02778490 0.77396113
-0.12635747 0.17762679 -0.56407475
-0.25550887 -0.23283963 0.14475760
0.25674352 -0.19082774 0.11390358
0.24226946 0.19372588 -0.07831390
0.08375023 0.26107737 -0.33638716
0.07729413 -0.26076782 -0.24884564
0.14113232 -0.32852370 -0.01991451
-0.18585433 -0.41450533 0.60397828
0.06741983 -0.03130487 0.87646824
0.35320222 -0.09924825 -0.38113827
0.00733445 -0.43373328 0.15191463
0.18129602 -0.28089201 -0.02265352
-0.16363414 0.00767252 0.82971078
0.20288840 -0.03697249 -0.15214133
-0.20310271 0.09229884 0.23668079
0.26213413 -0.12710579 0.17708069
-0.17710535 0.11494237 -0.07066664
-0.02516338 -0.44105625 0.11736679
-0.37666225 -0.13249160 -0.49592263
-0.03927536 -0.38594994 -0.06061204
0.26017311 0.02453808 -0.36158597
-0.27216759 0.10433699 0.45650044
-0.24416518 -0.26898110 0.80177033
0.00662623 0.08511814 0.71062523
-0.15908849 -0.29350394 -0.05266403
-0.02837612 -0.03994717 0.87708569
0.22766298 0.08314593 0.17884378
-0.19610563 0.14616627 0.40026152
0.24501932 -0.02391780 0.20885873
0.19998737 -0.02405914 0.82702047
-0.17605630 -0.00944988 0.83701259
0.16680485 -0.11678721 -0.47939599
0.22066014 0.16786671 0.36199838
-0.00133612 0.14875883 0.56605530
0.17852975 -0.36554369 0.37371057
-0.00882099 -0.27457452 -0.31810001
0.12807679 -0.17606995 0.92605072
0.37199825 -0.14607540 -0.49315423
-0.07340873 0.00386239 0.84126508
-0.01421967 -0.34808892 -0.15408108
0.43309736 -0.14794268 -0.43900168
-0.08015527 -0.37776285 -0.03910832
0.18940128 -0.17435333 -0.32583895
0.05114014 -0.45609710 0.35291964
-0.15242285 -0.19536409 -0.33997649
-0.03346050 0.10021441 0.69668895
0.00294932 0.26309139 -0.37091845
0.24295382 -0.03512709 0.47797540
-0.30197659 0.19073403 -0.00872412
0.20374693 -0.31461483 0.80476761
0.05525206 0.25797039 -0.40105397
-0.30840725 0.15775868 0.54349566
-0.29256204 -0.14983651 0.12653542
-0.29967505 -0.02351445 0.64771557
-0.28677860 0.01209035 -0.32308501
-0.25702578 -0.19120428 0.39224413
-0.19398922 -0.28617606 -0.01754723
-0.15667473 -0.38420025 0.24999420
0.01806777 -0.46662885 0.72208387
-0.04953602 -0.43546411 0.80148041
0.26675731 0.13721205 0.62922037
-0.19367525 -0.38628194 0.71018791
-0.20771834 0.09752731 0.71926427
0.02529781 0.25681281 -0.54299664
-0.14764750 -0.41025698 0.28064331
0.41372201 -0.15484017 -0.44438845
0.11795358 0.13748230 0.33059174
-0.16434093 -0.42475051 0.47753623
-0.22752006 0.13325906 -0.47367430
0.30612266 -0.12776379 0.57982183
0.24286136 -0.10813802 0.39085823
0.01034176 0.18069455 0.39190078
0.23925540 0.09874400 -0.02375774
-0.20812210 0.12685758 -0.05889724
0.18187776 -0.13575652 -0.46477515
0.09358250 -0.45460910 0.68613225
0.06810170 0.25837493 -0.31540164
0.16162816 -0.39728993 0.71930462
-0.27068064 0.12849177 0.65667963
0.03148409 0.23629436 -0.21297768
-0.22303374 0.01820168 0.78540725
-0.07631724 0.20111212 -0.12063429
-0.22105046 -0.29205781 0.81052679
0.24637800 -0.09503833 0.32438689
0.01094324 0.26379901 -0.31491691
0.07252168 -0.41355774 0.13236091
0.29687965 -0.17191365 -0.40731978
-0.27129403 0.12668246 -0.29662728
-0.09669700 0.07394649 0.73751599
-0.27600864 -0.10073610 -0.29359731
0.27709675 0.03951727 0.11534022
-0.10059281 0.20275587 -0.17583922
0.14404102 0.10938959 0.33076978
0.28183836 -0.22135824 0.50985056
0.25066245 -0.00190718 -0.25657943
-0.25602487 -0.23318590 0.12192146
-0.23839599 0.16214082 -0.25490236
0.18908322 -0.20520321 -0.07616448
0.18444937 -0.31255925 0.17025322
-0.19695957 -0.38806084 0.44439688
-0.29337546 0.14266199 0.56956428
-0.23205805 -0.28653407 0.35066360
0.00413294 -0.42237368 0.82157648
-0.26236057 -0.12316538 0.40616030
-0.24377725 0.05555084 0.47843838
0.27720222 0.16896197 0.58210826
0.05838754 -0.21853399 -0.37399238
-0.11461996 -0.25836521 -0.22347286
-0.44203615 -0.15435746 -0.42017406
-0.40069377 -0.13959725 -0.48827159
-0.01237523 0.16233894 0.51998138
-0.29483247 0.12653854 0.48028433
0.23374608 -0.11595435 0.83619869
-0.18250896 -0.25371617 0.88886118
0.23222056 -0.22248617 0.38656336
-0.02685363 -0.48646596 0.42725950
0.07061173 0.18420607 0.08883304
0.04795405 -0.42072392 0.11108920
-0.02549005 -0.21516959 -0.40967989
-0.13251120 0.18279102 -0.05706888
0.10938478 -0.41963866 0.28727642
0.24191086 -0.33704013 0.60161883
0.05197905 0.21014160 -0.17618513
-0.25067484 -0.32560927 0.47504792
0.26686221 0.12917320 -0.37883532
-0.30507469 -0.07903769 0.69836760
0.44242391 -0.16373061 -0.40027755
0.16732600 0.01102597 0.81676435
0.41699201 -0.14805403 -0.42115426
-0.19614802 -0.31889388 0.13856050
0.17523254 0.13303395 0.17279425
-0.28658754 -0.08846472 0.48819023
-0.04817350 0.06656386 0.74178547
0.13431768 0.14258984 0.40733582
-0.24903472 0.07142586 -0.21331260
0.07879792 0.15492201 0.42386094
0.02233272 0.18035701 0.28330767
0.21104304 -0.18897742 0.85972458
0.27643767 0.04893476 0.57094169
0.06039497 0.08487536 0.70625800
-0.39081678 -0.15568756 -0.38420355
-0.38557997 -0.10393631 -0.34495735
-0.25458899 -0.01097789 -0.01111414
0.01584103 0.25717384 -0.27143496
0.05437163 -0.46534282 0.38456795
0.27364591 0.01746233 0.55794322
0.09760344 0.18164745 0.50669515
-0.18662795 -0.17155623 -0.27401888
0.32456455 -0.10906333 -0.42173284
-0.28407696 -0.00627893 0.70319915
0.26363948 -0.27010840 0.72645342
-0.25486979 -0.23027396 0.79865098
0.23467633 -0.03603031 0.31107044
-0.18668027 -0.37742528 0.31590620
0.08736671 0.07159030 -0.50691283
-0.15130728 -0.12529698 -0.46501482
0.18303554 -0.05742713 0.86681670
-0.26629016 -0.18877722 0.79967690
-0.08380850 -0.45593527 0.35024241
-0.16808167 -0.01452059 0.85136980
0.10718627 0.15960142 0.20846748
0.19711037 -0.12422485 -0.21202064
-0.01565950 0.19263437 0.24313769
-0.11644571 -0.23677973 0.94016647
0.09174559 0.10652076 0.69982862
-0.27884486 0.05337271 -0.35836393
0.24061453 0.06364094 -0.42071331
-0.13201135 0.24535131 -0.27215767
0.35201329 -0.09649069 -0.31349707
0.04911631 0.18128371 0.26415074
0.27290651 -0.18442661 0.76242918
0.20472844 0.07009526 0.45494878
-0.00259409 0.06697975 -0.54893148
-0.08619311 0.25844428 -0.42500323
-0.06145810 -0.41697189 0.04422334
-0.26358432 0.08475398 0.15308686
-0.22999811 0.04245058 0.25122136
-0.03652288 -0.33657742 -0.17849085
0.26226589 0.18503368 -0.05963825
0.01184564 -0.34442851 -0.15383142
0.19847980 -0.02311157 -0.10024491
0.05311821 0.25074843 -0.46635348
0.02860544 0.12018602 0.64226282
0.02975249 0.19990772 -0.03235689
-0.15527931 0.24636236 -0.34444714
-0.15203151 -0.07051623 0.89487076
0.24465707 -0.12883434 0.36526829
0.24926263 -0.31777138 0.55070305
0.09309345 -0.18055563 -0.40753937
-0.15413956 -0.42141870 0.33928883
-0.28966457 -0.05316253 0.05032565
-0.23890060 -0.24913512 0.82742202
-0.25736183 -0.19042486 0.23058192
-0.18339321 -0.18965608 -0.14950213
0.24109758 -0.06503171 0.32666194
-0.10068550 0.19652283 0.01766700
0.26099381 -0.00796914 -0.37292409
0.27474397 0.08867645 0.05506217
-0.11529281 0.15914619 0.59933698
0.08146187 0.18417084 -0.02750053
-0.15342475 -0.03348884 -0.49966663
0.28258789 -0.01304998 0.12206388
-0.13217798 -0.43043590 0.30685294
0.28478038 -0.24256477 0.56777036
0.07027878 -0.48183227 0.59664077
0.19928923 -0.09441424 -0.19553977
0.27782384 0.09962526 0.60644060
0.09757812 -0.25086105 0.94376993
0.02593962 0.20250770 -0.05234888
0.02925491 0.26321617 -0.38978791
-0.26171947 0.08704403 -0.24993077
-0.25774664 -0.09014803 0.33863026
0.16378336 0.23545566 -0.33958709
0.22352506 -0.26734585 0.39386427
0.07437333 -0.29559892 0.94422930
0.15320431 0.10233319 0.37186021
0.26758042 0.06285891 0.02491167
-0.22325970 0.07411546 0.73177868
-0.28184000 0.08669400 -0.32544619
0.07401192 0.02681974 0.81097478
0.22702740 0.13708621 0.39828593
-0.24163054 0.01954362 0.75789779
-0.00951328 -0.15183043 -0.49138248
0.10348678 -0.16084306 -0.43505180
-0.14382498 -0.25844720 -0.18204066
0.08949370 -0.36061773 -0.03479156
0.22969940 0.20538458 -0.35746247
-0.32934099 -0.09275633 -0.32611611
0.06781299 -0.43906751 0.32437289
-0.23899345 -0.30349308 0.44751358
0.05017544 0.12493826 -0.58023858
0.25698286 0.00192758 0.17812601
0.18695672 0.17249769 0.38123852
0.26978365 0.07921785 0.64765370
0.01889800 -0.43693379 0.17553465
0.21391195 -0.06390867 -0.40221936
0.22123744 0.09037265 -0.20403704
0.24345176 -0.10950494 0.35585135
0.00535526 -0.40447688 -0.03808975
-0.18951716 0.22134474 -0.45602214
0.21123825 -0.05771637 -0.19127476
-0.23868601 0.05583380 -0.19363615
-0.23814858 0.20237282 -0.40723950
-0.08269442 0.03445761 0.80263567
0.08563858 0.19041559 0.03689572
0.17680830 -0.33931506 0.23963666
0.00528476 -0.48371494 0.63663566
0.27252033 -0.09764162 0.15090457
0.23465358 -0.01003072 0.25876653
-0.14673735 -0.05251796 -0.49838305
0.19961999 -0.32013842 0.38108903
0.21704258 -0.07441552 -0.21774393
-0.29777697 -0.04394632 0.70874941
0.07297398 0.18603426 -0.07714209
0.12345351 0.18752083 -0.16866189
0.21348472 0.04395248 0.25998938
0.04792755 0.23083189 -0.20446885
0.19414198 0.13902882 0.40766710
0.28221825 -0.06864535 0.09886898
-0.11035025 0.23384497 -0.56293613
0.21948153 -0.00964230 0.79426199
-0.01045635 0.25631052 -0.29900479
0.24359065 0.03302696 -0.23642415
-0.12533453 -0.39608893 0.11373836
0.28413022 -0.16072997 0.73882180
0.22517417 -0.24869734 0.36484280
0.19137785 0.03741327 -0.10886106
-0.02572150 0.25138840 -0.54818642
0.17332223 -0.32982284 0.82281303
0.02090622 -0.40711832 0.85821575
-0.17250954 0.11736715 -0.10443598
-0.17780240 -0.20024365 -0.39004052
0.04776387 0.18763793 0.11428602
0.13008003 0.09338619 -0.49791390
-0.04963784 0.17605516 0.37594217
0.27079523 0.03620684 0.04455613
0.08827609 0.16764361 0.53125644
0.25209618 -0.01488329 0.18394156
0.26222309 0.00695397 0.71055037
-0.30999792 -0.03444121 -0.34473610
-0.08329654 -0.16631150 0.93938887
0.12659001 0.14062159 0.29339308
0.27986979 0.12802003 0.58992916
-0.00333523 0.21477267 -0.07850073
-0.01551927 -0.44268307 0.24891311
-0.06131531 0.07321727 -0.53366822
-0.22902767 -0.14704517 -0.04938781
-0.28307551 -0.02507681 0.52595729
-0.23356235 -0.00573196 -0.19093475
0.16046096 0.15458164 0.15443917
0.14975326 0.16677687 -0.18540636
-0.23608221 -0.27581829 0.40567374
0.25341791 -0.11502568 0.80539930
0.20374961 -0.28318936 0.83133298
0.27469769 0.15915984 0.40563741
-0.25519976 -0.23568442 0.06691776
-0.04482560 -0.10969783 -0.50948524
-0.17476045 0.23646179 -0.42293400
-0.06600231 -0.48912394 0.61705434
-0.13965902 -0.25898999 0.92453438
-0.22048235 -0.19190973 -0.05452827
0.06046975 0.24637792 -0.25600678
0.04952031 0.15009251 0.52261674
-0.20024873 0.20264110 0.60660022
-0.25624216 0.03852844 -0.22578001
0.26116678 0.15694603 -0.39872247
-0.28821036 -0.25605249 0.52898479
0.19982684 0.22383508 -0.37618536
-0.25792146 -0.20827562 0.03632364
0.21363336 -0.00022995 -0.17379054
-0.11054345 -0.36978388 -0.02341646
-0.27929384 0.00774489 -0.30672222
-0.08084535 -0.11651407 -0.49176151
0.07860219 -0.35061568 0.89722091
0.16274203 0.15998843 0.40661246
-0.10537966 0.16622442 0.21900387
0.07095180 0.25722581 -0.43587732
-0.03920077 -0.42480356 0.07343186
0.30505899 -0.04132655 -0.32059500
0.20372316 0.04305293 0.30981803
-0.06094426 0.17459503 0.34325808
-0.24099271 -0.09813645 -0.46010321
-0.21698898 -0.19675371 -0.37265229
-0.07149980 0.16623455 0.47171843
0.06495652 -0.12142791 -0.49904662
0.26781636 -0.17250615 0.46710211
0.07724199 0.17489088 0.16731124
0.25028101 -0.15116093 0.27267790
-0.30097494 -0.22983062 0.70543140
0.03682751 -0.43806636 0.16873449
0.26028588 0.07147376 -0.39388174
0.09053178 -0.41916057 0.26248640
0.26936284 -0.13178055 0.06872838
-0.29339021 0.07797863 0.10511354
-0.05076117 0.18297675 0.16380957
0.27971327 -0.05498759 0.07886198
-0.25885239 -0.10157023 0.44268745
0.10172483 0.06415203 0.75869900
-0.05764826 -0.17667487 -0.43885285
-0.30923140 -0.10705272 -0.30286896
-0.30202445 -0.02223009 0.59937632
-0.13708532 0.17641866 -0.13216963
0.24307661 -0.21194232 0.41775200
-0.22977310 -0.20065901 -0.02595928
-0.19972101 -0.03748675 -0.45109600
0.24395347 -0.18227115 0.28004783
0.31183431 -0.06306671 -0.36288214
0.14731233 0.11715268 0.29585814
0.24732608 0.01390398 0.73509300
0.01848630 0.07628000 0.73219907
0.01297020 0.22402096 -0.16017365
0.10908566 -0.18446079 -0.39876467
0.22370727 -0.02747060 0.39983958
-0.16520874 0.17811689 0.62782526
0.09484132 -0.39735979 0.12538645
-0.17236008 0.20114991 0.58805788
-0.01535101 -0.24271001 0.94694650
-0.23784573 -0.25386834 0.04225925
0.29864666 -0.07778400 0.60981345
0.11725003 -0.25287282 0.93262035
-0.01109842 0.13424949 -0.60998863
-0.00369180 -0.00776668 0.84328359
0.17139767 -0.07788664 -0.46119910
0.15299848 0.10362870 -0.05583411
-0.09874155 -0.42202252 0.18932080
0.12791191 0.14377958 0.25015461
0.15794133 -0.41986853 0.61131334
-0.14467071 0.13175480 0.29975024
0.03573484 -0.44571155 0.29730213
-0.17343862 -0.35217205 0.16657533
0.36691988 -0.15812705 -0.47890955
-0.18039687 -0.39366895 0.41662812
0.02059259 0.15688545 0.53391415
-0.08344524 0.09460211 -0.53793645
0.06374525 0.06088009 0.75683266
-0.19376530 -0.14722863 -0.18492478
-0.13158523 0.19199517 -0.55688041
0.16058935 -0.17810316 -0.24767011
0.24313824 -0.03650084 -0.00968467
0.04081389 0.17250857 0.32745504
-0.00119230 -0.49868208 0.58205867
0.19745678 -0.12150421 -0.07621872
0.27582994 0.16142276 -0.00045669
-0.12555969 0.06843972 0.75833821
0.04179575 -0.48270223 0.50746810
0.01210383 -0.39014006 0.87694550
-0.19323865 -0.18448144 0.89392531
-0.08229154 -0.47982320 0.54304671
-0.04941426 0.26288682 -0.48222816
-0.08961684 0.18069750 -0.60190201
-0.00708088 0.20777386 -0.01135455
0.09066346 0.16773140 0.22775525
-0.12390251 -0.33592683 -0.07004346
0.16676298 -0.32552016 0.08586507
0.16386056 -0.40546027 0.44149444
-0.24134976 0.12445299 0.68582916
-0.26744235 -0.33848453 0.61245292
0.16859917 -0.26783797 -0.06740309
0.19609590 0.03714128 0.41781703
-0.02431734 -0.43191937 0.16750070
0.24304190 -0.21288121 0.17037924
-0.25534537 -0.19858588 0.35871971
0.10561280 -0.39356491 0.11269830
0.21119350 0.02422643 0.45444867
-0.13962220 -0.28249389 0.90464544
0.27493981 0.09460348 0.10983650
-0.20375445 -0.25474292 -0.02697098
-0.25252122 -0.07343480 0.35457015
-0.10148598 -0.20318601 0.94374770
0.04276981 0.06899260 0.74696696
-0.24494810 -0.25172436 0.15375815
0.15258679 0.24732763 -0.40290588
0.24088264 0.01368507 -0.00707904
0.22891283 0.05120054 0.20204768
-0.23316479 0.11191832 -0.03862341
0.18096316 -0.31412080 0.13114136
0.14985664 0.15929294 -0.51566762
0.26815248 -0.12065529 0.77709246
0.08006620 -0.44071299 0.34113145
-0.24138373 -0.08241946 -0.25271827
-0.01127331 -0.12930885 0.92203623
-0.10866337 0.14570782 0.34630948
0.12958966 0.15919209 0.63546968
-0.19908881 0.08672702 0.41619176
-0.29627365 0.14412037 0.45228177
0.28276360 -0.26621526 0.65352857
0.11602768 0.21940872 -0.54707283
0.06652284 -0.45376372 0.38771492
-0.31523818 -0.14985122 0.66524148
0.13740654 -0.20634392 0.92797619
0.07071640 0.18702954 0.12649924
0.12888972 -0.44459772 0.56655967
-0.20102502 -0.41235349 0.54356253
-0.40109852 -0.16193427 -0.45866781
0.01715363 0.19720343 0.13217638
-0.18874563 0.10333425 -0.13540220
-0.22602072 0.22216812 -0.34896314
-0.27039668 0.09588939 -0.26131150
0.03255409 -0.44962671 0.76105487
-0.34594721 -0.10342836 -0.41480947
0.21263890 -0.36410615 0.48952609
-0.19394450 0.22214827 -0.28585038
-0.13606080 -0.44702104 0.48451319
-0.17012367 0.17573592 -0.18707696
-0.06892880 -0.47947752 0.44114926
0.19195546 0.20121399 -0.25682178
-0.07281734 -0.45280245 0.75197750
-0.12188310 0.11875288 0.67922169
0.22433904 0.05856974 -0.02621777
-0.28128299 0.08878323 0.65512127
0.03123337 0.03460786 -0.53012061
0.16893764 0.07946315 -0.11507240
0.27595142 -0.04231425 0.71696514
0.19406453 0.16585508 0.14183417
0.23840022 -0.33628491 0.63073170
-0.21524510 -0.37045127 0.68611008
0.26957271 -0.27084133 0.68842721
-0.25381202 0.09236899 0.70372713
0.00247547 0.01651727 -0.52248472
-0.04106005 -0.37458774 0.89414161
-0.19161502 -0.26814169 -0.03925934
0.17236680 0.07935180 -0.08616865
-0.01438257 -0.41492617 -0.00872105
0.27161056 0.10464649 0.63904601
-0.29495341 0.04597782 0.61809027
-0.19562337 -0.15648338 -0.15239948
0.25925398 0.10955098 0.12801185
0.14045435 -0.19473749 -0.30424929
0.04576265 0.15102968 0.50623995
-0.15014829 -0.44037232 0.51198131
-0.40191880 -0.14862284 -0.44843656
0.14211817 -0.42069858 0.41422319
0.19207019 0.12971750 0.17303717
-0.16581517 -0.39715809 0.33579484
-0.05385164 -0.29635102 -0.24331343
-0.04585054 0.12841557 0.61848128
0.25934163 0.06887093 -0.00628439
-0.25105196 -0.30051452 0.47070810
0.23183103 -0.01698720 -0.22791678
-0.21230443 -0.12133987 -0.22957546
0.25954211 -0.17441985 0.79427695
-0.14274040 -0.39458451 0.24635535
-0.04231839 0.19934210 -0.61140239
-0.28774819 0.10020015 0.04707973
-0.20194103 -0.17625308 -0.45020479
-0.20872109 -0.30820051 0.14161278
0.20358256 0.12101658 0.69251531
-0.28500298 0.13900803 0.09132176
-0.11993735 0.22452822 -0.53457946
0.05869111 -0.43026084 0.26227930
0.15991433 0.19560444 -0.51252383
0.03723213 -0.26191428 0.95381188
0.28565517 0.18313348 0.02460846
0.21234211 0.18825442 -0.08078326
-0.26170516 -0.06624620 0.22506545
0.27791840 0.07446568 0.61778724
-0.02039249 0.20710132 -0.04516248
0.26284757 -0.24136040 0.74973106
-0.33656222 -0.17651683 -0.45214701
-0.11360271 -0.16233222 -0.43881458
-0.15109091 -0.37230375 0.10494113
-0.12693724 -0.44587603 0.41293377
0.19820343 -0.39008898 0.53081656
-0.30221224 -0.09962592 0.52238202
-0.29048446 -0.20089108 0.50051725
0.17621328 -0.35687533 0.34366482
-0.01171124 0.19528702 -0.61441958
0.26261842 -0.04951462 0.01159845
-0.26126722 0.12505837 0.42543709
0.21188562 0.16245693 0.38325077
-0.00328505 -0.13180161 -0.49953151
-0.30207968 -0.17959437 0.53694427
0.22097552 -0.03419831 -0.03173691
0.24502520 0.14456266 -0.04728290
-0.23229104 -0.35746160 0.69300425
-0.28655547 0.05111356 0.04023479
-0.25413978 0.01294167 -0.02794757
-0.12986454 -0.11983311 -0.46814740
-0.19246696 -0.16112982 -0.25386545
0.19999197 -0.29552400 0.22827348
0.07317159 -0.32917696 -0.12882930
0.25676528 0.10455818 0.67199540
-0.06024594 -0.47527197 0.49297944
-0.03135688 0.18687576 0.27769846
-0.28969297 0.22489485 0.57980824
0.03425592 -0.43272674 0.10454045
-0.19867222 0.13717134 -0.48710448
-0.26556298 -0.14152625 -0.31681889
0.01711508 -0.36462155 -0.10703132
0.09836023 0.16325715 0.59410501
0.21545114 -0.26740736 0.29761738
0.08088851 0.23391569 -0.56904256
0.00856739 0.05029696 -0.53170013
-0.16143163 -0.03871357 0.88033509
-0.29447106 -0.06426180 0.72152901
-0.05465478 0.18070242 0.23124379
-0.22980659 -0.06443188 0.83643323
0.24969947 0.13648787 -0.28315935
0.03205322 0.18785268 0.01738098
-0.34331876 -0.12642762 -0.47667623
0.27501920 -0.11241027 -0.30653757
0.30819464 -0.12372031 0.64082998
-0.04973544 0.20052272 0.02354755
0.08646234 0.25767526 -0.30222052
0.24297413 -0.25542080 0.77562582
0.31912854 -0.11210157 -0.30741379
0.21917014 0.01141226 0.30854732
0.13017024 0.12823513 0.23390079
-0.30296275 -0.05852939 0.55088019
0.22704706 -0.24533513 0.14208063
0.04922305 0.16290942 0.40580299
-0.29771200 0.11095396 0.57439852
0.25746360 0.07345313 0.13590708
0.24909690 0.04127902 -0.39103651
0.19279239 0.20677245 0.60110325
-0.18356821 0.15278640 0.65579998
-0.04737577 0.18462640 0.19686821
0.09255268 -0.21883689 -0.32627958
0.21223201 -0.11219282 0.86156511
0.11628916 0.17564797 0.58729672
0.27987713 0.22090694 0.53688812
-0.26758692 0.10534784 0.67792779
0.27950549 -0.10583901 0.10654305
0.24106418 -0.20149730 0.30240238
-0.04701575 0.11809643 -0.59103459
0.04599586 -0.39714533 -0.00764944
0.11882068 -0.37920511 0.07140718
-0.24982914 -0.21458429 0.34589326
0.08750410 -0.39800638 0.08605242
0.26443833 0.05806109 0.52758229
0.10087212 -0.30407587 0.91744351
0.22529912 0.20296589 -0.39216167
-0.04400578 -0.44494492 0.19271499
0.23940694 -0.06266752 -0.25874531
-0.11892916 -0.41996083 0.27538154
-0.29834187 0.12412861 0.50963223
-0.25882807 -0.11683154 0.39013219
0.06644650 -0.36383969 -0.06598207
0.15384813 -0.40426591 0.40722847
0.22036767 -0.01349032 0.42139143
0.22147784 -0.30741236 0.42719290
0.03035682 -0.48125300 0.46140912
0.11147717 -0.40205067 0.20616250
-0.01502708 -0.05372090 0.88384771
-0.22509968 -0.08779786 0.85560465
0.06337845 0.09564474 0.69392800
-0.28650746 0.02242792 0.13136253
-0.17981970 -0.41339427 0.62572050
0.12783405 0.13066064 0.34210157
-0.05942109 0.26589304 -0.37947333
-0.01735936 0.17828318 0.37739265
0.17892727 0.10823822 0.70201272
-0.26935950 -0.15361361 0.80164677
-0.17559373 0.09843880 0.38517338
0.16288374 0.16470867 0.14135134
0.28431237 -0.00701611 0.58040696
-0.02640573 -0.45110777 0.31137526
0.07457337 0.24485987 -0.47128463
-0.03067873 -0.47023746 0.37367970
0.14044763 -0.41824096 0.71176058
0.23646413 -0.07965744 -0.02266808
-0.00433235 0.12090071 0.63590491
-0.23125887 0.02227874 0.31729981
0.15525864 -0.43311319 0.63146114
-0.23352084 0.12530322 -0.05006626
-0.20693970 -0.10426681 -0.18268386
-0.08232222 0.03217730 -0.51852757
-0.09793682 -0.31653094 -0.13396883
0.05708826 0.18410233 0.23003238
0.09361934 0.17707315 -0.05460146
0.26305941 0.05222504 0.67296624
-0.21019657 -0.04393751 -0.13339642
0.22582127 0.03584217 0.74011171
0.25045386 0.09753674 -0.41908360
-0.24898097 -0.19752243 -0.00290471
-0.20195881 0.07203272 0.34044537
-0.10306263 -0.03713746 0.87866485
0.13830119 -0.37277263 0.80864334
-0.28673533 -0.27698594 0.65539378
0.09187941 -0.07905246 -0.51498300
-0.08831573 0.25915247 -0.31454456
0.03841745 0.26044863 -0.50051337
-0.20530881 -0.15721230 -0.46342808
-0.28756443 0.00886902 0.55265534
-0.09159511 0.04926674 0.77326864
-0.20452715 -0.07164793 -0.14387533
-0.12241546 0.18499100 0.54637074
0.13060857 -0.40140602 0.77441156
-0.04537011 -0.36023015 -0.12273771
-0.24874908 -0.14390756 -0.48756301
-0.29432845 -0.09599341 0.09339827
-0.27284735 -0.16430871 0.15354282
0.19243124 0.06088494 0.30705038
-0.08252579 -0.04014461 -0.53066355
0.09143724 -0.41190696 0.15361045
0.03247224 -0.48069206 0.52482820
-0.10862238 0.18157890 -0.07641919
0.18207829 -0.14156063 -0.17720351
-0.23129211 0.20346481 0.61537325
0.07487544 -0.02422775 -0.51616389
0.25280866 -0.06486411 -0.38790756
0.07494111 0.25931805 -0.40630370
-0.25869849 0.09696122 -0.01267353
-0.12123052 -0.29268509 -0.14829135
0.31963223 -0.17042232 -0.43729508
0.02495567 0.03936951 0.78845966
-0.19850029 -0.33699518 0.27330154
0.20581765 -0.35198975 0.72941417
-0.15436839 -0.40847999 0.36450827
-0.27448744 0.00086314 0.72431958
-0.15685186 0.04183069 0.78642207
-0.25450116 -0.20425144 0.19917636
-0.21178265 -0.17835937 -0.31823638
-0.22369990 0.19850871 -0.46118373
0.06686517 0.13215071 0.63293731
-0.28898305 -0.18402405 -0.45136529
0.25659335 -0.21269596 0.44777137
0.11617137 0.24336129 -0.29066062
0.38901657 -0.15968414 -0.48158973
0.20985636 -0.29043114 0.35855991
-0.00912583 0.19524089 0.09317106
-0.29958233 0.20603940 0.52836704
0.00607228 -0.47913334 0.68165058
-0.21856502 0.05933453 -0.03690352
-0.00702265 -0.33894745 -0.16875020
0.20945549 -0.09905263 -0.05372892
0.24984476 0.17160317 -0.33754623
0.21538104 -0.17901990 -0.35024077
-0.14052087 -0.21620131 -0.26898089
0.16822776 -0.30457968 -0.01105022
-0.11815941 -0.41280249 0.20965803
0.21111336 0.00037245 0.41849560
-0.17360757 -0.18908200 -0.21535206
0.02477288 -0.49805138 0.57013661
0.27883747 0.07977028 0.08763633
-0.17877397 0.00743683 0.82002801
0.26872745 0.11173624 -0.33257157
-0.23490770 0.04364076 -0.02029909
0.20688392 -0.15833828 -0.28884006
0.28826880 -0.03919598 0.57461220
-0.22436655 0.10717343 0.71545595
0.17152317 -0.39742362 0.66430235
-0.23568970 0.04497933 0.75060195
-0.12592164 -0.03773893 -0.51922268
0.20201732 -0.33276570 0.77599156
-0.06319015 0.04584050 0.78832674
0.26582471 -0.22048339 0.76067030
0.14862867 0.17431670 0.13256472
0.23147637 0.19514188 -0.41389591
-0.16278982 0.16309217 -0.51169240
-0.29548168 0.12890811 0.56068039
0.24128354 -0.21097836 0.19716047
0.31760544 -0.15675384 -0.35551447
0.09825218 -0.42602798 0.24828488
0.16130041 -0.39608622 0.37474072
-0.12669209 0.19688535 0.50564337
-0.14280897 0.13077918 0.66270494
0.12380722 -0.40519139 0.23493376
-0.14792058 0.15885434 0.13703428
-0.09418743 0.25516823 -0.45142663
0.13078448 -0.26273406 0.92114979
-0.25186470 -0.32307255 0.71299648
0.24659374 -0.07356148 0.25272021
0.28252965 -0.13206786 0.75166965
0.29897454 -0.18708104 0.66996205
0.27005631 -0.08655608 0.16286771
0.14920831 0.12927622 0.41846332
0.08943104 0.15923488 0.57110262
0.15625568 -0.30892080 -0.03193505
0.22419521 -0.08616222 -0.42571020
0.02237212 0.13138188 0.60088426
0.26693651 -0.16008614 -0.48034626
0.16700290 -0.41459590 0.55219328
-0.19273673 0.18357959 -0.07478508
-0.21899264 -0.33803451 0.76326132
0.16790903 -0.37276223 0.32976204
0.25260553 -0.29916614 0.69136339
-0.06145484 0.15972695 0.55393839
-0.09400271 0.15470240 -0.57698083
-0.19456588 0.09911738 0.27027559
0.18203217 0.07820106 0.28177056
-0.04405058 0.17975309 0.34006304
-0.03575562 0.02097186 -0.51679647
0.22799590 0.19679543 -0.32407978
-0.02510596 0.19132823 0.17466944
-0.05354991 -0.04838723 -0.51965195
-0.00113441 0.16083241 0.50807416
0.33462811 -0.12416380 -0.47325063
-0.41043198 -0.12168154 -0.40668905
-0.27422333 -0.15537015 -0.33847094
-0.08183707 -0.46510002 0.66685224
0.25225523 0.16033736 0.38276964
-0.14915724 -0.21155262 -0.25460196
0.17491075 0.19109184 -0.23665091
-0.15597674 -0.27659428 -0.09929991
-0.23734061 -0.33262697 0.74310189
-0.20861547 0.07649873 -0.03939997
-0.25856498 -0.01813289 0.76811194
-0.09080034 -0.47657326 0.46506220
-0.12935410 -0.07862180 0.90058076
0.19324148 -0.07317267 -0.12642154
0.05020396 -0.34560716 -0.12888885
0.18216859 -0.34325969 0.29546255
0.02755071 0.25902998 -0.29211476
-0.29860535 -0.18325990 -0.38457251
-0.31290889 -0.11876041 -0.32783338
-0.22414398 0.05770436 0.75210172
0.22488405 -0.07579967 0.83230174
0.24458899 -0.18010820 -0.39992201
0.09435850 -0.34248471 -0.07470743
-0.12815692 0.25550228 -0.28889412
-0.14384271 -0.30103332 -0.08380097
0.20936207 0.21780169 -0.40744925
0.03106090 0.25925812 -0.47724873
-0.29239491 0.17643988 0.56938028
-0.25700894 0.05125515 0.17773330
-0.28237173 -0.11644450 0.16346350
0.20797068 -0.09773195 -0.45087230
0.00749814 -0.48141298 0.44180694
-0.04520963 0.22740564 -0.17441735
0.27244195 -0.25264609 0.72491235
0.04713199 -0.33628529 -0.14566070
0.24900711 -0.17938137 0.17842650
-0.06570406 -0.07363201 -0.51460469
-0.13710222 -0.34038398 0.85998040
-0.23762773 0.09249161 0.17114925
-0.23737647 -0.15992974 -0.03871535
-0.22703783 0.12216344 0.16280894
0.02803395 0.23978147 -0.57447523
0.26325315 -0.11047817 0.46556515
0.05541370 0.02022965 0.81109047
0.00053425 -0.39020401 -0.06441368
-0.18769892 -0.19238949 -0.32868654
-0.24319182 0.02028941 0.47696951
-0.29569343 0.11664951 0.07090751
0.17931204 0.07003582 0.34520125
0.02875174 -0.49314970 0.51449478
0.27943945 -0.07738285 0.72947085
-0.17930926 -0.36525479 0.26347667
0.27098268 0.11087599 0.47714943
0.18181485 0.08840954 0.25401071
0.24951842 -0.05190113 -0.28033230
-0.26289502 -0.15391596 0.39804286
0.25967482 0.10567008 0.45965093
0.12518084 0.13521063 0.41874218
-0.26985249 -0.18619591 0.44316629
-0.10503371 -0.23691441 -0.31543764
0.12822159 -0.38572785 0.18443677
0.07968749 -0.32417914 -0.16463685
-0.12592947 -0.40150875 0.18794721
0.00336914 -0.26659349 -0.30630484
0.11828580 0.22232673 -0.23491544
-0.18352976 0.15895364 0.39598030
0.41299599 -0.13913722 -0.35358202
0.33805224 -0.16535801 -0.40549946
-0.10442148 -0.44219112 0.72347903
-0.15537539 -0.41508442 0.71128070
0.15526445 0.24188137 -0.32719699
0.17215003 -0.12493320 0.89833522
-0.35729727 -0.14856279 -0.37780678
0.29983354 -0.16718407 0.55238664
-0.04252926 -0.45497847 0.33163357
-0.29384187 0.11603999 0.58953351
0.15942664 -0.25510782 -0.09333524
0.23350540 -0.22264507 0.26215273
0.09453154 0.19472021 -0.02521667
0.27927324 0.07703695 0.55642045
0.39103898 -0.15891321 -0.39214373
0.09150011 0.22153667 -0.57011193
0.08729433 -0.36692634 -0.01600444
-0.28932056 0.19690600 0.05802723
-0.21553792 -0.39246607 0.60844564
-0.05051314 -0.41513592 0.83020604
0.22665396 0.15019649 -0.24777621
0.23372455 -0.31360406 0.46029216
0.18689469 -0.30495793 0.14420393
-0.26404339 -0.09733432 -0.43834269
-0.29638067 -0.08552910 0.52888620
0.06017315 -0.47674024 0.53713357
-0.25109696 -0.03452517 0.44068214
0.10706604 0.16591412 0.15252319
0.24207211 -0.04461537 -0.38624698
0.16115645 -0.14982533 -0.45478261
0.07129565 -0.44814673 0.74050915
0.02844322 -0.45063841 0.23249677
-0.16349821 0.19191417 0.59848416
-0.14060429 0.01241472 -0.50404066
0.06739737 -0.42522123 0.23493606
0.21363835 -0.34071422 0.44840252
0.15655577 0.14570263 -0.50893992
-0.03390495 0.26534519 -0.47137225
-0.20835772 -0.02293750 0.82991558
0.00958485 0.16201106 0.46188763
-0.29656547 -0.04400261 0.09839368
0.12726809 0.19587198 0.56288481
-0.21879481 0.22288567 -0.38262308
-0.14301611 -0.27420807 -0.12828526
-0.09692122 0.08949348 0.71764499
0.28735101 -0.12712409 0.73417723
0.20633110 -0.07672302 0.85809737
-0.25530440 -0.07787736 0.28480831
-0.19348599 0.09084176 0.30197626
0.10458009 0.03743766 -0.50317568
0.24352264 0.08006865 -0.22978717
-0.24872780 0.21671101 0.59866536
0.22390807 -0.23673730 0.01632039
-0.11497491 -0.19447672 -0.38824511
-0.02281955 0.22780463 -0.15717351
-0.24973357 -0.11382147 0.82918698
0.24885154 0.08316761 -0.27287710
-0.18314973 -0.34004062 0.81313264
-0.26998013 -0.02555667 0.00527591
0.01572635 0.19568315 0.10420029
0.16109915 -0.33622912 0.10998439
-0.08909424 0.11822218 0.66861176
-0.02916557 -0.36892650 -0.11570385
-0.13627814 -0.42088869 0.34317589
0.03795152 -0.22899067 0.95250440
0.21332723 0.06109132 0.22530811
-0.14458293 0.12532777 0.33437228
0.22062960 0.13755864 0.15327400
-0.25913876 0.15985522 -0.28109309
0.19039673 -0.17599091 0.88570052
-0.08251949 -0.42265993 0.06434206
0.14947729 0.21554458 0.55791152
-0.14313215 -0.00250398 0.84604716
0.17219968 0.20225656 0.61016381
-0.25013310 0.19221285 -0.30436328
0.02924764 -0.43591827 0.80367565
-0.03535480 -0.26725948 0.94833803
-0.05592009 -0.43542278 0.22733155
0.01395592 -0.10841520 -0.51453418
0.03091746 0.26359922 -0.44601697
0.10790753 0.17469883 0.47710818
0.35908738 -0.16505383 -0.38430548
-0.13696119 0.17667615 -0.53522581
-0.28619719 -0.26511714 0.67389959
-0.14464496 -0.31763017 0.88309908
0.11684598 -0.41323882 0.27433902
0.04345758 -0.24654195 -0.33434910
-0.22376405 -0.38095134 0.63005251
0.12367718 -0.30273905 -0.09221229
0.10375995 -0.24809493 -0.23993602
0.32486841 -0.11330744 -0.45822948
0.29060075 -0.23821619 0.62742728
-0.10481557 0.16086602 0.56268167
-0.05531438 0.18742412 -0.62362331
-0.18354098 -0.09629026 -0.46398121
-0.06808747 -0.34728247 -0.12157109
-0.12662157 0.15553334 -0.06578691
0.28890431 -0.21617219 0.67928767
0.25419158 -0.09264575 -0.41078919
-0.08077133 0.13136867 -0.57190078
-0.10958454 0.17633438 0.53506064
0.27183312 -0.28695077 0.63028514
-0.22624297 -0.18744785 -0.33663756
0.27209240 0.10902257 0.01811799
-0.26304212 -0.16591114 -0.46708864
0.25413778 -0.04601353 0.19745420
-0.18164410 -0.35159519 0.18870997
0.27316487 -0.09188186 0.13481082
-0.29244497 0.00117774 0.67103642
0.06006664 -0.43895814 0.76779419
-0.29154703 -0.08264074 -0.28610459
-0.19276340 -0.36826465 0.38988939
0.24550079 -0.03136406 -0.25091976
-0.23797402 -0.26364017 0.37478730
-0.05606693 -0.44690555 0.31709528
-0.29428321 0.00507443 0.10129695
