-0.08718597 0.05894496 0.09778634
0.15010126 0.54831904 0.24013732
0.07713224 0.74112093 0.14324117
0.40091407 -0.19877920 -0.01344362
-0.06016396 -0.17743781 -0.22342986
-0.29889202 -0.56279588 -0.20081854
0.31842285 0.09932664 -0.11293642
0.10855059 -0.28440961 -0.01019944
0.11403417 -0.23518917 -0.13241939
-0.19984032 0.62287354 0.49275562
-0.17545952 0.70636034 0.48569080
0.25168803 0.10118101 -0.09574118
0.15747052 0.09257052 -0.16782093
-0.23671655 0.20421636 0.19631499
-0.15295593 0.30371106 0.23506707
-0.41517699 -0.07983552 0.01052582
-0.01250753 0.47200388 0.02779127
0.24707419 0.17203307 0.08525799
-0.24618687 -0.59687674 -0.19842066
0.25539204 0.02766385 0.11566453
-0.02966592 0.06234450 -0.14834209
-0.19001506 -0.13262831 -0.19220971
0.08909106 0.80389833 0.17072015
0.24126904 0.07491422 -0.00295181
0.35875338 -0.21780756 -0.01476301
-0.31007403 -0.47426805 -0.18101311
0.47302437 -0.37456438 -0.17315863
0.04511855 0.43452448 0.01113631
0.26052457 -0.56845367 -0.18053994
-0.12521335 -0.08309716 -0.16754052
-0.15275615 0.59667689 0.38027716
-0.11709467 0.60769105 0.14993989
-0.25514460 -0.41937450 -0.25923812
-0.06769384 -0.13984509 0.08087772
0.22733994 0.41897789 0.17352450
0.21100739 0.02869441 0.11014429
0.47402793 -0.07002431 -0.08212103
0.19080354 -0.53368914 -0.40299940
0.33488917 -0.52008986 -0.14844674
-0.40183789 0.06642935 -0.06705608
-0.28829801 -0.00571439 0.31040478
-0.18244371 0.31415367 0.10406084
0.47111064 -0.02583785 -0.00249573
-0.15634918 0.14696817 0.17154159
-0.30343008 -0.60013270 -0.06438926
-0.27692389 -0.71737349 -0.23285848
0.43646073 -0.52289677 -0.44756496
-0.22694080 0.40644479 0.37212342
0.11513831 -0.39419401 -0.17075998
-0.29008913 -0.42220584 -0.23663625
0.13080333 -0.30901524 -0.27511600
0.00353972 0.43317810 0.01211353
-0.03391739 0.90083063 0.36917600
0.17421627 -0.07347505 -0.21769613
0.46931309 -0.01817760 -0.09105112
0.45727783 -0.02102632 -0.12886119
-0.00954104 0.21640323 -0.08361968
0.02784173 0.75813377 0.13348591
-0.23340662 0.00631892 0.22293074
-0.25436616 0.10658211 0.02861607
-0.40038007 -0.26172516 -0.21307594
-0.24147515 -0.64628029 -0.21471953
-0.00278881 0.07558083 0.06614473
-0.19224952 -0.40268886 -0.24527708
0.40930921 -0.66991317 -0.22604558
-0.22635083 0.52418542 0.46796867
0.08621704 0.62372124 0.10364527
0.42472690 -0.21060291 -0.01850144
-0.02976111 0.80294025 0.34524128
-0.27591163 0.09943388 0.02992428
0.24675074 -0.21629798 -0.30621293
0.05067077 0.47683996 0.03153793
-0.30369848 0.02097754 -0.10884015
0.45042479 -0.25714496 -0.28749222
-0.01890938 -0.14750716 0.07260911
-0.20971051 0.54089761 0.42049554
0.24261613 -0.43740913 -0.32882643
0.34563696 -0.55276108 -0.45985356
-0.03298254 -0.15112677 -0.23488578
0.39774346 -0.40531740 -0.41097319
-0.22694935 0.41774112 0.29527026
-0.19459298 -0.40781066 -0.25443405
0.46907598 -0.41401359 -0.19907570
-0.36960739 0.04505976 0.10821863
0.21106118 -0.59013724 -0.26854986
-0.24283524 0.30988872 0.35713959
-0.09775065 0.47073001 0.08662283
-0.02095911 -0.01103383 0.15128615
0.25705004 -0.22015983 -0.01522216
0.12272828 -0.27871832 -0.01070667
-0.10612527 -0.18935192 -0.21108761
-0.00508838 0.23256882 0.10335618
-0.37153184 -0.38336843 0.04758030
0.45517695 0.06913500 -0.10896693
0.04615458 0.49408117 0.03629921
-0.04767964 -0.13891846 -0.22357982
0.12597677 -0.05230510 -0.20041345
-0.42738253 -0.15926704 -0.16008458
0.23196128 -0.51699412 -0.31521201
-0.05884305 0.85776556 0.20432808
-0.22516654 -0.47291163 -0.10856760
-0.05027271 -0.17460716 -0.22820479
0.14761697 0.20135050 0.10566695
-0.40285122 -0.00222565 0.10082865
-0.01655308 0.92264998 0.32346791
-0.16135968 0.48819494 0.17728049
-0.27839226 0.09624657 -0.07265978
-0.25098246 -0.60614204 -0.25080761
-0.27858579 0.09168184 0.07441642
-0.41312569 -0.16318542 -0.05747500
0.11699267 -0.37503064 -0.17363445
-0.16165668 0.70604014 0.45127109
-0.42810607 -0.24081483 -0.15715888
0.16087930 0.64428699 0.17420056
-0.21654911 0.60694468 0.51057363
-0.18543380 0.52164370 0.41802302
0.26016924 -0.49454615 -0.30126807
-0.36165386 -0.68769383 -0.38072556
-0.18179642 -0.04795998 0.17298275
-0.14957952 0.57216370 0.17795709
0.28381073 -0.57688558 -0.46033701
-0.23856221 0.10923170 -0.08430389
-0.10898271 -0.08777671 0.12895231
0.19190608 -0.11759619 -0.22299451
0.31192821 -0.65616500 -0.41267630
-0.40287173 -0.72776401 -0.18882330
0.06771968 0.37033713 -0.00806934
0.28615952 -0.15002349 -0.26264325
-0.09776302 0.59380996 0.11693254
-0.39370567 -0.48848853 -0.05093338
0.23975368 -0.51587617 -0.43205759
0.11700030 0.25015572 -0.03701942
-0.41789180 -0.20780092 -0.08044024
-0.16888273 0.60517120 0.25012082
0.39479357 -0.26525787 -0.05205427
-0.39399523 0.01932468 0.19029778
-0.33099794 -0.26483282 -0.22223321
0.46672630 -0.67679107 -0.24127924
0.23285918 -0.63154197 -0.46169570
-0.41195434 -0.04432879 0.02240670
0.24311884 -0.53880882 -0.43321204
-0.11863121 0.64325869 0.36671668
0.38920921 -0.63020265 -0.20493174
-0.37361258 -0.35329762 0.06161079
0.28358665 -0.30670449 -0.04189770
-0.15718001 0.19734290 0.18900746
-0.01286530 0.63961458 0.09583688
0.38265800 -0.04602239 0.05915607
0.11037062 0.75644588 0.32169595
0.27021623 -0.49083003 -0.42385894
-0.19895232 0.61741722 0.35578427
-0.23267101 0.11404126 0.24300003
0.40176940 -0.21318465 -0.30600575
0.42979616 -0.59177065 -0.49237087
0.21945262 0.66514397 0.27933955
0.19070819 0.74086297 0.33743733
0.07121132 -0.20707881 -0.19060758
-0.20486392 -0.01731617 0.18966393
-0.20251866 0.58289492 0.43756476
0.04289963 0.91500854 0.21833234
-0.42484218 -0.56076753 -0.31048816
0.20871781 0.09930406 -0.02281117
-0.41643351 -0.04137936 -0.02480099
0.24233648 -0.47212830 -0.10832988
-0.14659759 -0.48056325 -0.04177109
-0.38991147 0.02867787 0.08731525
0.06599082 0.56040221 0.23909841
0.20293410 -0.28166720 -0.02684218
0.17322905 0.29332054 0.03324118
0.25086778 0.07540476 0.08193102
-0.09620678 0.24043132 0.15725267
-0.16617604 -0.17531931 -0.21341968
-0.15246530 0.78732085 0.29970732
0.23965864 -0.08095184 -0.24246138
-0.39684397 -0.64375043 -0.15164362
0.22316656 0.44600993 0.23275270
-0.18923120 0.77304125 0.38683599
-0.30176008 -0.39945468 -0.28346682
-0.23576005 0.21533290 0.25262538
-0.15335321 -0.19142056 -0.21382308
-0.40089327 -0.50143516 -0.07382488
-0.25422835 -0.58484077 -0.22815332
0.07762196 0.74005389 0.31302753
0.07593167 0.68874180 0.12088917
-0.41450143 -0.25152186 -0.05044975
-0.18869899 -0.09033097 0.14490995
-0.22016887 0.40080860 0.40919280
0.16378801 0.27689773 0.01251392
0.17201422 0.20698912 -0.01251138
-0.15822923 0.58564091 0.40482238
0.48051083 -0.30739221 -0.08860093
-0.42983186 -0.03689946 -0.07744113
-0.38893092 -0.62373114 -0.35713381
-0.20125611 0.41626242 0.37203711
-0.10993342 -0.26902846 -0.03307803
0.15591611 0.77568841 0.21750830
-0.26639378 -0.72009039 -0.23599356
-0.08795532 0.05995459 -0.14311762
0.20682640 -0.45477530 -0.14731371
0.46563119 -0.23087299 -0.04824825
0.08867628 -0.34457645 -0.32861254
-0.14954801 0.67649913 0.23618688
0.43533278 -0.31313142 -0.35303798
0.47698510 -0.63978672 -0.22954682
-0.10665287 -0.06681153 0.14332289
0.37470412 -0.44229767 -0.11682068
-0.24850450 -0.59519434 -0.23507679
-0.00338961 0.34426302 0.15787984
-0.09053139 0.67314887 0.35545638
0.17385417 -0.02230243 -0.21060112
0.25341743 -0.20854527 -0.28881565
0.29209858 0.03033047 0.08330444
-0.21631207 -0.49681506 -0.02670846
-0.42133123 -0.43015620 -0.18582681
-0.18591464 0.31751651 0.11787286
-0.09982429 0.35299060 0.02527262
0.25915819 0.18953022 0.11401116
0.20587181 0.63899970 0.29728162
0.38009816 0.04208349 0.02022704
0.19801949 0.10918717 -0.09384097
0.47716081 0.01388874 0.00265481
-0.37446737 -0.72171521 -0.10638197
-0.34481508 -0.09084249 0.18142790
0.10014328 0.80352998 0.32758179
0.01139007 0.49427116 0.03549223
0.17218292 -0.31039807 -0.18181962
0.17952865 -0.28002626 -0.12183355
0.10480256 -0.26087877 -0.08275184
0.04443779 0.22926672 0.09973093
-0.10550992 0.50224173 0.09569411
0.30312592 0.07437326 -0.03080603
0.31171858 -0.40870950 -0.40513307
0.22871478 0.38552135 0.20667918
0.23979567 -0.23794612 -0.30768099
-0.31102771 -0.00708075 0.31028563
0.45652950 -0.45714292 -0.14774883
-0.23467667 -0.47078750 -0.01670776
-0.41054672 -0.37631088 -0.07701046
-0.17657739 -0.01067213 0.18168889
-0.41375995 -0.43295208 -0.13269839
0.27647144 -0.68637967 -0.34840018
-0.10267182 0.56196475 0.12090187
-0.31689197 -0.52733588 -0.21620631
0.32448357 -0.57974255 -0.16866447
-0.41746235 -0.60931778 -0.22676390
-0.30072230 -0.66339183 -0.36600223
0.40930837 -0.16443205 0.00276146
0.45433998 -0.57570827 -0.38490504
0.20681551 0.70652509 0.28591454
0.38778931 -0.03138202 -0.26112330
-0.06125517 0.59304416 0.09371953
-0.30601865 -0.29382652 0.07940069
0.26744175 -0.51847196 -0.28784299
-0.26553673 -0.19937149 -0.20211571
-0.40577954 -0.48465022 -0.29259846
0.21585917 0.03515420 0.09576766
0.25602382 -0.24199817 -0.32471254
0.20981553 -0.64367473 -0.34835532
-0.19971734 0.05497587 0.19009283
0.09622745 0.49164912 0.05932608
-0.22144328 0.25551337 0.31888163
-0.28943390 -0.59761035 -0.12906140
-0.36657691 -0.57503450 -0.33466464
-0.20404635 0.71928060 0.55375671
0.08323975 -0.18625671 -0.24341497
0.23330486 0.13194808 0.03858433
-0.17647403 0.44421679 0.16534306
-0.18772843 -0.48854586 -0.05484814
0.10335643 0.77500892 0.16536763
0.16233842 0.75857460 0.21298346
0.46730357 -0.15172091 -0.14571750
0.24277738 -0.24540514 -0.01665989
0.07843667 0.85750246 0.31800520
-0.22322623 0.44009236 0.41200802
0.32079637 -0.71662486 -0.24336824
-0.38808733 -0.37083316 0.03592976
0.45986933 -0.22439939 -0.22650674
0.04194884 -0.05029774 -0.18737349
0.23613308 0.52743757 0.26386586
-0.05570742 0.04394614 0.12248389
-0.21280542 0.51337814 0.31956741
-0.40897417 -0.26310444 -0.06306262
-0.01655887 0.39124244 0.17838886
0.45594466 -0.34836090 -0.28823790
0.14551869 0.31524891 0.01416716
-0.08645041 -0.04121412 -0.14632823
-0.01568066 -0.09736216 0.11302157
-0.12317185 0.46561706 0.10531788
0.33045793 -0.70486271 -0.31222519
0.03055122 -0.16410354 0.05111364
0.40790725 -0.35131243 -0.38829452
0.22464822 0.72325838 0.30535176
0.32333839 -0.57859111 -0.46910200
0.24410070 0.09565200 -0.08797175
0.36777020 0.01635456 0.08420133
0.02691662 0.70110285 0.30109569
-0.29401809 -0.60624504 -0.07875058
0.46157134 0.04078622 -0.09187286
-0.41707623 -0.57980239 -0.20647073
-0.34329396 -0.36667666 0.05449528
-0.19930135 0.11380956 -0.08972579
-0.04071859 -0.26933399 -0.02759692
-0.02525337 0.43400806 0.20232163
0.46661776 -0.08945735 -0.13085851
0.18276297 0.66877508 0.21209775
-0.39008600 -0.68582070 -0.12812287
-0.12075408 -0.18213978 -0.21299320
0.21344693 0.17237899 0.12069071
0.25389028 -0.55648470 -0.22894609
0.43141401 -0.37186369 -0.38765007
0.31782103 -0.29487234 -0.04997149
-0.20332369 -0.33627006 0.02671925
0.47578096 -0.32713521 -0.11749353
0.43782932 -0.66446483 -0.22585887
-0.30055285 -0.57866609 -0.12904966
-0.03583861 -0.04594120 -0.15280575
-0.38535589 0.05133428 0.13991109
0.06574915 0.02271776 0.13636762
-0.14539075 0.44825098 0.30415407
0.29803002 -0.13460213 -0.26168698
0.30638641 -0.61055946 -0.18346006
0.17118305 -0.00175884 -0.20308004
-0.17996396 0.58014560 0.25855374
0.31844860 0.08025712 -0.06451411
-0.31110311 -0.05209579 0.17999139
-0.29478908 -0.02279665 -0.10897703
0.46370918 -0.05822289 -0.13694933
0.33554369 -0.64626074 -0.20314188
-0.42404842 -0.02624503 -0.03921083
0.14923376 0.78633702 0.33111230
-0.21996467 0.04254889 0.19454470
-0.26465309 -0.56812859 -0.31304076
0.11654484 0.65082455 0.27004570
-0.40122348 -0.66359007 -0.17144175
-0.12244342 0.32267296 0.03502733
-0.05476119 0.79710412 0.16759905
-0.21900703 0.45724627 0.44646603
0.15637729 -0.34057972 -0.16633724
-0.29706609 -0.34788331 0.04864393
-0.21480857 0.47647262 0.31815225
-0.14772160 0.30148402 0.05716009
0.23876488 0.11126903 0.09078835
-0.17402703 0.51304317 0.21566948
-0.07372047 0.34617352 -0.00356954
0.24675186 0.18086094 0.10341974
0.23830684 -0.68627965 -0.33220050
0.23311861 0.12476431 -0.16322492
0.26801169 0.10726798 -0.11397883
-0.16094984 0.40834475 0.12767105
0.31537139 -0.05355921 0.06710321
-0.35701054 -0.03000410 -0.09946826
-0.23356740 0.09895741 0.07471459
0.13105774 0.23904932 -0.03333185
-0.42949402 -0.15467420 -0.14094742
-0.28950816 0.07776761 0.12290988
0.32460791 0.04449967 0.01870973
0.12756808 -0.14065005 0.05715837
-0.20264468 0.74367595 0.41538516
-0.23120917 0.30145133 0.35086876
-0.32106662 -0.68451190 -0.37974778
0.09623413 0.76560545 0.31794038
-0.25178951 -0.60018027 -0.16782601
-0.22746299 -0.08681270 0.15931280
0.20253326 0.28738099 0.15505376
-0.29695117 -0.53743541 -0.09488827
-0.19446719 0.60421157 0.45072931
-0.18987268 0.72417367 0.36914936
-0.28183228 -0.21716058 -0.20929074
0.21146472 0.26380932 0.05682017
-0.21391322 0.55833411 0.35277450
0.27882048 -0.51572883 -0.22049475
0.07024525 0.53294110 0.22401705
-0.22924562 -0.69493163 -0.15333259
0.37813962 0.07606240 -0.07031862
-0.19586754 0.45846578 0.23904118
0.37408978 -0.10192978 -0.29121637
-0.18791816 0.60123575 0.29748178
-0.26648444 -0.38888609 -0.28054374
0.25695899 0.07046433 0.01637211
0.24428193 -0.43791220 -0.37925738
-0.38841772 0.04874328 -0.08495836
-0.07034215 0.91334891 0.25689429
-0.19475207 0.36596304 0.16812798
-0.22567810 -0.35824722 -0.27762392
-0.25134325 0.11577226 -0.00543985
-0.21631534 0.46443439 0.30309820
0.19988681 0.14798233 -0.00710649
0.13818750 0.23889057 0.12182566
0.17676900 0.02566308 0.12589945
0.24536866 -0.43127194 -0.31142387
0.21925247 -0.61081266 -0.20006113
-0.16094118 0.12130590 -0.10056891
0.06620395 0.30552360 -0.03956486
-0.14265858 0.79142499 0.40784228
-0.27352798 0.01217858 0.26476085
-0.23193495 0.38766697 0.38959229
-0.14938113 0.63501167 0.21577880
0.05434158 -0.14169914 0.05996953
-0.32854879 -0.44509301 -0.25327608
-0.15793410 0.39128315 0.29596370
-0.20055526 -0.29525298 -0.03217463
0.12161210 -0.16930637 -0.25780284
-0.41753358 -0.02660715 -0.01949582
-0.37723356 -0.67910707 -0.09290673
-0.37705147 -0.71555459 -0.26966926
0.19760349 -0.54006124 -0.36187643
0.22892694 -0.68250525 -0.20919108
-0.04665188 -0.07241003 0.13049702
0.26729453 -0.50614774 -0.29874846
-0.20864114 -0.37735510 0.01865374
-0.22901522 0.45477906 0.44645697
0.29970932 -0.16878536 0.01507528
-0.16224900 -0.21314427 -0.16160911
-0.10580885 -0.19650942 -0.19430380
0.09764175 0.43669650 0.17998250
0.25958681 -0.39181742 -0.37970197
-0.10383363 -0.17663214 -0.22736448
0.46848416 -0.58344722 -0.28590375
0.33499295 -0.03596522 -0.24941388
-0.08967786 0.13459401 0.09996386
0.39695418 -0.65230501 -0.43700820
0.16503496 0.47631818 0.22478075
0.28158635 -0.22419882 -0.01812468
-0.01780122 0.91912556 0.33301741
0.44658059 -0.04988332 -0.23573658
0.22551848 -0.11431475 0.05335592
0.09073903 0.39674243 0.00898620
0.25671640 0.08233870 -0.18515266
-0.21555459 -0.00529021 -0.11994310
0.07870394 -0.26679355 -0.04532389
0.00993995 0.10575237 0.05343554
-0.35607761 -0.12243401 0.16875236
-0.19980742 -0.17366681 -0.21235552
0.42272609 -0.02581191 -0.25795531
-0.29587352 -0.70049238 -0.10702179
-0.15651932 0.25013405 0.03299306
-0.03023030 -0.19658440 -0.20443255
-0.25271398 -0.18632764 0.10456878
0.26795584 0.10197619 0.08008210
0.20437628 0.45282942 0.14748420
0.03527063 0.28469220 0.11792513
-0.21443242 -0.29929453 -0.10910009
-0.05674308 0.08173772 0.06509869
0.05994947 0.91918695 0.31802899
-0.37172729 -0.26338902 -0.21937755
0.22971641 -0.52898026 -0.29478529
0.20201060 0.60004556 0.20322572
0.22802988 0.18602991 0.06025345
-0.13144846 0.85526931 0.30524459
-0.14863251 -0.06441723 0.14645821
0.17846790 -0.36515746 -0.10607468
0.37292665 -0.31207737 -0.36296162
0.31907094 -0.27456477 -0.34156489
0.25849533 0.14519623 0.11346774
-0.24122967 0.11551208 0.01151456
-0.37555307 -0.09171806 0.17375429
0.09136183 0.78129697 0.16065186
-0.26908642 -0.68511987 -0.28936866
-0.42816812 -0.12144099 -0.09931114
-0.11557806 0.12785111 -0.10771637
-0.34567189 -0.71112013 -0.28450868
-0.39770687 -0.16147077 -0.17187487
-0.41536540 -0.14146987 -0.15412512
-0.14603233 0.71715271 0.25462770
-0.24221028 -0.61103237 -0.15019283
0.26691476 0.12103783 -0.13556449
-0.41882956 -0.44625708 -0.20199692
-0.05001731 0.28715128 0.13908467
0.16680484 -0.30703503 -0.20965859
0.09318270 0.07985222 0.05244827
0.10544576 -0.32921967 -0.26587889
0.27033937 -0.14246482 -0.25235078
-0.32324064 -0.43616304 -0.26615438
0.16947906 -0.09528352 -0.21503672
-0.16334164 -0.11444663 0.11060621
0.19884527 0.68980002 0.29018295
0.35960704 -0.72269583 -0.27619535
-0.15595666 -0.13157064 -0.19654033
-0.19998340 -0.37506604 -0.06252130
-0.31941360 -0.18420118 -0.19338651
0.22594871 -0.67349148 -0.19978775
0.44611412 0.01481874 0.05947364
-0.08760196 0.68083620 0.15885602
0.24925517 -0.46649680 -0.38842064
0.28487045 -0.04222934 -0.24776798
-0.39665359 -0.54944408 -0.09320347
-0.21600743 0.10589883 0.02946381
-0.11976381 0.62831986 0.15252121
-0.13653114 0.26352251 0.20473413
0.14297053 -0.27835497 0.00791458
0.19250187 -0.61201406 -0.37621030
0.21374102 0.73644543 0.28651053
0.42725199 0.10296234 -0.17187242
0.13251987 -0.19244903 0.02655289
-0.28641444 -0.57793832 -0.36378381
0.47559214 -0.58666110 -0.23663890
0.48345309 -0.04929018 0.02771933
-0.17572190 0.42009860 0.16795461
0.01198341 -0.09431937 0.10942354
-0.19158325 0.25395399 0.11448618
0.26092952 -0.17559597 -0.27029809
0.11676997 -0.39939871 -0.14375740
-0.17752548 -0.09787792 -0.18088108
0.46764416 -0.67979872 -0.31994909
0.07453398 0.06211195 0.06419359
-0.25323665 0.11890748 0.29877245
-0.28581762 -0.05577660 0.18505611
-0.31781369 -0.43939194 0.01997117
-0.39715779 -0.62181604 -0.10924694
-0.26505888 -0.27392378 0.07252026
-0.02555235 0.93187642 0.29241496
-0.19553840 -0.35189876 -0.17238568
0.00620950 -0.19878906 -0.21411842
0.25031215 0.23634328 0.12137797
-0.23657490 0.20717603 0.32731810
-0.22096865 -0.33179417 -0.28402686
-0.19877553 -0.31518230 0.01260856
-0.15542221 -0.18338871 0.09475285
-0.40299433 -0.40046152 -0.08300990
0.22478916 0.18968850 0.12386964
-0.29260188 -0.72811282 -0.23638120
-0.32015443 0.02416452 0.25544965
-0.15153350 0.52932572 0.35222319
-0.21359931 0.20564416 0.25608075
-0.29255670 -0.15443197 -0.18253501
0.32961100 -0.10805346 -0.27725956
0.34638590 -0.20657945 -0.00810596
-0.23677875 0.20270479 0.21986285
-0.41667110 -0.46442410 -0.12585580
-0.20979282 0.17975698 0.23932199
0.37021941 -0.38942102 -0.09496000
-0.29692721 -0.57492542 -0.34696007
0.06426366 -0.10099430 0.09623671
0.16446203 0.15529925 -0.04362801
-0.27463579 -0.02141823 0.20322920
-0.20273544 0.12290174 -0.01307655
-0.39889443 -0.66514146 -0.09963225
0.12235118 -0.25799006 0.01289513
-0.22225459 0.28418717 0.25665253
-0.19281186 0.17369936 0.04468821
0.19280341 -0.62036252 -0.41823956
-0.17684038 0.72602844 0.32037684
0.40548682 0.06022476 -0.02279021
0.21750261 -0.45837155 -0.13092023
-0.08572745 0.15980658 0.11210059
-0.11867435 -0.09027447 -0.18113494
-0.21720092 0.31678873 0.30647200
0.01587638 0.29258519 -0.05100905
-0.14010026 0.56444907 0.15875015
0.21116991 -0.23720038 -0.00297725
-0.04530904 -0.00625364 0.15803429
0.32625926 -0.57053685 -0.16475897
-0.16195379 0.23293629 0.22506142
-0.21704103 0.62870610 0.46769330
0.03313255 -0.15150069 0.05436299
-0.20893981 0.12839447 0.05406689
-0.17573877 0.59214365 0.25873989
-0.20537509 -0.09384523 0.14245315
0.14482847 0.81909633 0.26975885
-0.34259588 -0.75147188 -0.18445374
-0.39620453 -0.31124902 0.00839970
-0.26068676 0.06927017 0.25252739
-0.23384352 -0.63338864 -0.10011396
0.14094761 0.07756701 0.05547839
-0.06980031 -0.27519488 -0.01207529
0.13935113 0.78658950 0.19927399
0.36893660 -0.53864837 -0.15645684
-0.26203322 -0.67324162 -0.26874804
-0.24013595 0.21685576 0.23322093
-0.13993685 -0.43412766 -0.04938491
-0.19609901 0.68173087 0.37801212
0.46906608 -0.68902957 -0.23436570
-0.42256087 -0.14611183 -0.10102202
-0.19627470 -0.15168256 0.10056403
-0.35980219 -0.13800873 -0.16699317
-0.32408583 -0.40941772 0.03468833
0.03453799 0.53818697 0.22522001
0.25869045 -0.43535039 -0.27253845
0.17181160 -0.37266654 -0.10270701
0.24016340 -0.12707064 -0.24837139
0.45817101 -0.30401561 -0.26510492
-0.30169863 -0.43740019 0.01229079
-0.20606439 0.54939592 0.42795119
0.31520116 -0.03698757 0.07752080
-0.27500951 -0.67960620 -0.32203156
-0.03565368 0.77420652 0.34668961
-0.26038283 0.02414961 0.26328066
0.04169823 0.93826318 0.25632858
0.15535098 -0.30549997 -0.24352002
-0.19501147 0.20851387 0.26058635
-0.22198047 0.31470042 0.25168115
-0.09469315 0.45451897 0.25658685
-0.20458202 0.45090583 0.26271498
0.15568748 -0.04496628 -0.22053307
0.43737948 -0.19133714 -0.01329136
-0.05859995 0.92057002 0.34549546
-0.10341446 0.03549227 -0.14604111
-0.21206674 0.55831587 0.39843112
-0.41925055 -0.00720850 -0.00326885
-0.39371866 -0.75266314 -0.13429087
-0.23341240 -0.30674523 -0.18772206
0.18516855 0.09456150 -0.17193469
-0.20109981 0.52736527 0.42532068
0.43697590 -0.71331477 -0.27923012
0.02844596 0.25526810 0.11419485
-0.36065185 -0.20261639 -0.19217727
0.04385971 0.60351586 0.25438008
0.30239987 -0.45784840 -0.11299869
-0.38317108 -0.48864910 -0.01674865
-0.17183597 0.18362869 0.21858634
-0.19424652 0.75956225 0.41733733
-0.40216380 -0.46853051 -0.07822237
-0.13099298 0.05423757 0.13272718
-0.27702188 -0.03332035 0.29545596
0.23925245 -0.64146268 -0.18568715
-0.25269997 -0.59225309 -0.25529200
-0.04005539 0.11443621 0.06524636
0.15538436 -0.24377760 -0.24445233
-0.25266701 -0.62064481 -0.10066281
-0.23192672 -0.65319526 -0.09807479
0.35371596 -0.38755924 -0.39341405
-0.03842170 0.73014200 0.34045008
-0.16971099 0.55080384 0.37446645
0.02049996 0.82093811 0.32880226
-0.00111115 0.78756201 0.34353796
0.00817520 0.36596760 0.15207997
-0.14737226 0.17665774 -0.01404851
-0.42299765 -0.39875320 -0.18920724
-0.26739085 -0.50206578 -0.06160402
-0.15270250 0.35628816 0.09505884
-0.22459559 0.51838434 0.42412648
0.38080865 0.08084714 -0.09362610
0.03600352 0.92275560 0.30969968
0.22972402 -0.68164110 -0.30946818
0.38721818 0.09233844 -0.10953641
0.24995886 -0.44341889 -0.23409835
-0.24712013 -0.10527880 -0.16771103
-0.42109835 -0.09867743 -0.11937466
-0.28141791 -0.76439941 -0.15603113
-0.17457727 -0.37915066 -0.24643072
0.23021220 0.43285090 0.20589854
0.22402324 -0.66511011 -0.23923549
-0.12383479 0.25568670 0.18511325
-0.40242583 -0.55228150 -0.13053617
-0.17576900 0.31083503 0.28217477
0.10482150 0.59401560 0.10434861
0.41130787 -0.71481133 -0.24599564
-0.09823632 0.61001456 0.14093344
-0.09609917 -0.18287909 -0.22203541
-0.22110172 0.43510833 0.29162431
-0.40998989 -0.00257334 0.08124571
-0.31401384 -0.12144466 -0.16657367
0.47922772 -0.02481326 0.05530152
0.19770554 -0.41620973 -0.06950253
-0.17525443 -0.37427229 -0.12266169
-0.41022718 -0.68079197 -0.20805097
-0.12684360 0.82449389 0.25938234
-0.29116595 -0.66863143 -0.35964039
-0.07797726 0.72486186 0.36509788
0.21333350 0.47567704 0.17258991
-0.28642052 -0.03231181 0.20805167
-0.30045927 0.10072879 0.04085828
-0.42780554 -0.28703269 -0.20138018
-0.02441525 0.62454748 0.28583324
-0.41236442 -0.67157876 -0.23131990
-0.39958006 -0.56262970 -0.10413517
0.17341790 -0.31951922 -0.17606074
0.17258930 -0.26242065 -0.09439239
0.44341147 -0.43017629 -0.12792212
-0.36922985 -0.58375192 -0.33925200
0.26938283 -0.47067919 -0.24326840
-0.41478032 -0.01731470 0.02077929
-0.17317946 -0.14382763 0.10029569
-0.41763216 0.06546953 -0.06895085
-0.28087556 -0.04633877 -0.11642796
0.32501233 -0.45116070 -0.10617040
-0.20374605 -0.27924523 -0.07708536
-0.39761370 0.06653793 -0.01514864
0.17233908 -0.42359117 -0.24310231
-0.11800656 0.00691637 0.18267466
-0.26635790 -0.57021439 -0.26356381
-0.29050750 -0.60329878 -0.10715735
-0.13387425 0.22508007 -0.02120092
0.37510985 -0.60523558 -0.19091158
0.39538532 0.02830766 0.03747638
-0.21452427 0.48644853 0.42814296
-0.30124998 -0.57484865 -0.06327120
0.01078795 0.13460150 0.06177725
0.44142747 -0.56185329 -0.18237533
0.31885511 -0.40090889 -0.40387765
0.31862670 0.06854758 -0.20473114
0.29441172 -0.15027271 0.03140149
0.18142185 -0.23145521 -0.30594748
0.05225275 -0.23443714 -0.11205778
-0.40095741 -0.03644253 0.07798477
0.45113558 -0.41130939 -0.33504105
0.22515553 0.12364593 0.02103945
-0.26352137 0.09441669 0.26526040
-0.35184991 -0.46036085 -0.28588536
0.14157945 0.06031314 -0.17202201
0.46689242 -0.03986184 -0.11290033
-0.15833476 0.56568778 0.39760321
0.25095907 -0.15972203 0.02431634
-0.12994072 0.60674715 0.17666012
-0.19720936 0.37892416 0.21449348
-0.41895813 -0.07874711 -0.10895470
0.46788263 -0.35325912 -0.11024410
-0.03291444 0.86780131 0.19264226
-0.08049992 0.29148310 0.16944838
0.44953871 0.02766681 -0.17193627
0.39585364 -0.54392362 -0.46669242
-0.00456750 0.38544273 0.17018606
0.26279944 -0.46377125 -0.28951356
0.20724662 -0.10356182 0.07218419
-0.43006849 -0.58182180 -0.23461357
0.06571054 0.04983911 -0.16977139
0.09557138 -0.17337701 0.04038296
-0.00782439 0.26052225 -0.06521884
-0.31038368 -0.72691357 -0.23118034
-0.03447385 0.02261432 0.14210847
-0.02227937 -0.18435925 -0.23337817
0.20171502 -0.03411338 0.09981341
0.04894962 -0.11682670 -0.22636619
-0.31524569 -0.45293406 -0.20988894
-0.11755942 -0.27814984 -0.01263443
-0.31250089 -0.26504734 -0.22513688
0.10261659 0.04828765 0.09965716
0.27708760 -0.47818151 -0.11240204
-0.24613486 0.01478320 0.24836324
-0.12497678 0.88870108 0.34616530
0.01241433 0.01485770 -0.16887337
-0.39311415 -0.11177506 0.15954340
0.40909290 -0.56311667 -0.17661360
0.37363416 -0.49670884 -0.13734254
-0.22620790 -0.40717980 0.01015304
0.12754336 0.78010380 0.18645757
0.23158099 0.21398917 0.06807920
0.19468544 0.44347814 0.21437900
-0.22448729 0.42422026 0.40795988
-0.24966173 -0.68865681 -0.22615531
0.02458717 0.78374803 0.32739630
0.47951090 -0.18949443 -0.05097450
0.07837119 0.85319972 0.28220081
-0.11735459 0.88215721 0.30790156
-0.36933690 -0.02384197 0.24504669
0.11663900 -0.34928697 -0.32607451
-0.43412668 -0.52243447 -0.27387232
0.05256592 0.18663670 -0.09910262
0.12551311 -0.24923331 -0.10450116
0.42536706 -0.71768713 -0.25098670
-0.19465725 -0.21611848 -0.15882784
-0.18354064 0.26824030 0.10261500
-0.11858973 0.51435679 0.30240834
-0.05764051 0.45213866 0.03185619
0.46411276 0.05084178 -0.03059079
0.47249353 -0.04578815 -0.03447651
0.07330927 0.55647272 0.06906904
-0.09949876 0.51490045 0.28256127
0.23710719 -0.29798803 -0.33923069
-0.26620400 -0.02831937 0.26686984
-0.24945389 0.12083399 0.23340705
-0.07113635 0.10703084 -0.11901982
-0.35205805 -0.01134358 0.31827191
-0.18720412 0.50692344 0.40029123
-0.20374838 -0.08830827 -0.16944675
-0.20384194 0.70013654 0.45309234
-0.00764531 -0.15208922 -0.23500207
0.37948036 -0.42285767 -0.11455746
0.37565690 -0.51055539 -0.14963873
0.11575229 0.39854127 0.02520278
-0.18368122 -0.01222885 -0.12782101
-0.18351273 0.38549098 0.33831778
0.09570332 0.45091581 0.03827685
-0.33943844 -0.30079681 0.08153778
-0.41383660 0.04302381 0.03266578
-0.41542894 -0.69501722 -0.32290095
-0.11054169 0.18880364 -0.03353120
0.13111825 -0.27825022 -0.03886267
-0.00468766 0.08155414 -0.14018200
0.18361709 -0.07094729 -0.22068053
-0.32974017 -0.49748322 -0.01109261
0.02643724 0.66573370 0.28023726
0.02697654 -0.21675575 -0.14424883
-0.14023925 0.01807903 0.18191195
-0.43130207 -0.49956003 -0.28505883
-0.13108692 0.49430820 0.12970620
0.28242689 0.08200575 -0.05924949
-0.07476380 0.05370771 0.10428019
-0.08998944 0.86465967 0.24459019
-0.15256429 -0.43367216 -0.10561982
0.14416243 -0.26054195 0.01011719
0.38929814 0.08221160 -0.21269080
0.46214521 -0.11347350 -0.16425565
-0.27869791 -0.16913474 -0.19687788
0.42674410 -0.49237755 -0.44687128
-0.16486004 -0.15503645 0.09445485
0.21684445 -0.65411520 -0.35434496
-0.20866624 0.60527980 0.39079320
-0.40700817 -0.44301787 -0.09078462
-0.08264389 0.90870273 0.36986524
-0.30473006 -0.35492721 0.05287230
-0.18770431 -0.37813127 -0.13075005
-0.16134849 0.63565743 0.42369235
0.39836365 0.11552408 -0.18836609
-0.37181699 -0.17453179 -0.17723720
0.21278633 -0.51003110 -0.40825659
-0.20418786 0.67584598 0.46867603
-0.14997217 -0.23168150 -0.12187998
-0.07143614 0.25176299 -0.04969195
-0.19993024 -0.22398198 -0.12986365
-0.11669771 0.23228607 -0.01920443
0.10938215 -0.35650638 -0.22128350
-0.13988400 0.17791864 0.16519074
0.40303284 -0.36926290 -0.09489831
0.39633143 0.06863984 -0.04705416
0.25673002 -0.72629571 -0.23107791
0.21401703 0.51068282 0.19836359
-0.40292883 -0.12774850 0.01773835
0.36495423 -0.40631375 -0.10044797
-0.21836077 -0.11708665 -0.17954500
-0.25357038 0.00470494 -0.11980076
-0.39910716 -0.07312949 -0.11508921
-0.20791608 0.13315094 -0.06281943
-0.28136569 -0.48996583 -0.10651873
0.38416314 -0.47663411 -0.43148103
-0.06895653 0.76627731 0.16955537
-0.28915709 -0.55855846 -0.28458080
0.22012879 0.46946150 0.19339266
-0.30756915 -0.60069919 -0.35390931
-0.03681908 0.29839292 0.14780480
-0.03726191 0.59625268 0.08892083
-0.42682093 -0.61019909 -0.32794365
-0.16100070 0.76903009 0.29899934
-0.39985001 -0.08969532 0.11138949
0.13706838 0.37600657 0.04118608
0.09004295 0.87083364 0.28835845
-0.39712852 -0.05390133 0.08574152
-0.36445683 0.05605435 0.19202377
0.03388102 0.60966408 0.08378197
0.18497708 -0.30018333 -0.11350600
0.27308613 0.06027808 0.05723880
-0.00986454 0.36887297 -0.01840070
-0.28521645 -0.64469850 -0.36537722
-0.22313370 0.09935637 0.06006346
-0.38473725 0.00649484 0.22605756
0.45989347 0.00185007 -0.10954167
-0.08535211 0.34909132 0.01062870
-0.02213175 0.79215920 0.35631272
0.14651299 0.02908447 -0.19596405
-0.31308967 -0.15156722 0.12402575
0.46865684 -0.33882174 -0.22536811
0.09794142 0.13613009 -0.13641903
-0.00658842 -0.22066957 0.05663044
0.16859230 0.66951716 0.19172399
-0.19016457 -0.28389063 0.06218746
-0.22654463 0.50598145 0.35897073
0.18280570 -0.31116313 -0.11095555
0.28875852 -0.40440699 -0.38797328
0.15394470 0.66488433 0.17047335
0.46568137 -0.49769273 -0.30026948
0.20909223 0.12548921 -0.16395301
0.11205094 -0.18596998 -0.25096935
-0.03885616 0.91185236 0.34741023
-0.41653067 -0.06324032 -0.03402098
-0.09774968 0.19694588 -0.04803603
-0.11997455 0.34159565 0.03526824
0.24928987 0.11407279 -0.14915244
-0.36940908 -0.15734670 0.12818453
-0.20785382 0.69306397 0.53928882
-0.23845519 -0.27614924 0.07526430
0.46777666 -0.14119862 -0.00566679
-0.17620149 0.33227661 0.12341890
-0.23934089 0.36895686 0.42230672
0.02533324 0.27444011 0.11296570
0.07017125 0.22986645 0.09981732
-0.19591312 -0.03361560 0.17919366
-0.35858709 0.06628010 0.09843561
-0.30728936 -0.58267176 -0.08365278
-0.04311765 0.37321693 0.17535956
-0.24927361 -0.21751437 -0.21479657
0.28172934 -0.19021904 -0.27907744
-0.35824382 -0.10889292 -0.14795382
-0.18725896 -0.30066273 0.01937898
-0.19800018 0.36757332 0.18853559
-0.11994962 0.64461493 0.18017939
0.02758256 -0.06055740 -0.18100780
0.47257429 -0.00705798 -0.05144645
0.22814816 -0.34516335 -0.04703939
-0.10581397 0.70271420 0.18195423
0.14216299 0.49983549 0.22623688
0.10710948 -0.40191475 -0.24928069
0.06734574 0.35560718 -0.01317952
-0.34539211 -0.48571423 -0.31196681
-0.24287827 -0.65619218 -0.24206385
0.44635165 -0.21324605 -0.28699911
-0.09101000 -0.07514411 0.13335353
0.17721489 0.32194388 0.04431422
0.12188960 0.67814589 0.14119878
0.44104415 -0.31403270 -0.09487155
-0.25606883 -0.66232610 -0.27226710
0.02925306 -0.28065911 -0.00981627
0.45064110 -0.69169986 -0.24472496
0.08458903 -0.24679804 -0.09183669
-0.33635616 -0.45154342 -0.26469749
-0.19687240 0.76319611 0.48523936
-0.25604922 0.08797871 0.29345626
0.12557921 -0.41380540 -0.10307543
-0.29025042 -0.04383940 -0.11307861
0.18578166 -0.28245592 -0.06876414
0.21955930 -0.65440500 -0.25635180
0.24620856 0.15343262 0.09514239
0.18481578 0.14988431 0.09403902
0.08018346 0.15387842 -0.11058784
0.24540175 -0.50446260 -0.33771518
0.26290065 0.11010025 -0.12675656
0.28133476 -0.02791172 -0.24562672
-0.23807634 -0.63619769 -0.18194653
-0.27891558 0.10450035 0.00666292
0.47032815 -0.32548413 -0.16637541
-0.10252032 0.16029562 -0.07978830
0.23951082 -0.58986866 -0.17638727
-0.26740777 -0.48587140 -0.01438257
-0.26820976 -0.40781000 -0.27016515
-0.23044060 0.11051621 0.12318191
-0.23269610 -0.66965890 -0.16933812
-0.24310498 -0.70448947 -0.18560256
-0.02788263 0.19029894 0.09890597
0.47573811 -0.57566881 -0.19409333
-0.20023194 0.36218804 0.35513502
0.14821011 0.43049327 0.06067225
0.27057353 0.09607512 0.09336439
0.38167506 -0.06642215 0.05155720
0.34591627 -0.45675638 -0.11484928
0.34148610 -0.57968879 -0.17421493
0.10244063 0.32963926 0.14055264
0.37491697 0.01083817 -0.24357703
-0.17342384 -0.13183773 0.10902869
-0.19086727 0.48879209 0.37559026
0.26602155 -0.54919052 -0.21923241
-0.24039681 0.19705644 0.25077653
0.46151060 -0.37263459 -0.23802540
0.00253286 0.60125995 0.26653045
0.21760990 -0.12722193 0.04956090
-0.10651042 -0.03135365 -0.14650135
-0.38204867 -0.40705636 0.03429006
-0.22436859 0.30105618 0.23673026
-0.20843376 0.23341209 0.13349220
-0.15789467 0.32575685 0.07466307
-0.26060349 -0.01884659 0.20715110
-0.10799138 -0.09446193 -0.18356714
0.41864437 -0.68262804 -0.23280796
0.10757278 -0.06995082 0.10452221
-0.05096688 0.40879256 0.01103786
0.19077857 0.30981117 0.05471314
-0.20632851 -0.31555104 -0.05448977
0.26004767 -0.45221576 -0.29404619
-0.31561625 0.07892153 -0.06890367
-0.24277587 0.12705125 -0.04178581
-0.10603699 -0.28340065 -0.00685959
-0.25081462 -0.04185662 0.18539219
-0.40303880 -0.72409832 -0.21257001
0.23801346 0.08849680 -0.07518771
-0.04627792 0.78803527 0.36274132
0.16684964 0.01948768 0.11906217
-0.33642119 -0.19549930 0.11847261
0.11666149 0.27883381 -0.03232141
0.26112631 0.03563705 -0.20562246
-0.40462077 -0.37605208 -0.03307563
0.16612104 0.77084315 0.32320949
-0.27206653 -0.60442269 -0.14401600
-0.39480680 -0.35689166 0.00706294
-0.18764427 0.53543657 0.26365548
0.27737999 0.01331010 0.11666057
-0.35590321 -0.18525475 -0.18368250
0.03090824 0.91142666 0.21555869
0.45091522 0.05140245 -0.17787303
0.29042709 -0.61456621 -0.47099975
0.45857143 -0.23610747 -0.22536713
-0.15767631 0.78416431 0.31039459
0.18381160 -0.38688421 -0.05254478
0.11909624 0.07658029 -0.16613244
0.08131357 0.14346877 -0.11320595
0.28557074 -0.27422813 -0.04171492
0.02293019 0.58190095 0.07394169
-0.41832346 -0.60062790 -0.23564038
0.19895963 -0.61355555 -0.43967468
-0.10283172 0.14147303 0.11107730
0.24445114 0.29154184 0.14633898
-0.07750487 0.79747224 0.18818145
-0.18156649 0.30528316 0.11313467
0.01664693 -0.04262221 0.13504812
0.23832096 -0.43416199 -0.25149694
0.06639580 -0.19343445 -0.23511389
-0.10101022 0.46166834 0.08391783
0.44445133 -0.22402853 -0.26611176
-0.20843914 0.66199934 0.45923567
-0.20440832 -0.45488003 -0.13061395
-0.20423420 0.55933702 0.40934372
0.02068871 0.32375816 -0.03949659
0.23378937 0.22132476 0.15121317
-0.19301373 0.76266491 0.45948657
-0.37475538 -0.20247459 -0.18737537
-0.07258204 -0.05051047 0.14024785
-0.21544485 0.27302560 0.17012328
-0.25525898 -0.67211628 -0.25323305
0.42305118 0.08154564 -0.21690437
0.17596431 -0.40277964 -0.06731056
-0.28939354 0.10083488 0.05781815
0.14313680 0.82794142 0.23055819
0.19712241 0.52548456 0.16115656
0.30874652 -0.17490163 0.01518190
0.21903214 0.38053235 0.14185752
-0.00405887 0.38162121 -0.01548094
-0.21335192 0.44708487 0.39384979
-0.17440213 -0.10966185 -0.18672572
-0.20553035 0.71044743 0.41069391
-0.29941130 -0.67900777 -0.09608328
-0.36560583 -0.56532037 -0.03906222
0.22882642 0.47601202 0.24728827
0.20288907 -0.18433240 0.00959120
-0.28975391 -0.57566333 -0.09407273
-0.05226645 0.66505182 0.12281664
-0.21511067 -0.35642824 -0.11074139
-0.11120416 0.70385933 0.19406161
-0.08584607 0.40622115 0.22415185
0.02070919 -0.00040042 -0.17270266
-0.22095357 0.42745295 0.33571267
0.45205826 0.01231025 -0.17430878
-0.19830729 0.60731387 0.43011469
-0.26009333 0.13927302 0.29362404
0.19524616 -0.51600671 -0.41190067
-0.17576100 -0.29939747 0.02872339
-0.32227975 0.05227109 0.18327291
-0.41359198 -0.13755067 -0.01983456
0.29581833 -0.06063092 -0.25404486
0.20027035 -0.63426030 -0.39842603
0.42633802 -0.20223406 -0.33728728
0.23928882 0.10739867 0.02139352
-0.16699432 0.80103052 0.32935417
0.10281133 -0.21012640 -0.20290282
0.07398203 0.87382507 0.21313299
-0.39713383 -0.67178547 -0.14418674
-0.13702522 0.36438099 0.07277645
0.12491223 -0.15517420 0.04181333
0.18753549 -0.17121789 0.02001054
0.13070455 -0.35958835 -0.17560881
-0.08327044 0.42014351 0.04185183
0.09634002 0.36793146 0.16044539
0.22304091 0.25009072 0.07974957
-0.08107626 0.77949631 0.39386508
0.15076581 0.32873300 0.15614061
-0.35917431 0.06995335 -0.08023827
-0.06169272 0.70476162 0.34470189
-0.10295552 0.52669191 0.29111075
0.24679486 -0.58027518 -0.44981030
-0.29454881 -0.67218959 -0.37904146
0.05760819 0.79237282 0.14921127
0.33020627 -0.21769723 -0.29063758
-0.20174389 -0.33019847 0.04100013
0.09383482 0.83990097 0.24104652
0.44066679 0.03264835 -0.21603239
0.25342360 -0.62102044 -0.17278349
0.20998217 0.04998424 0.09037055
0.10668478 0.74565697 0.31608307
-0.03821309 0.68390834 0.11633814
0.09284808 0.56605220 0.08380389
-0.35653549 -0.66323781 -0.37532550
-0.16786188 -0.21734923 -0.18120605
-0.30719012 -0.03289868 0.33870596
-0.18667673 0.78870964 0.37003306
0.46834272 0.01428542 -0.05582386
0.04476647 -0.06547908 -0.18782209
0.07744405 -0.26148924 -0.06293201
-0.11648022 -0.17667180 0.08988830
0.12366278 0.27684087 -0.02360270
0.24145886 -0.41655979 -0.35898718
-0.27296937 -0.48424360 -0.11434689
0.13753119 0.63031578 0.27049121
0.05345499 0.93367457 0.27067062
0.08405871 0.02630550 0.14336844
-0.42010862 -0.65886104 -0.34827593
0.14905280 0.49317369 0.09029750
0.20160921 0.65700543 0.30836785
-0.26832128 0.10884358 -0.04379521
0.13684849 -0.28309819 -0.01410209
0.11891605 0.50541192 0.06972392
-0.22007470 0.53481567 0.46963063
0.45347840 -0.55413270 -0.36656523
-0.36479843 -0.67932081 -0.36282223
0.39905101 -0.27756596 -0.33374643
0.14915213 -0.26693708 -0.07109592
0.14497134 -0.38534528 -0.30267704
0.06952956 0.20038819 -0.08598469
0.11240511 0.47827700 0.06127284
0.14374474 0.20824976 0.09809688
0.36680984 -0.70131242 -0.30161923
-0.02572577 0.58789933 0.26798370
0.22766407 -0.23936516 -0.01236569
-0.10028984 0.87162304 0.27997410
0.15164803 0.63740718 0.15394193
0.10927851 0.71646929 0.14921507
0.17631896 -0.40404245 -0.26455224
0.16491196 0.00196248 0.12718165
-0.20922391 -0.15993157 0.10902645
-0.13371195 0.02525559 0.17679642
0.18303709 -0.11754890 0.06360333
-0.12183701 0.28771663 0.01521651
-0.21389161 0.66536391 0.48760507
-0.42700225 -0.56441963 -0.26476485
-0.09970626 -0.13539326 -0.20811778
-0.14104290 0.76524842 0.46114755
0.36930901 -0.01484372 0.08052757
0.39913493 -0.51727378 -0.45147532
-0.17954223 0.28202653 0.26770425
-0.30755466 -0.71158266 -0.10574669
0.09635076 -0.37409639 -0.28357825
-0.07391964 0.70767093 0.35761970
0.24859636 -0.07573028 0.07481087
0.08101280 -0.27848622 -0.00523452
0.23873490 -0.42432925 -0.32974142
-0.43207306 -0.66138220 -0.35520995
-0.30716413 -0.48138830 -0.16404413
0.41537428 -0.19341734 -0.31268317
-0.33455855 0.04189425 0.20112593
0.13006741 0.35687670 0.01686785
0.10799877 -0.11069725 -0.22101280
-0.32945693 -0.21795547 0.11718075
0.25023407 0.12045477 0.10758948
0.36553013 -0.72148740 -0.24648198
0.41303885 -0.21586490 -0.02609795
-0.01824845 0.33142501 0.15596637
0.46424860 -0.27426636 -0.05951179
0.35044503 0.09619600 -0.10205933
-0.42160594 -0.02653409 -0.06206162
0.06285106 0.51473868 0.21469964
-0.09962146 0.42889974 0.05615499
-0.09767234 0.06020222 -0.14096715
0.46776807 -0.04780069 0.04475357
-0.10064296 0.09970563 0.09684055
0.24894716 0.10668737 0.10694239
0.11792993 0.79660571 0.18500678
0.13589813 0.26727542 0.12306716
-0.42035544 -0.01904287 -0.08131498
-0.17440118 0.46559930 0.19941503
0.25134379 -0.59693718 -0.45655367
-0.26055586 0.08845609 0.24563204
0.25993580 0.21024558 0.11790523
-0.08153401 0.87666702 0.24010386
0.16054350 0.21586996 -0.02125108
-0.11080161 0.60519958 0.34125394
0.24710786 0.22553232 0.10813887
0.41724205 0.03925495 0.04149884
-0.42610359 -0.22807097 -0.12638234
-0.33764082 -0.60322344 -0.35801488
-0.34499574 0.06936265 -0.09529451
-0.17145796 -0.47090086 -0.09127736
0.20887950 0.76107001 0.28633329
0.22030227 0.52014667 0.26678127
-0.24370949 0.15887414 0.19415964
0.46520776 -0.08786631 0.02382754
-0.23613949 0.26705480 0.26594210
0.46376777 0.03939813 -0.02003758
0.04106325 0.24313846 0.10633236
0.42127401 -0.51619208 -0.15843947
-0.33613491 0.05271585 0.06255691
-0.26433009 0.05141659 -0.10576488
-0.25744778 -0.47020718 -0.13959396
-0.06728680 -0.08712494 -0.18628912
0.03038689 0.71802437 0.12041244
-0.31711000 -0.65639174 -0.37255022
0.41737247 -0.01543488 0.06047474
-0.14505288 0.20129481 0.17101654
-0.21441488 0.34866771 0.36600372
0.11884802 0.32744467 0.14783019
-0.40298849 -0.34548831 -0.04682247
0.28599757 -0.31979194 -0.36056632
0.17243195 0.45344433 0.11343938
-0.34541047 -0.13515149 0.14542665
-0.42509180 -0.04663824 -0.04766858
0.46873873 -0.24907556 -0.05868798
0.18234886 0.53991622 0.24658398
-0.12033175 0.26870489 0.00115398
0.03064891 0.75284421 0.32389790
-0.14419292 0.50396955 0.33228454
0.31911159 -0.43623182 -0.40709978
0.07498915 0.22605878 -0.07268994
-0.18540907 0.48811859 0.24227320
-0.05634163 -0.28136778 -0.00269657
0.22936161 0.22827679 0.13530433
-0.38967830 -0.10342821 0.12928103
0.10605104 0.29106036 -0.02815408
-0.18913443 0.70604408 0.36022606
0.17546618 0.52176988 0.23959401
0.47729427 -0.65984511 -0.24204156
-0.34570444 -0.70486474 -0.31543797
-0.33691514 -0.42311749 0.03137572
0.17205121 0.27750540 0.01904419
-0.41300958 0.02569161 0.05533626
0.22151239 -0.37429425 -0.36477652
-0.41296172 -0.29070497 -0.08674985
0.13733473 0.33244660 0.14771654
-0.03660835 0.51657796 0.24116178
-0.24241085 -0.32290509 -0.26543528
0.03836006 0.18530938 -0.10058720
-0.41775268 -0.52674401 -0.19881776
-0.18542197 0.58985865 0.28117561
-0.23349179 -0.32021719 -0.26176503
-0.23102127 0.05398674 0.19120164
-0.28194726 -0.42558971 -0.24792165
-0.00491792 0.91535628 0.20780982
-0.38692766 -0.68552780 -0.09688075
-0.24738254 -0.29769254 -0.21719983
0.21566723 -0.65535784 -0.29861346
0.08483063 -0.20058659 0.03706704
0.25891593 0.11989837 -0.14378305
0.28779066 -0.57302415 -0.17531742
-0.31954157 -0.66814303 -0.08849651
-0.21229662 0.63711607 0.40174088
0.27893484 -0.43393335 -0.39240658
-0.35981607 -0.04638633 0.33163497
0.24974605 0.27224651 0.15084556
-0.18805464 0.55814600 0.25834352
-0.37898189 -0.57777226 -0.04730266
0.42095995 0.06402595 -0.04996031
0.11934974 0.41837484 0.03749763
-0.25109082 -0.71948826 -0.20583850
0.14762710 -0.21066073 -0.24369046
0.28096449 -0.24637824 -0.02717007
-0.23980574 -0.67085290 -0.09671332
-0.24982207 0.00041227 0.26397002
0.25633520 -0.45957765 -0.39235315
-0.18224533 0.52145618 0.38923633
0.47609860 -0.45877567 -0.16646250
0.24857460 -0.47304162 -0.40764976
-0.27188104 -0.42414317 -0.24109223
-0.23548599 0.18612272 0.30191511
-0.26025170 0.05050880 0.25749573
-0.12342520 -0.25435138 0.06656223
0.11828804 0.03589972 0.11452348
0.44292569 0.06929038 -0.07572091
-0.14402047 -0.07424784 0.14369176
0.21109983 0.65821290 0.25224584
-0.34027857 -0.11101957 -0.15583044
-0.06971452 0.51848471 0.07106677
0.39651722 -0.01292010 -0.25162071
-0.23489793 0.05957878 0.25534710
-0.04529430 0.90863991 0.35618639
-0.21883906 0.09182197 0.20851892
-0.40548629 -0.08122134 -0.10858117
-0.23525973 0.22301976 0.19527958
-0.17204741 0.51976085 0.38807434
-0.10939837 0.34942913 0.21139044
-0.19015533 -0.37153292 -0.28811073
0.16328280 0.52757823 0.24184339
0.47462922 -0.42303768 -0.16324930
-0.42376655 -0.34654498 -0.18195179
-0.16516240 -0.42143407 -0.01966432
-0.24862544 -0.40758678 -0.27077636
-0.39415574 -0.04389040 0.15571007
0.22973858 0.46582294 0.21243601
0.26448846 0.10875984 0.08714661
-0.29784358 -0.05023448 0.29438135
-0.32643765 -0.02731942 0.20706256
0.46904969 -0.57163548 -0.27309915
0.13385276 -0.38155904 -0.11511900
0.07306507 0.32593745 0.14012069
-0.33095998 -0.04756017 0.19409293
-0.18371861 0.69353688 0.44586748
0.05346284 0.01788388 0.14311904
-0.20278986 -0.19227535 -0.20594034
-0.12294956 0.89489710 0.32278776
0.16074434 -0.33938441 -0.33726349
-0.11441575 0.57899344 0.32871017
-0.24916984 0.10875759 0.25015384
0.45160949 -0.33325285 -0.10427347
0.12127650 -0.31970072 -0.26475704
-0.33508635 -0.68405020 -0.37200454
0.25241655 -0.56386387 -0.21879357
-0.10981847 0.38346100 0.04867785
-0.03829959 0.32121760 0.15779465
-0.24829336 0.11883883 0.19050689
-0.06297378 0.72609508 0.34473208
0.27294558 0.04162811 0.08558459
-0.42368001 -0.37613395 -0.20449355
-0.14186135 0.81496263 0.27375406
0.34802037 -0.53944588 -0.15205351
-0.11435214 0.07071567 0.10787959
-0.11900434 0.41603217 0.25294822
0.22157456 0.39277339 0.15450975
0.37969267 -0.69614267 -0.31925645
-0.35665596 -0.42399272 -0.28544846
-0.28461432 -0.29063058 -0.23879987
0.19637989 0.54035568 0.17633882
-0.06232392 0.46438205 0.03812268
0.32122719 -0.17862406 -0.27819043
0.21945530 -0.58898687 -0.22203216
-0.01826994 0.77821708 0.34927934
0.00796229 -0.07498962 -0.18646091
0.17484908 0.31307513 0.15883794
0.47067934 -0.36316884 -0.18058339
-0.04600925 0.11069302 -0.12315275
-0.25498253 -0.42999563 -0.20948198
-0.32830173 -0.10471128 0.16378674
-0.19301930 0.46584618 0.22481038
-0.18199125 0.77536857 0.36757305
-0.40634865 -0.54245818 -0.14314702
0.05983270 0.00213562 -0.18151000
-0.08917070 -0.25862396 0.05394850
0.21452069 -0.18504825 -0.26931730
-0.20489323 0.18719161 0.10188234
0.44976163 -0.59871256 -0.42064857
-0.05682427 0.57346624 0.27799103
-0.22592549 0.44774386 0.37492597
-0.23180591 0.24249846 0.24267140
-0.22694482 0.25577444 0.22998880
-0.38473743 -0.38392147 -0.25983363
-0.11598554 -0.27696994 -0.03242752
0.47857481 -0.16414931 -0.03092051
-0.11043520 0.36702767 0.02743718
0.31256264 -0.72091925 -0.23588100
0.13604113 0.29616094 0.13334531
0.12259213 0.52535480 0.22713350
0.46259487 -0.62632000 -0.38064772
0.34184945 -0.19467944 -0.28818104
0.20273276 0.63155353 0.22638853
0.00300863 0.32527399 0.14857626
-0.13220128 -0.13223176 -0.20497549
0.22370803 -0.39442971 -0.07022852
-0.18793383 0.69688797 0.34480667
-0.36474454 -0.41003934 -0.27478608
0.17540415 -0.23996052 -0.30342719
-0.38998634 -0.00262346 0.16909103
0.23824821 0.11933085 0.10624981
-0.37564242 -0.41819617 0.04136408
-0.07589941 0.22838704 0.13742399
-0.41861033 -0.43547198 -0.17551935
0.11418419 0.21806562 0.09291252
0.20931308 -0.42247906 -0.07802836
0.41095328 -0.52855325 -0.46008053
-0.19465742 0.12998755 -0.08063982
0.45290273 -0.13076122 -0.22513464
-0.41676503 -0.07361583 -0.02152590
-0.29304868 -0.59531891 -0.08807056
0.03218968 -0.11374880 -0.22115284
-0.39367914 -0.24556425 0.05375048
0.43969536 -0.12399916 -0.28576463
-0.07730968 0.69575286 0.35459587
0.26989430 -0.12802702 0.04915618
-0.20143339 -0.43075427 -0.00662605
-0.02727085 0.82834053 0.15933678
-0.01892520 0.60805964 0.27596760
-0.38841766 -0.27641982 0.04268596
-0.06230109 0.72672021 0.15010250
-0.02109337 -0.27631146 -0.00068966
0.23869376 -0.71489334 -0.23032576
-0.01559123 0.61258888 0.09003679
0.21881226 -0.49468920 -0.41395479
0.26818529 -0.47739252 -0.21283057
0.11443640 0.84342432 0.21285285
-0.02866631 -0.14653848 0.07130390
0.48008770 -0.08068269 -0.04535005
-0.39012319 0.00344952 -0.09890990
-0.24480666 0.22943993 0.24287066
0.45511657 -0.09629041 -0.19906066
-0.16098833 0.51194787 0.36063349
0.46199161 -0.13248287 -0.15382506
0.42131585 -0.37399235 -0.39338186
-0.19417752 0.73534882 0.38724115
0.07835561 0.69912875 0.12575492
0.14647332 0.17548105 0.09115907
-0.24175353 -0.50220621 -0.04518602
-0.21603708 0.62133670 0.39373085
0.13735870 0.48368731 0.06990434
-0.34329855 -0.69035149 -0.09777023
0.30364543 0.03209663 -0.21537811
-0.19320041 0.66520655 0.35586691
-0.34760219 0.03811382 -0.10159831
0.05448871 0.15865502 -0.10879703
0.47611564 0.00470035 0.07122388
0.35863084 -0.16239432 -0.28699285
0.25625592 -0.48032185 -0.32878637
-0.39340371 -0.05778322 0.10393384
-0.08658289 -0.02647786 -0.14212440
-0.37268877 -0.13366492 0.15372950
0.28118849 -0.52299547 -0.20993528
-0.40189987 -0.12718014 -0.14517339
0.22108826 0.73156309 0.31775889
