-0.81663507 -0.21220310 0.49174207
-0.93035764 -0.15109840 -0.27775237
-0.53490674 -0.83673716 0.00257146
0.21790996 0.68404043 0.32413480
0.16578841 0.40954623 -0.87486744
-0.26962793 -0.16084023 0.92910707
0.65763539 -0.13990515 -0.63920498
-0.32618374 -0.08942004 0.91423953
-0.95894849 0.13396545 -0.06695698
-0.12642391 0.52262127 -0.38874501
0.55865026 0.54822695 0.12172477
-0.87679619 -0.06168870 0.42623708
0.16142398 -0.92114735 0.33868247
-0.40537634 -0.56844771 -0.13518766
-0.13703428 -0.87434638 0.45252469
0.52930111 -0.23078802 -0.23578578
-0.13646269 0.70238507 0.63426828
0.52458417 0.63306296 -0.52742678
0.13345551 0.62971318 0.63875449
0.13964833 -0.72121727 0.51538920
0.71997541 0.64793348 -0.12146711
0.80313587 -0.32612744 -0.24371625
0.27553949 0.90534902 -0.23106247
-0.69600624 -0.37191901 0.57851231
-0.23300919 0.16877112 -0.94071466
0.92754918 0.26575896 0.14842434
0.40648964 0.44888362 0.04073654
-0.10675876 -0.61427057 0.76302516
0.16068785 -0.49901477 0.78085524
0.15284233 0.18302500 0.75854379
0.81368279 0.03483647 -0.56145966
0.44928607 -0.62245226 0.14537294
-0.20699468 0.31807029 -0.85904408
0.81359214 0.45576265 -0.30601975
0.37975484 0.87649417 -0.18175480
-0.72320288 0.11190107 0.19280194
0.41890973 -0.90096807 0.15964587
0.20286679 -0.49154624 0.33706841
0.27742746 0.45177624 -0.82417536
0.96101117 -0.23851430 -0.00101174
0.12826419 -0.50268579 0.61460406
0.45619905 -0.77716863 -0.15439768
0.90802860 0.18089360 -0.35003543
-0.76091206 -0.19504756 -0.41015875
0.95836836 0.21101688 -0.00343589
-0.21788511 0.88923275 0.27189746
0.96120107 0.12673649 0.15865545
-0.47455320 -0.17491417 -0.46019143
-0.82665747 -0.03698632 0.51582617
-0.59961039 -0.04515598 -0.10839090
-0.71645647 0.10355174 0.44908160
0.46140352 -0.41678330 -0.08951256
-0.10397251 -0.47049782 0.39805731
0.35556528 0.66797793 0.19423099
0.05732306 -0.14915915 -0.70832777
0.63379925 -0.17315516 -0.44843557
0.54674196 0.49113342 -0.65211707
0.38099915 0.45210716 -0.12353879
-0.14623848 0.44406632 0.75058097
0.14157586 0.42777225 0.85900635
0.74011505 -0.66900301 0.04793369
-0.90436178 -0.36018452 -0.15222691
0.32667229 0.84237599 -0.35534817
-0.12157074 0.61822736 -0.68729174
0.12256376 0.22497180 -0.55510825
0.71918839 -0.25460425 -0.30933875
0.13776807 0.44040421 -0.39228868
0.29349741 0.90551424 0.15587272
-0.64048910 0.10580493 0.28757739
-0.24534109 -0.15801968 -0.75748980
0.43126461 0.82714665 -0.27349260
-0.26859558 -0.48094091 0.27348843
-0.60285461 -0.04034603 0.06362037
0.01641744 -0.08959983 0.97707468
0.26454380 0.50426340 0.26999575
0.18790293 0.25387254 0.83832812
-0.22101058 -0.76696754 -0.14894335
-0.06264266 -0.80312109 -0.15837513
0.51436883 -0.84803045 -0.07750686
0.31846890 -0.59779477 -0.12937905
0.08655193 0.49262926 -0.34379357
0.23206018 0.14347577 0.92815191
-0.11885464 0.56957054 0.12970862
0.12548666 0.75773275 -0.59943074
-0.56253392 -0.08664119 -0.22878687
-0.11775613 -0.66837049 -0.12970676
-0.94050950 0.22736265 -0.15711375
0.33563370 -0.62982440 0.20691542
-0.52225953 -0.14210275 -0.61444968
-0.20416355 -0.38172266 0.88338423
-0.31901351 -0.53094339 0.06343492
0.52562845 -0.03310001 -0.84100538
0.50352454 -0.15576114 -0.74825442
-0.27952924 -0.25789949 0.48471183
-0.96489912 0.01631967 -0.16809738
-0.61751503 -0.01477566 0.75491136
-0.47419864 -0.71889079 -0.13397357
0.19027482 0.55975437 0.06252136
0.08560028 0.81402445 0.51111382
0.11109606 -0.07881553 0.58947289
0.14805335 0.50397706 0.27756691
-0.23950878 0.01067060 -0.95883191
-0.03254291 0.72090673 -0.65616119
0.69758248 -0.13804287 0.12432356
0.52410853 0.78853762 -0.22188790
0.22517176 -0.71181571 0.31067061
-0.12404746 0.64614260 0.34526744
0.91143352 -0.29494914 -0.24487904
-0.72591263 -0.36928919 -0.20481171
0.36933669 -0.92386627 -0.11794441
-0.32072377 0.20126577 0.83928871
-0.12906437 0.68583000 -0.13087788
0.19265443 0.53794754 0.36557153
-0.46629712 0.12635548 -0.41752905
-0.40141574 -0.37166110 0.28514114
0.96995223 -0.09408179 0.15155402
0.53298080 0.27915826 -0.77439123
-0.36247727 0.17375050 -0.63720119
0.41364715 0.06722359 -0.89571518
-0.80648553 -0.10323140 -0.55758685
-0.02656263 0.41278881 0.87728733
-0.84527522 -0.48418483 0.12468426
0.03376307 0.50437701 -0.83441567
-0.05354342 0.25995290 0.93367553
-0.18932074 0.84845841 -0.18343158
-0.03666138 0.55137348 -0.23462307
0.54455805 -0.83104277 0.09674902
-0.41561627 -0.16031954 -0.76420295
-0.64086664 0.10844758 0.60608202
0.78640521 0.52886868 -0.24650578
-0.06301791 0.73812103 0.60850465
-0.32337648 -0.20578767 -0.85133928
0.03146096 0.92602777 -0.28587419
0.45384252 0.58756983 -0.63758147
0.00771088 -0.98809195 -0.18015878
0.86514914 -0.12032715 -0.46397865
-0.19849084 -0.97665024 -0.14605062
0.94226593 -0.24634725 0.16051345
-0.88739109 -0.40890491 0.11161354
-0.07711874 -0.84318841 0.51229209
0.71484268 -0.00011063 -0.68820280
0.27683264 -0.78210700 -0.15225078
-0.13624686 0.14687857 0.95134646
0.16906047 -0.95448184 0.24167490
0.11534502 -0.21071075 -0.87021059
-0.54202849 -0.75355101 0.34341997
0.00959264 0.92857218 0.24732311
0.10599299 -0.57981455 0.21944466
0.69060004 -0.38658184 -0.19769831
-0.15219824 0.43086571 -0.48182777
-0.73943424 0.11353484 0.01990236
-0.14982846 0.76835465 -0.40474007
-0.04880964 -0.45050803 0.87566495
0.28108692 -0.86829722 0.25500545
0.87395906 0.41393840 -0.14118943
-0.60129243 0.04257013 -0.08596229
0.13202511 0.69149876 0.57211685
-0.12670211 0.67207241 -0.41399229
0.91693926 -0.21848370 -0.29907024
-0.88627094 -0.27192694 0.32505575
0.46602803 -0.51762104 -0.13846023
0.77405196 0.58015954 -0.09456683
0.01371446 -0.98302722 0.16568972
0.20473707 -0.14358577 0.94664103
-0.06097527 -0.40369594 0.46496427
-0.84150779 -0.27470595 -0.28997827
-0.23979455 -0.50692612 0.80759543
-0.43182909 0.13798226 -0.52169526
0.60626137 0.06821816 -0.10308869
0.19245259 -0.05103628 0.95579708
0.41150120 0.24863589 -0.86007208
-0.60516202 -0.16342773 -0.73061585
0.14655600 -0.86883450 0.43004844
-0.94566089 -0.23303978 0.09245355
0.29266810 0.47797590 -0.23692605
0.05446161 -0.63351417 -0.03123622
-0.54272825 -0.40412462 0.70313263
-0.76161641 0.12987553 -0.50882506
0.40425703 0.46691558 0.16151594
-0.96870780 0.02220984 0.11320668
-0.14368674 0.74567056 0.47736782
-0.10266699 -0.20654424 -0.96396488
0.86469740 0.39682925 -0.24603727
-0.87570632 0.18625748 -0.01052094
0.51225370 0.30306897 -0.13493834
0.06078452 0.96400142 -0.01629806
0.39627928 -0.80032027 0.16995031
-0.22790936 0.29075035 0.78578609
-0.59887046 0.10669364 -0.51537466
-0.53655672 -0.13161013 0.80763960
-0.12521878 -0.23541437 0.55267590
-0.31945312 -0.26142311 0.88691050
-0.94336957 -0.01360669 0.26852968
-0.33552492 -0.74296999 -0.13904253
-0.42049375 -0.89055061 0.09977964
0.68478221 -0.47687563 0.12230261
0.33738220 -0.50694448 0.20619303
0.13653624 -0.65195715 0.72694904
-0.29515159 -0.81625748 0.46971527
-0.93705750 0.22637106 0.08630159
0.16412008 -0.97323203 -0.18661648
-0.27042037 0.01788736 0.54341787
-0.51409674 -0.24227732 -0.32583031
-0.85491931 -0.49651280 -0.03227430
-0.10197648 -0.94680989 0.28227958
-0.58168292 -0.31755936 -0.24227802
-0.68099713 -0.22694626 -0.35053286
0.92884266 0.26753911 -0.16144015
0.69241583 0.03218413 0.12356781
0.05300347 0.59521568 0.00706212
-0.75962704 0.03075295 -0.62108302
-0.50581491 -0.32310212 -0.17538951
-0.07834344 0.93633735 -0.22618236
0.01778211 0.00577730 0.97927994
-0.12472530 0.52164054 0.25015610
0.46934679 -0.20061836 -0.38741350
-0.06577899 -0.55971932 0.81299382
0.11402549 -0.80058587 -0.15619956
-0.71378571 -0.61145806 0.30376571
-0.68026817 0.10775279 -0.58367002
0.61514014 -0.78518403 -0.02494561
-0.11961870 0.55185997 -0.29164606
0.73748136 -0.30134544 0.13503376
-0.20438839 -0.78495967 0.57077891
0.74114496 -0.66509306 -0.03425378
0.82503217 0.29828188 0.15547830
-0.31503800 -0.95206738 -0.02711438
-0.39980146 -0.83687949 0.34721503
0.68438983 -0.71948123 0.08657064
0.93985891 0.11557677 0.23680446
-0.26509932 -0.57558131 -0.05586989
0.71205282 0.44976193 -0.49655208
-0.18846801 -0.58544791 0.76816654
0.12699026 -0.70697188 0.65541929
0.79548293 0.47677878 0.14805177
0.09443805 -0.15473527 -0.97329170
0.01079099 0.71385038 0.64454550
-0.51029503 0.11609305 0.56853878
-0.10957198 -0.96382916 -0.24034452
0.13113716 0.54785585 0.63443440
0.10425771 0.56056690 -0.79218549
0.14636765 -0.27182242 0.93528628
0.79480928 0.42125487 -0.39186433
-0.55188829 0.03797510 -0.25979421
-0.02317553 0.04814699 0.60388643
0.56887329 0.72580254 -0.32227716
-0.15736070 -0.54801023 0.25007707
0.38230306 -0.20654877 -0.87836897
-0.13043435 0.50170982 -0.63465768
0.36227384 0.82649899 0.18700914
-0.42598510 -0.10463846 -0.88061231
-0.81255347 -0.49598765 0.24050730
0.87225485 -0.45407653 -0.13718554
0.12444876 0.10996151 0.58904380
-0.92731816 0.18342575 0.24592237
0.59697902 0.57925022 -0.52114552
-0.16219231 -0.60788167 -0.04446610
-0.57694477 0.10619124 0.40347376
0.15038121 0.43422344 0.37785724
0.41163510 0.56120551 0.16703282
0.47211528 0.37306017 -0.02683152
0.23575413 0.58804655 -0.74669266
-0.38657445 -0.91785812 -0.01440716
-0.65998232 -0.12116030 0.70957094
0.13355616 0.49669507 0.51498896
0.35394198 -0.51853657 0.00193980
-0.41099125 0.14297502 0.82662421
0.54293823 0.28147483 0.03382535
-0.53379083 -0.83016062 0.09005847
-0.19619776 0.32941744 0.68164027
-0.95818913 -0.21369590 -0.00432192
-0.42369059 0.06037822 -0.44128937
0.27587238 -0.18810736 -0.83755863
0.01524367 0.29091632 -0.54030401
-0.90187520 -0.02611968 -0.38666344
-0.72283429 -0.16000395 -0.48706737
-0.33111575 -0.62882626 -0.12995043
-0.59323692 0.03528335 0.11042183
-0.90872318 -0.10644706 0.34125769
0.59514570 -0.45969403 -0.16174632
0.20588838 0.84742177 -0.43111038
-0.65009755 0.10559296 0.13325256
-0.24916610 0.17754161 0.52091873
0.09849878 0.76500463 0.57238680
0.43931586 -0.02035334 -0.43635598
-0.69118476 -0.68523514 0.16641645
-0.04324464 0.81219351 0.51511115
-0.55525452 -0.04176016 -0.80972546
-0.24871472 -0.96462655 0.09223475
0.96282196 0.04759263 -0.22128999
-0.15599471 -0.12830108 0.57777953
-0.05112390 0.59290421 -0.77173287
-0.28193027 0.18966962 0.90784377
-0.31606561 -0.50909948 0.78293037
-0.12110530 0.59490359 -0.52903527
-0.97848338 -0.01675908 -0.02481001
-0.80583656 0.14572589 0.12914348
-0.72574770 -0.22971965 0.62229598
0.44655365 0.85886002 0.00064924
0.55033845 -0.28907865 -0.04798805
0.02325334 -0.51372266 0.34885314
0.54947537 -0.70533240 0.12142840
-0.50374347 -0.14591530 -0.33702481
-0.10166177 -0.19937007 0.95534158
-0.70009786 -0.69890940 0.03332315
-0.84433746 0.11981539 0.46033874
-0.17560591 -0.47049999 0.85066605
-0.93462026 -0.24709579 -0.15689789
0.56392157 0.01118704 -0.24433707
-0.66994542 -0.66754532 0.27000988
-0.77614641 -0.60141468 0.10587836
-0.19309954 -0.06935668 -0.96431863
-0.24080080 -0.62154853 -0.12005985
0.80548674 -0.17696995 -0.43910629
-0.17992300 -0.00127597 0.95529622
-0.45052364 -0.88521242 -0.05673137
0.19028726 0.25089490 -0.52581948
0.87957293 0.02854768 0.19083701
-0.20811851 0.13171792 -0.55701596
-0.32484600 0.06165818 0.91644591
-0.76227278 -0.05108418 -0.62903845
0.13964640 0.32397252 0.69540292
-0.59475917 -0.15950863 -0.49005443
0.50811350 0.44826859 0.13261847
0.04985398 -0.16338950 0.96665144
0.46523392 -0.15247935 -0.51328874
-0.22832541 -0.92262065 0.30048189
0.12199613 -0.24801177 0.55905557
-0.27489537 -0.63166285 0.70843452
0.91500211 -0.36416030 -0.09969574
-0.05671963 0.06100943 0.97419798
0.30735251 -0.72824073 0.22881186
0.06287850 0.89224899 -0.37986666
-0.51996934 -0.11495271 0.29685631
0.57473260 -0.08354463 -0.22918700
0.14881404 -0.97949934 0.11098532
0.68274403 0.69524384 0.00559286
0.34186897 -0.15276507 -0.73634464
0.24185728 -0.57917857 0.29079008
-0.86302859 -0.11791315 -0.46468464
-0.21131501 0.21883470 0.92032468
-0.91975719 -0.22911261 -0.25883284
0.58021581 0.77855921 -0.06688087
0.79543006 0.10857902 -0.58024943
-0.47758019 -0.83394480 -0.16057464
-0.59666640 -0.62406242 -0.12935594
0.63778716 -0.31420201 -0.25882009
0.96413827 -0.17418952 0.14167425
-0.88224477 -0.36684862 0.21967037
-0.02273503 -0.08474597 -0.61782151
0.64210117 0.36007485 -0.64721900
0.37363964 0.16657300 -0.45959061
0.57826024 0.40236935 -0.68142307
-0.58974093 -0.48270544 0.61754352
0.32646391 0.74562311 0.21430017
-0.27763563 0.23578909 -0.59625214
0.82837701 0.38526988 0.16314547
0.65695226 0.41993931 0.12066673
0.66380143 0.70736086 -0.11999021
0.31230199 0.66741598 -0.63465148
0.00880711 0.50084996 -0.33917904
-0.56614393 -0.23704453 -0.01297771
0.74083596 0.26877037 0.13414505
-0.12045957 0.64370942 -0.27753744
0.14640997 -0.49496448 0.46264455
-0.07395125 -0.35155770 0.91368592
0.03456806 -0.57056928 0.80485129
0.60396230 -0.79122210 0.05060737
0.47736409 0.75561619 -0.38917199
0.00467903 -0.30193239 0.54250509
-0.30118170 0.21394792 0.76523751
-0.29591045 0.21745707 -0.73725009
-0.51268148 0.03420026 0.32239267
-0.60609394 0.07260574 -0.01574455
-0.94849169 0.04941393 0.21958393
-0.17405605 0.82071805 0.44582266
0.97859734 -0.16427535 -0.00646894
0.65333372 0.15285553 0.12259305
-0.34995994 -0.10238837 0.49109778
-0.10245474 -0.74797237 0.64415228
0.67719471 -0.13663611 -0.71300459
-0.09485338 0.38474563 -0.46132910
0.12444545 -0.99456990 -0.04803696
-0.55849749 -0.06490075 0.22144166
-0.44954857 0.03355201 -0.87307674
0.03025815 0.90268219 0.31634355
-0.93754512 0.13942668 -0.22412635
0.20713073 -0.01849307 0.87491727
0.13203369 0.35451490 0.55486643
-0.62491524 -0.75765693 -0.13650686
-0.87728226 0.18128157 -0.31340867
0.52317381 0.67846954 -0.46658266
0.55904657 -0.75683403 -0.14290236
0.19758025 0.46897894 -0.83718520
-0.87335694 0.11548656 -0.43054166
0.24475226 0.46047792 -0.31074980
-0.81017095 0.06628782 0.53111500
0.13000330 -0.37145889 0.55385733
-0.17000751 0.80385041 -0.34097180
-0.32446098 -0.94093835 0.12257808
0.66276973 0.46861455 -0.55148643
0.44626352 -0.42304993 -0.16806774
0.50689816 -0.25609946 -0.30322021
-0.18504971 -0.44652906 0.38079172
-0.79843193 0.14297831 0.28145957
-0.12835342 0.10694043 0.58227181
0.97719246 0.04616705 0.11420117
0.77740937 0.59049439 0.01886256
0.13814713 -0.39120263 0.70263201
0.27538016 0.49988386 0.18155791
0.86634171 0.22531168 0.18389598
0.61211884 0.06429321 0.00515467
0.01424570 0.34453717 0.90334237
-0.11026882 -0.14521046 -0.67232496
-0.35801840 -0.08520769 -0.49691406
0.74996054 -0.42170206 0.13646038
0.20556301 -0.35101506 0.88894951
0.60309154 -0.35066476 0.11859314
0.62057590 -0.02458791 0.02503547
0.51970333 -0.34013864 0.05103613
0.06504106 0.55823493 -0.20691049
0.10445888 -0.07289606 -0.97907823
-0.82668489 -0.21557721 -0.36072609
0.81548572 0.17893715 -0.52161372
-0.27015212 -0.07508899 -0.55177152
0.22023277 0.06801715 0.90139824
0.96085823 -0.17415306 -0.15230218
-0.04408660 0.62937653 0.72924834
-0.95969719 -0.12237420 -0.14464444
-0.11828406 0.65214372 0.02138944
-0.11852284 0.63000655 0.63662678
0.57424647 0.77514923 0.08884351
-0.76542270 -0.57360351 0.23006932
0.17241138 -0.78726411 0.41696164
0.88538313 -0.13417353 0.19700915
-0.33084446 0.18425745 -0.48651433
-0.36861217 0.17255595 0.61721557
0.20859230 0.55885267 -0.02514129
0.16332231 0.10495014 0.78612769
0.58349198 -0.20695587 0.05958759
0.04156630 0.57640123 0.14660090
-0.67968214 -0.14186011 -0.61687118
0.80000204 -0.57972932 -0.10205737
-0.16696309 0.93504000 0.13871518
-0.30367407 -0.87443829 0.34749767
0.57970333 0.14431159 -0.15273087
-0.42853296 -0.86558390 0.19709557
-0.21146218 0.87436676 0.01122708
-0.85791481 0.18263057 -0.21028849
0.13394460 0.95761013 -0.00738889
0.48023292 0.09790956 -0.37799969
-0.16193391 0.40288848 -0.85985398
-0.15444466 0.76980495 0.09658407
0.20300357 -0.05319101 -0.96786612
0.33334097 -0.51709175 0.12031295
-0.00486480 -0.67374182 0.72802478
-0.55035222 -0.14591233 -0.68353122
0.84564859 -0.51523721 0.13322915
0.09700380 -0.83053517 0.53794551
0.08900124 -0.42373720 0.88096774
-0.11197980 0.07184637 -0.97805279
0.70324332 0.23005666 -0.65016466
0.14824095 -0.60767436 -0.08499832
-0.62634701 0.10447841 0.68650657
-0.25363681 -0.74081063 0.60326689
-0.39982775 -0.07014997 0.88446957
0.71291530 0.56160462 0.12634280
-0.20121801 0.87128592 0.12321842
-0.59019440 -0.14412168 -0.56393141
-0.87328881 0.04084431 -0.45098397
-0.49851543 0.06267096 0.83372223
0.64222872 0.50877786 0.11816446
0.50943309 0.81551695 -0.13596781
-0.94741696 0.06530348 -0.23334056
-0.62745541 -0.36787674 -0.20882180
-0.15953667 -0.13199544 -0.59450585
0.61548382 -0.06920519 -0.03542603
0.03426230 -0.25169313 -0.95190072
0.31913665 -0.83760226 -0.17467454
-0.13829862 0.00623419 -0.59914070
-0.35568446 -0.29799891 0.39947876
0.73459369 0.18187226 0.13192451
-0.41596547 0.04985027 0.43882576
-0.25885227 0.24707767 0.64256430
0.65155333 0.67627347 -0.26323360
-0.63374454 -0.76296020 -0.00928288
-0.67177910 0.10960386 -0.12039591
0.96593213 0.15389976 -0.12125948
-0.45174995 -0.22881694 0.36358097
-0.52387619 0.11608191 0.70323598
0.60813117 -0.13783577 -0.77070028
0.17211959 0.33330995 0.80678225
-0.28758588 -0.16397215 -0.93282431
0.59547305 -0.10310991 -0.15116996
-0.23244190 -0.00190449 -0.57063138
-0.38994488 -0.21304476 -0.88561571
-0.34774047 -0.72319305 0.57582635
-0.07130760 0.57480454 -0.16474275
0.61171097 -0.15521577 -0.51575863
0.16696119 0.88209081 -0.37292483
0.90777886 0.35672432 -0.11001564
0.87091917 0.09910846 -0.45095614
0.76851958 -0.48052433 -0.15314195
-0.15426987 -0.32572097 0.91388816
0.07051460 -0.00283491 0.60629278
0.14535624 0.53783774 0.74159151
-0.15474045 -0.82172930 0.52920318
-0.91307670 -0.35064423 0.07333719
0.39562079 -0.48481303 0.16575615
-0.07389569 -0.11190594 -0.98258168
0.25471660 0.92997408 -0.08735524
-0.48672482 -0.82845640 0.23459409
0.21836673 -0.54338217 0.22920285
-0.65805030 -0.03622909 -0.72924858
0.62129515 0.67405772 0.11710645
-0.04900809 0.59250259 0.03413592
0.06034743 -0.63778245 0.75787199
-0.02643548 -0.62330115 -0.11756801
0.94123113 0.27835658 0.01762550
-0.25985909 0.25467014 0.54223937
-0.57040167 -0.55274844 -0.13526255
-0.20969865 0.31591371 -0.73911792
-0.11215067 0.86729980 0.39967480
0.58837205 -0.55780160 0.12004101
0.48231006 -0.63106132 -0.13093586
-0.08511514 0.94767773 0.15290931
-0.57277107 0.10183826 -0.21386909
-0.34458023 -0.87315595 -0.18877017
0.17899808 0.34257826 -0.89889121
-0.17171025 0.37375385 -0.55883104
-0.89942133 0.13204943 0.33830845
0.15040770 0.45682272 0.75102073
0.54584813 -0.14196363 -0.26593551
-0.19636749 0.33402091 0.53989053
-0.15116180 0.77154148 -0.06000073
0.82380193 -0.29289415 0.16597626
-0.08136926 -0.59468031 0.17992327
0.28795061 0.60493720 0.24903964
-0.21387985 -0.22281848 -0.89197659
-0.87244594 0.18472444 0.14105682
-0.72863144 -0.14904505 -0.55844110
-0.11758284 0.57022834 0.50826389
-0.72147447 0.11553386 0.54393071
-0.80086333 0.14578965 0.03930493
-0.18424430 -0.69527733 -0.13607602
0.79033726 0.32533288 -0.48646957
-0.35757303 -0.07523529 -0.91740817
-0.23144448 -0.37688437 0.43020201
-0.11837527 0.50269091 0.81195724
0.73173815 0.12721495 -0.65227973
-0.45873085 0.12940142 0.51943803
0.22462027 0.11033204 -0.56526911
-0.96043468 0.15676023 0.10086735
-0.14768009 0.44379506 -0.77947968
-0.47287902 -0.45820352 0.72840661
0.34794444 0.48931250 0.02516809
0.15146589 0.90127647 0.30625746
0.17023571 -0.46700487 0.40107962
0.32091513 -0.07701321 -0.52966046
-0.35578722 -0.15253358 -0.71018219
-0.07064885 0.55615306 0.78662938
0.14876863 0.70727491 0.44551638
0.63515443 0.15652016 -0.73792452
0.51983464 -0.77083397 0.12632889
0.02913288 0.36309844 -0.91458517
0.29174966 0.29363209 -0.45117405
-0.81382537 -0.40748197 0.36361802
0.17468692 -0.10673504 0.81801474
-0.74974024 -0.42883188 -0.17339471
-0.19905864 0.28541893 -0.50014096
0.48752627 0.52991629 -0.66271859
-0.13724634 -0.97272563 0.18430579
-0.18899956 0.33326355 0.46227360
-0.76991171 -0.57290888 -0.13112520
0.15913956 0.31242788 -0.49928126
-0.22089736 0.29331887 -0.63732105
0.48049599 -0.87149227 -0.01935395
0.42934197 0.86305594 0.07052687
0.11888642 -0.14499514 -0.67272186
0.77172965 -0.56955540 0.13971716
-0.72400582 0.08211465 -0.65525043
-0.80138487 0.05638515 -0.56938398
-0.94325095 -0.15104029 0.22130509
-0.66560829 0.10590641 -0.31995112
-0.72832686 0.11703622 -0.44434392
0.60591489 -0.12291475 0.10521767
-0.29260528 -0.02254248 0.93006450
0.12962967 0.06044574 0.64147758
-0.12532865 0.30632314 0.91411132
0.52918553 -0.28340626 -0.18023744
-0.44638073 -0.30795759 0.29267299
0.58483410 -0.17954548 -0.12516588
0.14794300 -0.55284691 0.73598546
-0.83434325 0.01123366 -0.51466137
0.17192261 -0.63158345 0.39998609
-0.78138924 -0.35192025 0.48344839
0.72119045 0.63359237 -0.20129438
-0.15348643 0.24776337 0.52998114
-0.22252989 0.10007156 -0.95468450
-0.18061781 -0.59695196 0.07230783
0.52277726 -0.10364337 -0.32986227
-0.13404839 0.50096095 0.41332716
0.33057854 -0.79533494 0.21275468
-0.18957290 0.94428110 -0.08434146
-0.46553347 -0.36974871 0.15901747
-0.08340602 0.08498767 -0.60360384
0.43416101 -0.17209007 -0.79242206
-0.34894219 -0.44883606 0.80162084
-0.66989440 0.11078527 0.03224681
0.45820749 0.72401023 0.14492355
0.97970647 0.03998126 -0.10325031
0.06688577 0.59892976 0.75456142
-0.82278150 -0.54142570 0.08761834
-0.59625626 -0.11576769 -0.08133341
-0.10106081 0.49327663 0.31312063
-0.14422224 -0.81891716 -0.16689813
0.56195080 -0.64596415 -0.13218273
0.29151353 -0.56693602 0.23377094
-0.16459966 0.19752203 -0.95139402
-0.10112847 0.29486468 -0.93272519
0.14455380 0.43456441 0.47769660
0.33944872 0.37282220 -0.33808112
0.25027126 0.11890060 -0.94704527
0.60528004 0.21173778 0.11282340
-0.80754137 -0.09954021 0.54499310
0.20527440 0.90632582 -0.29153630
-0.63757759 -0.28545430 0.68352717
0.22857241 -0.84629071 0.30518448
0.12315803 0.82957983 -0.49316740
-0.37508026 -0.14292902 -0.63817388
-0.71658480 -0.27223778 -0.29031989
0.48100528 0.15024120 -0.84887314
0.14062203 0.54549444 0.18738310
0.22399750 -0.13783261 -0.57206881
0.14452575 -0.56957626 0.47796714
0.39362207 -0.14439180 -0.65453416
-0.02281937 -0.24219926 0.95040399
0.10549638 0.58488536 0.05276341
0.28734076 0.71867990 -0.59349728
0.15024863 -0.25035569 0.76001418
0.89617759 0.37068272 0.14092319
0.60802275 -0.03922207 -0.10185191
0.42471018 -0.08772726 -0.44775444
0.11820241 0.08295264 -0.97618270
-0.18175486 0.83513236 0.21118103
0.06738973 0.25511360 0.54004842
-0.05816754 -0.25414151 0.55777889
0.68707556 -0.60103524 -0.12994207
0.58907580 -0.06686281 -0.79654276
0.98810583 0.00161457 0.03395438
-0.12499681 0.54167807 -0.69340128
-0.17134397 -0.25234127 0.93267852
0.17593825 -0.84363353 -0.17887682
-0.50138038 -0.29136333 0.20863737
-0.61736268 -0.20446357 -0.39041719
-0.42161891 -0.44462872 -0.11463909
-0.04347730 0.92336988 -0.28503308
-0.79755765 -0.58791077 -0.03540441
-0.87226242 -0.42064276 -0.16503628
-0.07997949 0.79140401 -0.55822885
0.96838945 -0.02246093 0.16383159
0.93605947 -0.06515399 -0.32251856
0.18183455 -0.96584260 0.17343068
0.50546694 -0.46294633 0.13459037
-0.88581282 0.00767761 0.40691122
-0.06531910 0.96391022 0.04398766
0.52540851 0.00680050 -0.32916459
0.03129967 -0.46039161 0.86871570
0.06076145 0.14044882 0.58453685
0.56842548 -0.32348230 -0.24297704
-0.05305628 -0.62361562 0.02183935
-0.58079517 -0.65389490 0.45584741
0.68605018 0.61565161 -0.33644643
-0.57044756 0.04787424 -0.79672694
-0.26361343 -0.22840485 0.91479838
0.67829460 0.29764709 0.12400147
-0.67613387 -0.22886826 0.67064780
-0.11915699 0.60063410 -0.02489641
-0.04487581 -0.79057455 0.59022301
0.03321833 0.19554773 0.95251507
0.13841158 0.92487633 0.20390227
0.95353198 -0.09524325 -0.25708947
0.96318609 -0.21524978 0.08444130
0.62393731 -0.43661979 0.12125268
-0.47817749 -0.81344104 0.30153486
0.86509824 -0.37986425 0.17775360
-0.93494588 -0.05648839 -0.29748902
0.63358521 0.62983799 -0.39466119
-0.31285295 -0.48849064 0.21511818
0.02828538 -0.93128181 0.34470937
0.82441151 -0.09807049 -0.54212809
-0.59186131 0.10008880 0.47053868
0.37770110 0.31620985 -0.36051315
0.89985740 -0.12210713 -0.39824477
0.47076139 -0.41997227 -0.02109687
-0.06862631 -1.00260615 -0.01551437
-0.77888370 -0.50023419 0.34975976
-0.08741055 -0.12128183 0.96955615
-0.91043890 -0.36398691 -0.07931731
0.75443834 0.41616270 0.13235766
0.33905402 -0.06852829 -0.92974693
-0.13526085 0.37738144 0.43941286
0.45911318 0.84891546 -0.10149505
0.88565266 -0.44413811 0.00519752
-0.59603292 -0.74914527 0.26161519
-0.36532038 -0.88995492 0.26082787
0.37139210 -0.14631525 -0.57990861
-0.51954281 -0.06162105 0.82465214
-0.43054691 0.14230964 -0.67438209
-0.12869704 0.65838814 -0.48821318
0.47337565 -0.36949876 -0.20288676
0.92601913 -0.01327531 0.21869910
-0.04881116 0.57833159 0.11506891
0.79751652 -0.05444873 0.15240675
0.31348348 0.33273283 -0.87163657
0.82954335 -0.54878843 0.01717874
0.92624468 -0.32075730 0.13988785
0.03487310 0.95635009 -0.14471266
-0.09665196 -0.49207744 0.85017449
0.94227529 -0.30563912 0.01880340
-0.51593852 -0.23048018 -0.25030515
-0.45863977 -0.14682324 -0.53494078
0.14430743 0.31066787 0.90681797
-0.26777905 0.15445986 -0.52927309
0.13809639 -0.01705348 0.71814173
-0.60028607 0.10610213 -0.68217021
-0.57202119 0.04975671 0.17779636
-0.35110649 -0.77281678 0.50910783
0.08906312 0.85643601 0.43223646
-0.83721226 -0.06668569 -0.50800627
-0.62198758 -0.65840948 0.38843277
-0.10210524 -0.90147948 0.39831567
-0.92372859 0.04426716 0.29927489
-0.16487584 0.40340930 0.80658966
-0.38839042 -0.18541901 -0.82121694
-0.55702460 -0.12670085 -0.80285829
-0.56243593 -0.18701725 0.14694697
0.84901845 0.03479761 -0.49699867
-0.83348650 -0.33595258 -0.23793483
0.76247424 -0.00761786 -0.63753617
0.25364965 0.80893683 -0.47776368
0.21476488 -0.17644241 0.88780606
0.04316477 -0.43263000 0.44749469
-0.05942535 0.95294833 -0.16177177
0.33379802 -0.92772067 0.15983135
0.38269633 -0.49250013 -0.08170842
-0.12191287 0.37123939 0.88292176
0.16293997 -0.91356266 -0.21983540
0.95520729 -0.25391728 -0.09566382
0.48943469 0.02398621 -0.86165440
-0.50552547 -0.36082926 -0.01425178
0.64000595 0.08671604 0.11633101
0.77960110 0.07298394 0.14704622
0.40957114 0.71076858 -0.52837229
0.05105602 -0.32585415 0.92300475
-0.58121175 -0.26465085 0.73813730
-0.55664128 -0.15429634 -0.20381135
0.13154425 0.49295327 0.58946961
0.54188746 0.15207000 -0.80745810
-0.96742904 -0.10327224 0.09420061
0.22638494 -0.97796762 -0.04412728
0.62503117 0.73129380 -0.16983360
-0.81068695 -0.29390770 0.46290165
-0.48044753 -0.65181625 -0.12969682
0.18543127 0.82673156 0.38074926
0.13017030 -0.58927155 0.60625923
0.16676398 0.17381993 0.94287878
-0.11388019 0.56573403 0.19970712
-0.24914873 -0.90341508 -0.21095806
-0.11711514 -0.52544379 0.30430928
-0.65888017 -0.49814522 -0.14699613
0.04765129 0.77129591 -0.58897644
0.01935636 0.53396535 0.25824666
0.17096391 0.55125582 -0.79289687
0.57291901 -0.81566143 -0.06969905
0.29634151 -0.13424432 -0.56998861
-0.00243705 0.42302465 0.41967779
-0.46320930 -0.53167367 -0.14236593
-0.72753513 -0.29741794 0.58232391
0.11018595 0.66330385 0.69216740
0.00467831 0.81672454 -0.52868330
0.24718389 -0.09286995 0.93484402
-0.48011777 -0.02590883 -0.85850674
0.28209430 -0.93373787 -0.23102111
0.22469544 0.21318090 0.91234463
-0.24921975 0.26799449 -0.54184324
-0.51591468 0.03574600 -0.33093444
0.20733841 -0.77544332 0.34077135
0.43326446 0.28860584 -0.31663561
0.41658780 0.19411086 -0.40500516
0.45328733 0.40265951 0.05341318
0.97427708 0.15808694 0.03558053
0.38238698 -0.85790336 -0.18326315
-0.09099498 0.42123640 -0.87623054
0.27745146 0.24391252 -0.91081363
0.63387346 0.58259952 -0.45462805
0.25339755 0.87654090 0.27644777
0.19701509 -0.98110461 0.06265907
-0.51487035 -0.18720910 0.27314276
0.12432908 0.25693950 0.57710034
-0.00301658 -0.90924108 0.40055376
0.13923055 0.66086709 -0.70407754
-0.43214998 0.14078678 0.76324677
-0.59297365 0.10885116 0.55945820
-0.57553858 -0.16834193 0.76765388
-0.50777662 -0.35119644 0.05184915
0.61462486 -0.71179414 -0.13797928
0.49354303 0.58219457 0.13441743
-0.31628469 0.20440491 -0.67498785
0.19578505 0.54735816 0.14827077
0.78370786 0.23661777 -0.54658234
0.97547525 -0.12701705 -0.10160640
-0.39271241 -0.54683709 0.72446960
0.25381687 0.24354362 -0.50681305
-0.02087625 0.38650903 -0.46686259
-0.20587720 0.28373197 0.90165502
0.87882489 0.15320505 0.19445254
-0.84962809 -0.48874915 -0.10780703
-0.13440640 0.71194994 0.34396493
0.12437401 -0.13890511 -0.60421526
0.65143996 -0.26342243 -0.30205879
-0.11958344 0.56339073 0.68332362
0.37027907 -0.55609715 -0.13121495
-0.14960122 0.76773572 -0.21242945
-0.48388547 0.12098999 -0.48189348
0.07089005 -0.74219906 0.65183538
-0.85409969 -0.40583521 0.26536593
-0.01506218 0.33800864 0.49069428
0.29100394 -0.95476151 0.09584305
0.14239007 0.56675315 0.49744171
-0.90114248 -0.16119561 -0.35448173
-0.94056118 0.12998250 0.20901869
-0.04549844 -0.91458499 -0.21601580
-0.01273802 -0.85692763 0.50257266
0.51311338 0.31326929 0.10171523
0.29688326 0.51374352 0.06570520
-0.13470823 -0.19254036 -0.84288913
-0.43259275 -0.01483004 0.42366067
-0.01232627 -0.14369069 -0.64672142
0.25663763 0.34738639 -0.43038535
-0.12838453 0.50637937 -0.45411447
0.20228805 0.54483068 -0.15442014
0.91459590 -0.26403365 0.21781793
0.04244458 -0.96874988 0.22588111
-0.01709415 -0.54607749 0.29612681
-0.44942489 -0.89004350 -0.12562895
-0.37909168 0.02750882 -0.47999039
0.54668063 -0.50757182 -0.14551944
0.28529295 0.88342524 -0.29693329
0.00686782 0.63279092 -0.73769242
-0.18496875 0.83336973 -0.11443720
-0.76175511 -0.60480058 0.17010310
-0.78377599 0.13668685 0.44060013
-0.91834414 -0.22050869 0.23947859
-0.11917134 0.64235640 -0.62609041
0.38004151 0.30948395 -0.85509455
-0.94476742 -0.27104494 -0.03736160
-0.63155663 -0.74773145 0.15397467
-0.31040195 -0.94294441 -0.12929934
-0.58503866 -0.15960515 0.04601080
-0.24361375 -0.14491637 -0.67674148
0.36027980 0.26341367 -0.41929218
0.25167054 -0.57220602 0.10929685
0.28754911 0.52561343 -0.06237073
-0.19677651 0.33826241 0.81884181
-0.09780417 0.68765557 -0.67961437
-0.44986218 0.10384385 -0.86705166
-0.60372519 0.10730433 -0.07528856
-0.61740470 0.08186124 -0.74130440
0.20840541 0.28994155 0.88983953
-0.13056444 0.69254756 0.56965500
-0.00126406 -0.58547831 0.22815737
0.34555212 0.50868952 0.19723639
-0.50669962 -0.16138372 -0.82667851
0.67726767 -0.23294082 0.12115809
-0.77337384 0.08572564 0.58187246
-0.70381206 -0.46639341 0.50377369
0.10270220 0.47943339 0.82911688
-0.01809995 0.58958161 -0.10278337
-0.32251686 -0.14057386 -0.59047526
0.51734877 -0.17832613 -0.82621026
-0.27644300 -0.56341195 0.02571446
0.01447254 -0.16389152 -0.75561029
-0.26566777 0.24045035 0.47683901
-0.09862591 -0.04450517 -0.61087257
0.80892044 0.15102535 0.16061494
0.87604606 -0.23150423 -0.34847766
0.36705622 0.53029788 -0.73595268
-0.81672496 0.14997730 -0.11321280
-0.50059336 -0.03723992 -0.36021692
-0.38121712 -0.25761348 0.86605150
0.42527780 0.40550619 -0.15325332
0.25733447 0.90360904 0.21140584
0.15667348 -0.19315472 -0.95904607
0.59622687 -0.25728780 0.11746078
-0.27047995 -0.53951275 0.16619715
-0.41781065 -0.18940333 -0.42605415
0.13239992 -0.17002521 0.65191787
-0.28392839 0.11168393 0.92439538
0.33807001 -0.72637868 -0.13834226
-0.56946814 -0.18515420 -0.14728531
0.23885183 0.92818952 -0.16865624
-0.12620094 -0.06027491 -0.97605407
0.39354834 -0.64267683 0.17214237
0.35166153 -0.65399230 -0.12944694
-0.68219960 -0.57131171 0.42575902
-0.12410551 0.62906539 -0.16214366
-0.00798037 0.87717295 -0.41689909
0.71219546 0.07484449 -0.68541068
-0.15077786 -0.69515991 0.68432814
0.23736858 -0.14404425 -0.67497146
0.13214076 0.92358518 -0.25533897
-0.10348382 -0.35753813 0.48929250
-0.77419776 -0.40906242 0.45344549
-0.26752457 -0.37778905 0.86975724
0.20258126 0.62691414 0.35089040
0.77493268 -0.61781657 0.06736608
0.35239518 0.89933157 -0.10667528
-0.74203324 0.12548648 -0.04701309
0.18259828 -0.00390343 -0.58972323
0.16736069 0.56944394 -0.07403802
-0.57835770 0.10128116 0.25831199
0.66046458 -0.00120443 -0.73984963
-0.90259266 0.12896475 -0.35226369
-0.36711615 0.17025805 -0.78983122
-0.94801545 0.17564906 -0.11881533
0.13948198 -0.17547694 -0.80657440
0.61495131 0.27554208 0.11821866
-0.57236278 -0.10029172 0.16876355
-0.17262748 0.82944310 -0.40765348
-0.24258083 -0.46384603 0.33026683
0.06553179 -0.91118622 -0.21586002
-0.88674659 -0.43485695 -0.02344670
-0.88961285 -0.09606306 -0.40989578
-0.00187732 0.49966690 0.32105833
0.20198201 -0.55651045 0.34408435
0.05930112 -0.48031002 0.39087349
-0.70715201 0.11610913 0.34609503
-0.33873025 -0.64764893 0.66471696
-0.41203478 -0.13415143 0.87353981
0.03810240 -0.12159595 -0.97809160
0.22129895 -0.28151417 0.90057641
-0.20912114 -0.56683671 0.15907587
-0.65546709 -0.50701755 0.53310794
-0.52490115 -0.09088956 -0.30276000
0.39129958 0.66843128 -0.59703076
-0.74272460 -0.03206678 0.63039690
0.02362059 0.88592637 0.37827337
0.26083356 0.93348193 -0.00086526
-0.00381919 -0.00358124 -0.98592645
-0.85012537 -0.19367066 0.43906918
0.14476646 0.95688820 -0.07088909
0.50382656 -0.14126168 -0.58559275
0.79997540 -0.18569417 0.15436313
0.41496474 -0.90311170 0.09513374
-0.42466491 -0.43169311 0.77520847
-0.37967649 0.15658364 -0.55531389
0.91062862 0.26545268 0.21035969
-0.69337291 0.08724274 0.66802704
-0.73019910 -0.48287129 0.44758549
-0.49539375 -0.01913999 0.35360527
0.95340955 0.12762833 -0.20505616
0.16838712 -0.33489507 0.80091172
0.86911339 0.30822468 -0.33930126
-0.51697791 -0.67599869 0.50110346
-0.42442146 -0.08075928 -0.44092509
0.78307396 -0.27297416 -0.28732312
-0.96137887 -0.04847084 0.12682658
-0.11888163 0.63119459 0.09369650
0.00367210 -0.72089803 0.68432683
-0.49560547 0.12114213 -0.61198217
-0.49489707 -0.60659838 0.60030228
0.57199901 0.21048839 0.05815677
-0.21044582 -0.12426788 0.94784558
0.22563827 -0.17042357 -0.79057026
-0.16428621 0.39704657 0.71115077
0.14617372 -0.10807552 0.73402339
0.59305823 0.39793965 0.11993224
-0.38634628 -0.48557097 -0.08056394
-0.12452550 0.94366574 -0.16318005
-0.53720844 0.10445491 -0.28599623
-0.14488769 0.44726288 0.51164746
0.53171581 -0.15939757 -0.52883607
-0.35626218 -0.81666458 -0.16159469
-0.14921506 0.76116669 -0.28300670
0.93292105 0.29590324 -0.10453562
-0.42460239 -0.18560079 0.40171701
-0.27883723 -0.95901942 0.03638503
-0.13653003 0.72589648 0.19907294
0.16076690 0.78629494 -0.55476260
0.45671746 0.06500527 -0.42717886
-0.08264633 0.46536055 -0.37631920
-0.32019967 0.13027132 0.49741161
-0.35520750 -0.15409386 -0.50183749
0.03080206 -0.71969068 -0.12946403
-0.05292503 0.93167317 0.23537955
-0.20272805 -0.97694886 -0.06684612
-0.57242680 -0.04846699 0.78447831
-0.46255249 -0.39653984 0.09522393
0.10997949 -0.86127543 0.48383588
-0.40575680 -0.72498238 -0.13016750
-0.58549786 0.04584725 -0.15339519
-0.92635316 -0.26856488 0.14138754
0.13382785 0.94793475 0.10930292
-0.18325745 -0.16326886 -0.76956147
-0.53805125 -0.28638560 0.06958227
0.13203385 -0.31307364 0.57839572
-0.64938354 -0.35559201 0.63827157
0.81973857 -0.44282138 -0.17067723
0.98198193 -0.10976975 -0.03860205
-0.23831221 -0.31684119 0.47221160
-0.47134829 -0.15147960 -0.72552747
-0.95623767 -0.16621114 0.11587551
0.28738567 0.39808473 -0.36364284
-0.63038915 0.09937953 -0.44483259
-0.34916469 -0.53945780 -0.13453479
-0.33879158 0.18784136 0.53819591
-0.88273305 -0.22397561 0.36611390
0.31143418 0.61501443 -0.69120616
0.63860273 -0.41631937 -0.17752695
-0.13026454 0.88716698 -0.36791080
0.56857562 -0.13945515 -0.64293087
-0.11357606 0.52568901 -0.81203711
0.15961990 0.28562081 -0.91984987
0.09682132 0.10275237 0.96646369
-0.44686925 -0.14536037 -0.61141604
-0.48072809 -0.23738658 0.82283956
0.10777900 0.26112112 0.93080288
-0.32681242 -0.40091506 0.83611470
0.09910680 0.40030697 0.44225657
0.05194541 0.95210671 0.10831042
-0.65561539 -0.26222986 -0.30282703
0.16489708 0.00056237 0.79423910
0.91336721 0.28522381 -0.21991868
0.13619775 -0.61850047 0.52876759
0.44628221 0.32102427 -0.25922459
-0.20941588 0.88257754 -0.08127084
-0.00551920 -0.63309216 -0.05435143
0.85634524 0.47336066 -0.00831935
0.61871994 0.05492049 -0.77104509
0.55091906 0.19782731 -0.18072613
-0.47726300 -0.86439788 0.09291954
-0.77477419 -0.23689961 0.54762435
0.72521389 0.52800250 -0.39258185
-0.70714605 -0.57297516 -0.13308311
-0.60727543 -0.06700577 0.00161148
-0.50656134 -0.74292672 0.40864840
0.41261843 0.37831956 -0.80712569
-0.19849080 -0.86804307 0.43091935
0.45439389 0.22607596 -0.34387216
-0.58816516 0.09691568 0.12910341
-0.41211215 -0.07127675 0.44159979
0.65754175 -0.09009159 0.11978863
-0.03867442 -0.11404826 0.59721637
0.16606964 -0.47864011 0.84920508
0.16668013 0.01904119 0.96251035
0.28234637 0.08933388 -0.54902482
-0.19516905 0.06974579 0.95457727
-0.37943244 0.08411099 0.89568853
0.01200004 -0.99366713 -0.11800143
-0.37643257 0.13049808 -0.89770168
-0.26402453 -0.18920940 -0.83147776
0.07901444 0.07380959 -0.60855800
0.20621625 0.79262960 0.33277097
0.41238859 -0.91012764 0.00217911
-0.48721689 -0.36820215 -0.13646229
-0.31939331 -0.91811144 0.21908799
-0.84229410 -0.32435378 0.37485981
0.15484068 -0.70133328 0.45824063
0.24352279 -0.71961796 -0.13715005
0.92642277 -0.34770778 0.07041709
0.42024249 0.80521917 0.15573785
-0.11551329 -0.66256726 0.72462845
-0.16878356 0.91462052 0.24316694
-0.83997715 -0.51709735 0.02457678
0.13083249 -0.71513212 0.57872558
-0.65793097 0.10712048 -0.25572625
-0.56600422 0.10621578 -0.34885290
0.40312299 -0.15551534 -0.51210392
0.89311397 -0.39481747 -0.14917140
-0.24600112 -0.08616425 0.55138069
0.41437387 0.67870903 0.16401881
-0.00789179 0.11017647 0.59283221
0.55877894 -0.21023129 -0.17247938
0.02886538 0.96274221 -0.06952016
-0.70704305 -0.68815506 -0.09571801
-0.86060143 0.18125878 -0.07295757
0.19392008 0.10311110 0.85082084
0.05285431 -0.06503084 0.60581809
0.07562757 0.60776973 -0.76388282
-0.56401116 -0.02474100 -0.25032043
0.37685931 -0.92901552 -0.05425674
-0.82485235 0.14906035 -0.48590058
0.17302257 0.69021487 0.37852755
0.48282620 -0.87072217 0.09595691
0.83951277 0.26664764 -0.43486372
-0.55003965 -0.27528811 -0.28751785
-0.45997331 -0.34377715 0.79474217
-0.52341872 -0.20654984 -0.37553179
0.89834487 0.38524449 -0.02712905
0.42543486 -0.45700219 0.04080019
-0.79210043 -0.51226866 -0.14261253
-0.45856661 0.12821932 0.45419246
0.29609531 0.52474618 -0.77444381
-0.64785331 0.10687914 -0.63746399
0.01824403 0.53395820 0.80329424
-0.74388844 -0.64545918 0.04205004
0.10961913 -0.97303617 0.24671955
-0.39824924 0.15722549 0.71437472
0.38339630 0.82605100 -0.33754665
-0.23956460 -0.93512833 0.24121524
-0.07678831 -0.99168527 0.08942618
-0.12295268 0.52948797 0.55411881
-0.09830171 0.14747819 -0.97149605
0.16227973 0.76819062 0.42962620
-0.49916518 -0.53161037 0.66040504
0.64262366 0.30609632 -0.67679018
0.59985054 -0.15765288 0.00089567
0.87753606 -0.05634372 -0.45438534
0.54885417 -0.30004469 0.01249443
0.82450378 0.51617920 0.11082765
0.09225609 0.21179056 -0.95272034
-0.09574606 0.00730132 0.97401911
0.05030885 0.47268227 0.35653457
-0.17830925 0.05534605 -0.96698374
0.03177929 0.10437254 -0.97825503
-0.25510660 -0.19317609 0.52208191
0.52130371 0.12926365 -0.29944664
0.24748951 0.92294359 0.11694135
-0.12231235 -0.62271965 -0.08905374
-0.48965585 0.11948055 0.64503032
0.19901575 -0.23427457 0.86690152
0.34046459 0.46174785 -0.20217754
-0.24775589 -0.80957556 0.52724153
-0.13112837 0.50069714 -0.74876201
0.97104049 0.13631962 0.09271113
0.17161389 0.40117082 0.81164342
-0.56372869 -0.00390608 0.21419553
0.66531038 -0.74048913 -0.05680780
-0.33667642 0.02141185 0.49882445
0.08513193 -0.98178887 -0.19357751
-0.64674097 -0.15104634 -0.68134594
0.58253193 0.16013618 -0.08857484
0.94166964 0.26205274 0.07820953
0.05530105 -0.78680658 0.60185492
-0.67315286 0.10700597 0.22734335
0.59665978 0.02568520 -0.15282965
0.74857241 -0.16014102 -0.51439655
0.56688869 0.05802181 -0.80700797
-0.50681627 -0.41590601 -0.17316094
0.72184402 -0.14075735 -0.64509875
-0.17665681 -0.98524189 0.06121916
0.08215174 0.40590271 -0.44328260
0.97881961 -0.09100705 0.08970968
0.49049461 -0.86377597 -0.13282117
0.11143918 -0.60181892 0.14903630
0.37225765 0.10881393 -0.91171604
0.07373197 -0.63107574 0.03299022
0.44706410 -0.76662219 0.14282136
-0.37365052 -0.48706698 0.11323601
-0.00734835 0.02147984 -0.62143099
-0.19127482 0.85077131 -0.30878747
-0.13783343 -0.03420351 0.59549922
0.11058473 -0.64970434 -0.12709622
0.07100414 0.57194757 -0.14755091
-0.96290708 -0.04547747 -0.16229606
0.74490678 0.55946076 -0.28860229
0.49046054 -0.14586487 -0.37209755
0.48122910 -0.16583289 -0.45220247
0.40559199 0.48553324 -0.74934405
0.52619815 -0.32132262 -0.09390178
0.09828787 -0.02721645 -0.61043781
0.15311696 0.87694180 0.37070012
0.94688505 -0.15540989 -0.25809723
-0.74051243 -0.34947369 0.53524017
0.83203226 0.49622217 -0.06202295
0.06935179 -0.02644982 0.97775918
-0.05420714 0.46740064 -0.85433424
-0.43547505 0.13562347 -0.79554683
-0.05947472 0.77200842 0.55851877
-0.05274324 0.37400186 -0.90391886
-0.16421971 0.39528650 -0.72102243
0.43975505 0.79980004 -0.33454502
-0.77142644 0.13508368 0.22796780
0.06718677 -0.99721432 -0.06718440
0.52917576 -0.31214198 0.11400325
0.77936894 0.47409588 -0.36491668
0.94588393 0.27416694 -0.04393310
-0.14315030 0.44478050 -0.53991842
0.25011331 0.64238119 0.27756575
0.34368485 0.88401878 0.18158427
-0.21193060 -0.51794815 0.27183941
-0.12284948 -0.28988966 0.52693820
0.93217897 0.16826721 -0.26934531
-0.94316620 0.22409131 -0.00408769
-0.13229434 -0.98295438 -0.12863722
0.69462585 0.37337336 0.12711754
-0.35613942 -0.87103868 0.31809074
-0.60083008 0.10714224 0.33524337
0.23487842 -0.21095377 -0.88432634
0.38188356 0.10056087 -0.47494605
0.00239994 0.68676448 -0.69123089
-0.96634400 0.11314887 -0.01104588
-0.17652163 0.94945717 0.03798195
-0.12883757 0.68788433 0.48452234
0.13319457 -0.64496863 0.66736424
-0.46657735 0.12090889 0.83181792
0.42370319 -0.15317057 -0.88379818
-0.20782825 -0.95825219 0.18172336
0.08205055 -0.53786433 0.82208937
-0.19297883 0.86974633 0.32319453
-0.62893158 0.10025433 -0.18847430
-0.92349684 0.00533723 -0.33973026
-0.45645106 -0.03068962 -0.40859437
-0.59648216 -0.42703649 -0.17576745
-0.67431557 -0.62412298 -0.12989427
-0.07555629 -0.74231267 -0.14309752
0.92783594 0.09780835 -0.32744950
-0.06700964 -0.99553120 -0.10176378
-0.05083560 -0.16511415 -0.76615208
-0.24294108 0.27295205 -0.84301484
-0.10742615 0.33384508 -0.49330708
-0.64537758 0.10486569 0.44412783
0.12788241 -0.42671558 0.62622792
0.54818726 -0.40584552 -0.18240702
-0.12478609 0.66394341 0.24099596
0.06544600 0.94103205 -0.23898672
-0.14144923 -0.22521000 -0.89253306
-0.07358644 0.07966238 0.59740305
-0.33629033 -0.55025911 0.74395007
-0.29598877 -0.15457268 -0.72593194
0.12499166 -0.94413412 0.29724544
0.13645607 -0.95693934 -0.25173524
0.45647407 0.09786008 -0.86745501
0.25841519 0.52568221 -0.14750867
-0.30705538 -0.41243362 0.34765536
-0.95318830 -0.23645866 -0.09089353
-0.79536116 0.13781784 -0.26126164
0.91268951 0.02130146 -0.38799280
-0.33681604 0.04575780 -0.92604727
-0.00002767 0.13975638 0.96509373
0.63799274 -0.14268540 -0.58299750
-0.05867781 -0.65087700 0.73955077
-0.12331109 0.48574924 -0.33740929
0.80846596 0.51839495 -0.18137495
0.70195818 -0.60049975 0.12228772
0.73521429 -0.36082003 0.13243906
0.05432681 -0.83742130 -0.17639433
0.36945784 0.43091282 -0.79871410
0.03833403 0.45302305 -0.86414075
-0.29366827 0.02735361 -0.53920424
0.13046664 -0.78247523 0.54845911
-0.17812608 0.35517135 -0.61498457
0.43818629 0.75514781 -0.43708605
0.59481257 0.16025887 0.01772625
0.14322282 -0.43604538 0.46978119
-0.96290910 0.00497619 -0.22637011
0.05155034 0.12593442 -0.59946877
-0.45554245 -0.76089919 0.43638036
0.06385124 0.25519022 -0.54684198
-0.77091259 -0.61248004 -0.08320142
0.33766362 -0.18854479 -0.91595733
-0.82538104 0.15797381 0.33496523
0.19556254 0.37720102 -0.43803734
0.56565791 0.08302690 -0.23945946
0.59012723 0.67540717 -0.38070771
0.49950081 -0.65903485 0.13390836
0.48036692 0.67540193 -0.51302147
0.30299023 -0.95545030 -0.01281986
0.08604287 -0.08973542 -0.60298783
-0.15285623 0.78269017 0.23357579
-0.22082667 0.13071181 0.54400706
-0.66747701 0.03386939 -0.71317011
0.10885466 0.46670550 0.35064420
0.52422059 0.80891907 0.10258104
-0.96445334 -0.15492067 -0.01878936
0.48489660 0.28540161 -0.80813396
-0.05479086 0.95580900 0.10287418
0.04930852 0.74174511 0.60951889
0.49992985 0.67935324 0.13012682
-0.41914192 -0.41269755 0.19926541
-0.28975162 -0.37442550 0.39507505
0.61743087 0.74801207 -0.10096624
0.05289228 0.30416220 0.51076442
-0.44857329 -0.12714364 0.40360463
-0.95228720 -0.19217741 -0.13587576
0.05705287 -0.18310162 0.58344269
0.07490122 -0.39241412 0.47921872
0.95131224 0.03119768 -0.27750024
0.01540658 0.81753731 0.51467770
-0.89425528 -0.40699211 0.05160054
0.54603595 0.80652320 -0.01980226
-0.07266749 0.34500334 0.48104954
0.03492260 0.29114392 -0.93522239
0.16633426 0.56844413 0.41380107
-0.65469611 -0.05487325 0.72363317
-0.15989470 0.91100407 -0.27027416
0.11780717 0.34040996 0.47857398
-0.13376346 -0.57639968 0.19907725
0.93963867 -0.26115221 -0.20553841
0.28760135 0.80025721 0.24499787
0.54064298 0.76691282 -0.27388582
-0.11689200 0.16314772 0.56987232
-0.12013173 0.60702789 0.58153933
0.34951922 0.74928713 -0.51674372
0.71400368 0.33549166 -0.58553606
0.66558188 0.39569822 -0.60347515
-0.32482833 -0.53907526 -0.08061441
-0.12383452 0.64305329 -0.08968987
0.75557756 0.01876578 0.13870706
0.21320668 0.49338940 -0.27400926
-0.87799001 0.18739590 0.21463232
0.09913024 0.34995428 -0.49126890
0.16077450 -0.10618728 0.95638734
-0.15632406 -0.98813498 -0.01251289
0.39620325 -0.04919689 -0.90398109
-0.00160381 0.46252298 -0.39018792
0.90482944 0.07874212 0.20781282
-0.41065755 0.02332662 0.88720304
0.18273652 -0.04921565 0.82496619
0.88522059 -0.44445422 0.09949677
0.30394059 -0.54790199 -0.00548376
0.82434356 -0.36857510 -0.20958260
-0.38433427 -0.48608652 -0.00090399
-0.04229812 0.84166455 0.46315825
-0.36540270 -0.91989791 -0.16057128
0.85017282 0.46303645 -0.12028956
0.55409026 0.25084308 -0.08025181
-0.72012633 -0.09840500 0.65111870
0.01222493 -0.93108273 -0.22892895
-0.07021240 0.96042871 -0.05211385
0.91708803 0.34526637 0.01457094
0.13590552 -0.52671802 0.68429548
-0.03084715 0.22931367 0.55637366
0.37506542 0.21155185 -0.88656926
-0.03951967 -0.39733544 0.90260082
0.09256937 -0.01055164 -0.98230183
0.59500396 -0.59789693 -0.13174285
-0.21499436 0.22787003 -0.93098807
0.21375547 0.44356620 -0.35717079
-0.49343550 -0.14616777 -0.66605258
-0.22154270 0.30169478 0.72888285
0.46969458 0.49374411 -0.70697600
-0.62452221 -0.15781204 0.73776096
0.58050776 -0.21282485 -0.07355598
-0.09052812 -0.96682155 0.21860375
0.23558918 -0.02298101 -0.57495439
-0.89923429 -0.28478768 -0.28370219
0.94925016 0.19332130 0.15348057
0.21914591 -0.19350415 -0.94475257
-0.92904377 -0.29652739 0.09046172
0.68285084 0.54321277 -0.44503492
0.02103261 -0.61610222 0.11257843
0.09602747 0.69237530 -0.68121594
-0.65719825 -0.41199529 0.61064494
-0.09164956 0.91510522 0.28008175
-0.18918613 -0.18883668 0.55158758
0.65981507 -0.02657976 0.12066006
-0.79687691 0.12155433 -0.55478293
0.16565633 -0.56439221 0.21684863
0.15744027 -0.60308003 0.10645493
-0.08544437 0.11759350 0.96264517
-0.28286123 -0.85195982 0.41068554
0.25193715 -0.63867962 -0.12471730
0.74530238 0.26530811 -0.58454460
-0.66776097 -0.73053849 -0.10040505
-0.21131948 0.92434967 -0.18509617
-0.47883481 -0.16720414 0.83277416
-0.23491167 -0.96127856 -0.18840326
-0.40790594 0.15048994 0.65677583
0.31705281 -0.94844294 0.04395605
0.13061038 0.19533570 0.60771143
0.80405909 -0.43118343 0.15477270
0.60552925 0.10247740 0.04816579
-0.20602113 0.04724680 -0.58599889
-0.16644706 0.81350923 0.01141146
0.31065169 0.02437029 -0.93586659
-0.96628487 0.10700022 0.06431147
0.32027537 -0.12398798 -0.92915601
0.69130743 -0.65906715 -0.12657915
0.52841747 -0.22432426 -0.35063878
-0.02131865 -0.17011386 0.58858466
0.98056054 0.09045713 -0.00977613
0.29836193 -0.88495839 -0.20230694
-0.09055966 0.61642909 -0.73669517
-0.68346810 0.00063416 0.69328982
-0.23069727 -0.69872010 0.66122383
0.56659400 -0.41761452 0.12274784
-0.28598103 -0.77216291 -0.14369273
0.10392999 0.52931881 0.24908386
