-0.04459023 -0.89627880 0.17156887
-0.11441552 0.24419369 -0.77437383
-0.65393174 -0.35721865 0.05232417
-0.81660849 -0.11735781 0.21481836
0.27474645 -0.62995929 0.23003387
-0.49347630 -0.48198631 -0.05605448
0.00095252 -0.10729863 0.95655459
0.29560828 -0.02026807 0.70638585
-0.62613887 0.20718414 -0.31100476
0.28052947 0.45793200 -0.38357639
0.21799657 -0.18065666 0.73442334
0.23937765 0.76505995 0.08700047
-0.40244877 -0.59126836 -0.03217899
0.15798441 -0.73317105 0.24903059
-0.88476926 0.04256633 0.19167890
0.26484701 0.28803238 -0.57645369
0.17283750 0.38268691 0.52320105
-0.16145962 -0.72466534 0.25838605
0.00924769 0.94865626 0.09713009
-0.03522040 0.22914043 -0.82388651
-0.70137376 -0.18551646 0.25956345
-0.53045064 -0.34861726 0.26666993
-0.37654689 0.24612889 0.50236303
0.15550341 -0.33322895 -0.63972223
0.17282951 -0.83941889 0.14205182
0.83599246 -0.22611958 -0.02563422
-0.36874026 0.41106173 0.35251340
-0.49135017 0.21321155 0.40136248
0.19483377 0.16360620 0.77434111
-0.06345005 0.25452113 -0.78225362
0.06228264 0.37830073 0.57264102
-0.49287355 -0.18565935 -0.43821928
-0.44279560 0.00484004 0.52566314
-0.08623528 -0.50683665 0.44979656
-0.15338285 -0.70019203 -0.30358541
0.14430289 0.15220182 -0.84808213
-0.62699658 -0.32020178 -0.21993814
-0.10516834 0.43572715 -0.50877178
0.65117979 0.13674256 -0.31678277
-0.08906656 0.43273875 -0.50778073
-0.12369511 -0.40889809 -0.56688672
-0.27670532 -0.64873451 -0.24185926
0.55622739 0.39535975 0.03131244
-0.14864856 -0.30927476 -0.68699425
0.27692553 0.16368097 -0.68434340
-0.13913581 0.66923636 -0.31459650
-0.16127576 0.86100775 0.12164384
0.04731376 0.51623040 0.42180002
0.72892433 -0.28516123 0.08451459
0.90571022 -0.15549479 0.03451588
-0.28284872 -0.74554408 -0.12548116
-0.36779451 -0.60793757 0.11903688
-0.07723566 0.54381138 0.39943075
0.72667879 -0.29228297 0.07161999
0.90466219 0.00405803 -0.16365591
-0.34245491 0.33460242 0.45829862
0.14849065 0.10150410 -0.89013541
0.13227078 0.18093131 0.82527632
0.81643438 -0.03714299 0.23020357
0.02308822 -0.55162919 -0.43183005
-0.22054866 -0.42160547 -0.49207792
-0.65033740 -0.00410948 0.34286219
-0.66199887 -0.34108046 0.08146419
-0.63079840 0.05659964 0.35068390
-0.56578094 0.15318590 -0.39068401
-0.57095301 -0.41232926 -0.08753300
0.82322210 0.20869765 -0.06681765
-0.90677369 0.02692616 0.16917746
-0.31494439 0.40488037 -0.42361897
0.61513168 0.09403609 0.34337437
0.23876388 -0.07752182 -0.79695266
-0.37741780 -0.23574251 0.51935679
-0.30467162 0.29504099 0.53220153
0.10859758 0.26168153 -0.74302006
-0.28729543 0.73116076 0.08520861
-0.19041143 0.77751237 -0.20686470
-0.64697510 -0.33456805 0.14352189
0.03707612 0.93373090 0.10238325
-0.12184284 -0.52123904 0.42885032
-0.47334588 0.28088954 0.37030053
-0.94917005 -0.07254261 -0.12622720
0.56471419 0.21913236 0.32075229
0.42703903 -0.14436664 0.49441472
-0.48347279 -0.18890493 0.43449900
0.34368211 0.60885078 -0.11357986
-0.59483987 -0.31498092 0.23454538
-0.30099511 -0.33302906 0.51024896
0.40057242 -0.48888317 0.21667090
-0.26686001 0.77883840 -0.00214334
0.17030352 -0.19467536 -0.81880379
0.24727534 0.36065277 0.49414381
-0.46550500 0.05580339 0.49212912
-0.16357172 -0.56316429 0.37784463
-0.30426100 -0.70551199 -0.11440852
-0.56200486 -0.10456619 0.39745307
-0.25989562 0.10534979 0.76049680
0.33539581 0.28665444 0.48640293
-0.18637180 0.04411330 -0.89743936
0.70328319 0.19632411 -0.24263871
-0.21311821 -0.10384528 0.82656747
0.12974674 0.26915723 -0.72878486
-0.14653800 -0.42514849 -0.54151636
0.38291401 -0.41992012 0.32188591
0.01289206 -0.82147753 -0.25759715
0.52454787 -0.20951752 0.37288249
-0.58147758 -0.01082124 -0.39871708
0.35394794 0.08535475 -0.61455947
0.61750454 -0.18128467 -0.32322937
0.75658613 -0.10054377 -0.25933367
-0.79419756 -0.25923187 -0.08338530
0.41299772 0.08089937 0.51456016
0.05680097 0.10914005 0.92635161
0.21988516 -0.09475896 -0.81660706
-0.37011635 -0.19714685 -0.57181787
0.78258479 -0.24971463 0.10031851
-0.13939895 0.57119238 -0.37537983
0.14732949 -0.13082232 0.87272608
-0.83695412 0.15980296 -0.17155482
0.00312122 0.67201066 0.31717429
-0.99460304 -0.00658168 0.04604420
0.35954332 0.11706170 0.57424212
-0.04570345 -0.05148314 0.98151159
0.04331639 -0.28546524 -0.76052547
0.28993553 -0.67203689 0.15005876
0.31666157 0.60913765 0.17843929
0.43605974 -0.14245376 -0.49504945
-0.18061639 -0.90591443 0.03608838
-0.17225425 0.38706601 0.52291048
0.95113337 -0.08656675 0.05410549
0.33291584 0.09198222 0.62872255
0.01502827 -0.79424471 0.25339356
0.07647587 0.41927016 0.51420212
0.04801679 -0.28591281 -0.77333778
-0.96331102 -0.02013163 0.10290724
0.38131827 0.10217398 0.55095053
-0.17250563 -0.19923364 -0.82419240
-0.49978137 -0.28860486 0.35611397
-0.55726993 -0.06270874 -0.42638570
0.50960976 -0.39069173 0.20703617
0.27135804 0.69908601 0.12506835
-0.21768343 -0.84767646 -0.08289550
0.79659170 -0.04929636 -0.24646071
-0.81833446 -0.22931695 -0.10268197
0.78551739 0.12980552 0.21756023
-0.90437496 -0.10402028 0.15171196
-0.75180066 -0.05905523 0.27636796
0.37713775 0.58335251 -0.01037444
0.07939780 -0.47182742 -0.50163776
-0.31332406 0.24935746 -0.58969140
0.23606671 -0.63982463 -0.27569890
-0.33534321 -0.31863302 0.49692953
-0.97901928 -0.10710743 -0.00439976
0.35762882 0.21453995 -0.54452449
-0.00914253 -0.25202996 0.79990089
-0.86605722 0.13289425 0.16570097
0.55612040 -0.28673339 0.29211137
-0.15677050 0.89419764 0.08445272
0.59911913 0.00253078 -0.37925336
0.66916788 0.28197250 0.15988562
0.60249722 0.31439924 0.17924328
0.07682934 -0.95824820 -0.08054008
-0.08357914 -0.71028864 0.29545802
0.39591897 -0.57354391 0.00144642
0.54864675 -0.40546054 0.09971063
-0.40062463 -0.06464443 -0.59039837
-0.29952225 0.39860106 -0.44617510
0.87926280 -0.18664433 -0.04028910
0.22132020 -0.82536322 -0.04930037
0.82910490 -0.21681568 0.08769445
0.51871061 0.36115485 0.21503688
0.00337900 -1.00081253 -0.05745794
-0.67681891 -0.32415569 0.10384091
-0.75675452 -0.19615653 -0.22617859
-0.22284327 -0.82497609 0.09924372
-0.53096503 -0.44839755 -0.02917625
0.24659418 -0.50038135 -0.38610309
-0.69538325 0.11341374 -0.31455240
-0.52426541 0.43244800 -0.08287735
-0.85578817 -0.19770288 0.10561611
0.47198990 -0.16196030 0.44316071
-0.41059244 -0.24453351 -0.49035633
-0.25157845 0.44353625 -0.44449162
-0.67112076 -0.30570728 0.15439582
0.33142614 -0.33478335 -0.47566223
-0.72588062 0.29251936 0.04771038
0.15674593 0.88640314 -0.03139853
0.20178032 -0.60949361 0.31823811
0.76740408 -0.14808677 0.22656274
-0.67000878 -0.30916944 -0.18014222
-0.00057010 0.42475584 -0.54420704
-0.38942441 0.59053040 -0.03774817
0.61395830 0.12071458 -0.34793919
0.44825739 -0.50031614 0.06501663
-0.43357581 -0.54977816 0.01864643
-0.68774021 0.24059710 0.22023059
-0.22609696 -0.00519983 0.84428674
0.49829015 -0.39423802 -0.22779164
-0.67930108 -0.04926765 0.32485190
0.22048090 0.07250683 0.80670267
-0.07897324 0.58116865 0.37809828
-0.62275314 0.33132687 0.15618509
0.09066901 0.24002564 -0.79179919
0.76296449 -0.26015529 -0.09034054
-0.53030229 -0.08102260 0.42321193
-0.14167005 -0.59978384 -0.37314165
-0.06776237 0.85149980 -0.20140253
0.41878363 -0.25666720 0.43521762
0.37187231 -0.43290398 0.32244137
0.87675875 0.18029094 -0.02331916
-0.02985773 0.60668659 0.36050871
0.33456743 0.03272411 -0.65447283
0.38424921 0.17002010 -0.53803974
0.49675700 -0.40132684 0.20773727
-0.30957374 0.45242217 0.36972356
-0.22507560 0.37723124 -0.52033824
-0.32675195 0.64611542 0.13252161
-0.56143034 -0.35193953 0.22237934
-0.72515219 -0.31997055 -0.00169083
0.08657710 -0.23422985 0.79571295
0.88088268 -0.00095623 -0.18929562
0.16491494 -0.87662464 0.09745757
0.11422114 0.93171573 0.05049536
-0.37863088 -0.26606891 -0.50479692
0.04260906 0.18987450 0.85230923
-0.69571209 -0.10968659 0.30829242
0.00240806 -0.96366572 0.11018932
-0.47459376 -0.48162436 0.11828350
-0.35191369 0.25659168 0.51636368
0.20247418 0.56928003 0.32881951
0.22172217 0.72717327 0.18242832
-0.31921464 -0.56117517 -0.28294465
0.57394075 0.14307798 -0.36950529
-0.74354702 0.27879688 -0.08440611
0.27418146 -0.28815660 0.56621194
-0.56270224 0.17197751 -0.38223627
-0.45390499 0.49864662 0.05676423
0.17240225 -0.40663138 0.51549006
0.02179393 0.56448662 0.39235923
0.18556912 0.45632029 -0.45182168
0.54816985 0.39343175 0.07197489
0.52735537 0.40610623 -0.12396187
-0.04520607 -0.58432120 0.38646808
0.28857079 -0.65918893 0.17687811
0.11117515 0.62944096 -0.34036988
0.15060408 0.87813336 0.08543421
0.23879904 0.12941763 -0.76098949
-0.46495229 0.43939623 0.19956169
0.42360252 0.51598561 0.07496433
0.17505270 -0.36447263 0.56654429
-0.54463601 -0.34830785 -0.25527397
0.13114899 0.18627183 0.81559765
0.83478928 0.10973663 -0.19377090
-0.46808687 -0.32598945 0.35112959
0.63497508 0.16891429 -0.31118622
-0.18112177 -0.56449431 -0.38217708
0.54902303 0.06297983 -0.41191441
0.27103472 0.67284447 -0.18152748
0.43293154 -0.05405184 0.51355118
0.27879274 -0.58150679 0.27428040
-0.37383083 0.24036975 -0.52644396
0.54918522 0.24977568 -0.32771739
-0.33572146 -0.15278223 -0.66082710
0.49663395 -0.25758612 -0.37154350
-0.71487391 0.28024444 0.11892305
0.15611517 0.61452675 0.32275501
0.97456545 0.00292041 0.05312876
-0.00582533 -0.83786869 -0.24804994
0.44757417 0.37287098 0.29858139
0.49941120 0.27267423 0.34398299
0.09493787 -0.96165890 0.01573922
0.43607605 -0.22751606 0.43846089
-0.52776790 0.34909338 0.25071043
-0.83654898 0.15341926 0.16161981
0.14702959 -0.06697442 0.90431899
0.02292330 0.87128150 0.18809788
0.27501038 -0.74486786 -0.04278151
-0.13314627 0.61670095 0.33525306
0.30884987 -0.46258408 0.35992849
0.01377255 -0.37593707 -0.63551939
-0.01203620 -0.96405274 0.10920832
-0.16068164 0.38075876 0.54094529
-0.20377834 0.46701071 0.42348644
-0.09496156 -0.44648209 0.50319892
0.06236817 -0.72823751 -0.30174652
-0.30579370 -0.71097773 0.10822043
-0.77034748 0.09804521 -0.26775336
0.01959137 -0.43749845 -0.54477113
0.26359078 -0.30796760 0.55908799
0.64425021 0.33003113 -0.07312971
0.93481189 0.07709173 -0.10243563
0.17388417 0.78769690 0.17642093
-0.35715598 -0.50242984 -0.29811898
0.71383679 0.18612462 -0.24044953
0.39350539 0.50938529 -0.19156115
0.59668189 0.35410798 0.09827790
-0.11927079 0.36129579 -0.61025786
-0.30456409 -0.12081493 -0.70862603
-0.65697318 -0.31252787 0.16240969
0.15842836 0.12272036 0.84663814
0.22918604 0.77512306 -0.11194739
0.09534355 -0.62296796 0.35353389
-0.17684123 -0.89175177 0.08654275
-0.15283532 -0.00164941 0.91366208
-0.08767529 -0.89209139 -0.19003105
-0.04441000 0.68084025 -0.32055953
0.14889465 -0.46945232 0.46152765
0.36989376 0.44029877 -0.31733698
0.30285555 -0.16240686 -0.66004020
0.00358239 -0.63733107 -0.37442753
0.70407921 -0.30746132 -0.03164670
0.11858556 0.01774065 0.93446368
0.34175807 -0.10927219 -0.63305801
-0.81468636 -0.09697824 0.22718552
0.37582195 0.26527703 0.46566093
-0.37690008 0.60216349 -0.11362059
0.65408832 -0.14717586 0.30439287
-0.06397169 -0.96192849 -0.11939782
-0.36581931 0.60741806 -0.12956089
0.07205340 0.96398306 0.00862361
0.08507409 -0.35158432 -0.65058953
0.10408259 0.72555268 -0.27841336
0.14315398 0.24327500 0.73577362
-0.89136577 -0.04462303 -0.19350293
0.32370642 0.18981989 0.58196545
-0.15172106 0.09013133 0.89411616
-0.91316700 -0.15856007 -0.09179990
-0.14421070 0.16704634 0.83633840
-0.62890399 -0.08359450 -0.36489150
0.63704807 -0.13311300 0.32306278
-0.53568494 0.15018128 -0.41479221
0.58817559 -0.23921759 -0.31655329
0.78963441 0.20695828 0.10973234
0.87994927 0.12600198 -0.13400209
-0.30913648 -0.16350386 0.66463631
0.35433728 0.25143063 -0.51358306
-0.34192029 -0.07004956 0.64666021
0.29398558 0.14942482 0.65716517
-0.21834950 -0.10824849 0.81673938
-0.00307938 0.35238346 0.61950743
0.09070570 0.47011885 0.45671684
-0.39216143 -0.03803495 0.58119625
0.25463825 -0.71952385 0.16207014
0.86689341 -0.11629552 -0.17721441
-0.32110333 0.43339449 -0.38688400
-0.31120667 0.31767678 0.49929067
-0.40408748 0.55675143 0.07803507
0.21005110 0.76062977 -0.16817166
0.17700204 0.48927602 0.40314412
-0.76995504 -0.28907749 -0.04503598
-0.90236372 -0.13847467 0.11639383
0.21981466 0.17915207 -0.73985791
0.25553465 0.10783435 -0.74880928
-0.22806549 -0.24038437 -0.70408803
0.11922675 0.61825430 -0.34439164
0.95632631 0.04295277 0.06942727
-0.94765842 -0.14204152 -0.04757996
0.68067795 0.04994121 -0.32028264
-0.07974384 -0.19994320 -0.87628984
0.25959268 -0.00365176 -0.77461976
0.07508271 0.91783845 -0.12632245
-0.33748415 0.65316236 0.08378328
0.30927172 -0.69277811 -0.05970427
0.52046955 0.01065224 0.42537636
0.11032687 0.25567049 -0.75413930
0.08929693 0.06535167 0.94460195
0.26875463 -0.58283627 -0.29381871
0.00271964 0.98860645 -0.02402926
-0.19886382 -0.89230788 0.01469555
0.20589653 -0.38279778 0.52179569
0.81433475 0.04238940 0.22539283
-0.59877336 -0.35174364 -0.18404709
-0.25466654 -0.46426859 0.41031754
0.21755256 -0.66571212 -0.26921761
-0.26636437 -0.36695018 -0.51969743
-0.86553919 -0.03503714 0.20525780
0.09496124 0.75049973 -0.26305285
0.60679722 -0.23696019 -0.29433233
-0.21696360 0.84357089 -0.05504315
-0.53342462 -0.40336740 0.18956129
-0.40964347 0.38041767 -0.34875688
-0.20747353 -0.88280886 -0.02820076
0.22688282 -0.81935555 0.06522782
0.85554230 -0.00760232 -0.20883740
-0.19504692 0.00521186 0.87563318
-0.78871989 -0.08479871 0.24879777
0.78072399 -0.07861562 -0.25314891
-0.85512733 0.14723442 -0.16359599
-0.12812337 -0.94920170 -0.06547570
0.63752759 0.00735534 -0.35328960
-0.50661433 -0.46637893 0.05298345
-0.24579950 0.76887923 -0.13592917
-0.39084068 -0.59112018 0.08409425
-0.21129407 -0.85394800 0.07331264
0.02064136 -0.65099126 0.34258279
-0.76639295 -0.22806993 0.18451618
0.35902613 -0.57613569 -0.17382608
0.09240393 0.94833869 -0.01172138
-0.36349693 -0.56152362 -0.23040287
0.68553108 -0.24130498 -0.23150393
-0.13330086 -0.07256389 -0.94241774
-0.38458794 0.57135308 0.12860753
0.01268387 0.61183858 -0.37694275
-0.47659522 0.44849649 0.15390097
-0.01731883 0.98564935 0.00566646
-0.49725845 -0.12024726 0.44734269
0.08700369 0.26937863 -0.74699211
0.21875365 0.72144365 0.19006768
-0.58062583 0.20191675 -0.34948418
-0.11132036 0.90757626 0.11425547
0.48124069 -0.47033581 0.05508984
-0.74492365 -0.16135994 0.24768725
-0.14783601 0.84825337 0.15645999
-0.58109218 -0.31667513 0.24981126
0.86023808 0.17537963 0.07642173
-0.74383581 0.17823586 0.22852820
0.07895737 0.52178836 -0.43558466
-0.22076434 0.19191590 0.73731524
0.62911153 -0.11189793 0.33417517
0.27527249 0.15286222 -0.69835788
-0.42745894 0.45536438 -0.25147265
0.70661932 -0.26716509 -0.17332211
0.59342897 0.10370157 -0.36668885
0.44026795 0.47419208 0.14050533
0.19616869 0.26700881 -0.67128563
0.04096087 -0.98874110 -0.07500023
0.58832824 0.28270054 -0.26564884
0.03712170 -0.91030806 -0.17338887
-0.60308230 0.22219457 -0.32181153
-0.53590435 0.32975656 -0.27126825
0.30436072 -0.19221295 -0.63166165
0.76340801 -0.24766819 0.12284324
0.64443833 -0.35230809 -0.01082432
-0.25127167 -0.63844091 -0.28944886
0.30749932 -0.48188502 -0.35174233
-0.18017927 -0.08370935 0.87702268
0.10641319 0.15510887 0.85797429
0.06414793 -0.64257598 -0.35779515
0.28643072 0.38524514 -0.45319515
-0.42637020 0.26883274 -0.44330829
-0.50528181 0.33036694 -0.30871138
0.10672166 0.89263749 -0.13693076
-0.96172923 0.04257917 0.09233221
0.33700770 -0.27826867 -0.51756442
-0.18613382 -0.89029533 0.04863197
0.58678633 -0.19163716 -0.33988369
-0.28508350 0.74918157 0.03583140
0.15045430 -0.29374757 0.67980385
0.15983117 0.43154842 -0.48908749
-0.77080280 0.23638724 0.14560167
0.42826015 0.25511384 -0.43100417
-0.18130845 -0.29055381 0.66494703
-0.70281780 -0.31846651 0.06589061
-0.76096523 0.15464768 -0.24471039
0.90381658 0.11623135 -0.11622774
0.35563788 0.04942883 -0.62064528
0.38359219 -0.15341105 -0.54070109
0.33469921 -0.31432709 -0.49713781
0.20422769 -0.27559251 0.65876353
-0.96439177 -0.05737686 -0.12084072
0.87384689 -0.18056099 -0.08748835
-0.04681087 -0.88357216 -0.20667328
-0.52933639 -0.09225526 0.42498532
0.53132319 -0.41780233 0.09134405
-0.87929183 0.18040128 0.05366613
-0.04470421 0.41729140 0.52414167
0.25704375 -0.65019411 0.23071918
-0.09920752 -0.03035485 -0.97351438
-0.98733348 -0.03897164 -0.07110629
0.63268328 0.09354395 -0.33920732
-0.59838802 -0.09137652 -0.38861391
0.88160318 0.15343305 0.06130450
-0.26809043 -0.78163767 0.05854146
-0.13035999 0.37796041 -0.57046813
0.11919150 -0.03846088 -0.94963127
-0.20167978 0.50904477 -0.40237284
-0.19758271 0.71963292 0.22550349
-0.41086701 0.47536328 -0.24778783
0.12420602 0.91168034 -0.06878179
0.74452019 0.10722599 -0.25974497
-0.40687048 -0.21789603 -0.50718910
-0.06723089 -0.98920375 0.04494208
0.09160118 -0.22992408 -0.82693559
0.24475028 -0.42422709 0.44925672
0.56092107 0.38578862 -0.08686179
-0.43592390 -0.51731390 -0.15134588
-0.83671570 0.03949609 0.21739873
-0.49727070 0.45513833 -0.07643855
-0.07246303 -0.89652824 0.17222334
0.28718314 0.25346014 0.57778370
-0.05398964 0.60031086 0.36836931
0.15079673 0.12468670 0.85098749
0.49653769 -0.00406945 0.43913716
-0.29037607 0.12662004 0.70505363
-0.13248642 0.54388386 -0.40081888
-0.88988906 -0.09357119 -0.17668588
0.73672444 -0.27777860 -0.10522515
0.73303884 0.26221424 0.11487369
0.66419595 0.32163778 0.03724889
0.22851256 -0.47607201 -0.42026323
0.26271021 -0.59211922 0.28379834
0.19144173 0.47518289 0.41285834
-0.31375134 -0.63855320 -0.20670779
0.49610430 0.23196301 0.37291721
-0.86138052 -0.20263508 0.09088817
0.48099601 -0.02500721 -0.47456977
0.08073089 0.29244682 0.68674445
0.31433362 -0.28911862 0.52139419
0.17276369 0.47737637 -0.43857512
0.37561232 -0.58878493 -0.07999606
-0.76914608 0.19154450 -0.20904826
0.93977904 -0.06551589 -0.11984396
-0.39728922 -0.30139717 0.44845983
0.15468176 0.64743292 0.29214427
0.16293499 0.29442105 0.64439106
0.68760508 -0.26452804 0.18803191
-0.13326411 0.81288636 -0.20409557
-0.67969745 0.25956342 0.21022306
-0.08191154 0.67761761 0.30311707
-0.35318840 -0.16885449 0.60028702
0.04025397 -0.51382697 0.44693089
-0.09121785 0.78810138 -0.25230202
-0.30072466 0.01300068 0.73022801
-0.02012502 -0.31202352 0.70287901
0.22785896 0.76790804 -0.12320447
-0.64309031 0.06717101 -0.35155609
0.34932891 -0.53094959 0.24230039
-0.62786198 0.01384008 -0.36990336
-0.02456604 -0.59985334 -0.39105746
-0.57919103 -0.19941489 -0.36042219
-0.02012757 0.76294440 0.25162128
0.50945562 -0.07634612 -0.44101122
0.15500933 0.34430361 -0.59470898
-0.20681001 0.86271489 0.02353107
-0.57775164 0.37708375 0.12841809
0.16151795 -0.81095481 0.18228395
-0.86442703 0.14992183 -0.14979436
-0.44482571 0.40343252 -0.29233152
0.56813127 -0.22348632 0.33521873
0.40493748 -0.10857964 0.52843082
0.36872211 -0.58328998 -0.12982973
-0.42293617 -0.55684447 0.00019261
-0.90237308 -0.17802691 0.04707530
0.02990026 0.94100171 -0.12380151
0.15172043 0.81416279 -0.17857111
-0.65463573 0.05252419 -0.34930220
-0.54410887 0.02163588 -0.43404791
-0.06654118 -0.53055775 0.42908132
-0.44719741 0.39361858 0.28787917
0.10371523 0.23600826 -0.78390455
-0.20321105 0.80239362 0.13935435
-0.32082862 -0.71578974 0.00202051
0.42325667 0.45374086 0.21014121
0.16590044 0.16934898 -0.81772649
-0.12013108 -0.59442532 0.37057751
0.03912540 0.13902387 -0.92385989
-0.67822927 -0.11643291 0.30899337
0.07805969 0.14829068 0.88789523
0.40334970 -0.26042113 0.45507613
-0.80595088 -0.20519933 0.15533456
0.01699355 0.11625545 0.94562858
-0.13911588 0.93442887 -0.00945657
0.47118723 0.12060881 0.45190075
-0.37155640 0.33521301 0.42359841
0.16916594 -0.89818919 0.01634739
0.89273739 -0.16666566 -0.05564340
0.02386322 0.54473686 0.40332410
-0.07533625 0.77183598 0.24545684
-0.22297139 0.17997886 -0.76542711
0.86437643 -0.08553582 0.18488835
-0.02957036 0.52290285 0.42637473
0.27633151 0.52839386 -0.32759497
0.84926546 0.20310579 0.01208697
-0.37149113 -0.23264816 0.52613181
-0.34068963 0.02445977 -0.66847467
-0.65104663 0.22000402 0.27223429
-0.06623259 -1.00512564 -0.02120136
-0.83704311 -0.23375538 -0.02175331
0.60347098 0.29109803 0.22201286
0.16742507 -0.57914525 0.35907030
0.97651136 0.03659981 0.00147238
0.56577140 0.01641367 -0.39864233
-0.24719362 -0.65986806 0.25031176
0.33625677 0.11681482 0.61454582
-0.19023852 0.53382760 -0.39039186
0.65041059 -0.17692626 0.29929566
-0.25003469 0.76198155 -0.13985392
0.29644245 -0.35928437 -0.48266688
0.83218253 -0.19756262 -0.12438790
0.15044904 0.77809680 -0.21484336
-0.02631660 -0.65720350 -0.35769305
-0.51521748 -0.34251636 0.29853752
-0.27319020 -0.31349763 0.56366479
0.69009012 -0.23867454 0.21434373
0.01940538 -0.26134452 0.77859861
-0.31261134 0.42172205 0.39559358
0.63107431 0.32633132 -0.14347947
0.37200856 -0.56785136 -0.15975259
0.03986594 -0.80662405 0.23931077
0.13297114 0.21795051 -0.78925014
-0.71190411 -0.22349577 0.22671698
-0.05046553 -0.01772132 0.98901814
0.07672399 -0.97884816 0.00637449
0.22483419 -0.77535081 -0.14558953
0.18925756 0.28731409 0.63736367
0.36853144 -0.55686080 -0.18427959
0.06512841 -0.29264909 -0.74954414
0.29159749 0.09280430 0.68980408
0.42803618 0.50712687 -0.03214428
0.10273074 -0.72072119 0.28390208
-0.11708657 0.33898452 0.61337847
-0.29330260 -0.13703132 -0.71065938
-0.36907691 0.30813250 -0.46186146
0.20228274 0.73455757 -0.20426597
-0.13441546 -0.23899503 0.76976383
-0.71324670 0.20937091 0.22760528
-0.95874053 0.03438477 -0.12101419
0.27842861 -0.42140061 -0.43498763
0.54244655 -0.23581341 -0.34851649
-0.59491140 0.26144916 -0.29598054
-0.93026090 -0.12885362 -0.11538935
-0.41960561 0.32633048 0.39012414
0.48336112 -0.04064914 0.46212414
0.02913776 -0.18277042 0.88511652
0.46336859 -0.45386109 -0.17466035
-0.56393158 0.17705002 0.36409783
-0.37183779 -0.58558154 0.14793830
-0.06384631 0.59121770 0.37813616
-0.07387400 -0.80830818 -0.26281577
-0.29879776 -0.37460610 -0.49249500
0.16764674 -0.18828335 -0.83766901
-0.14984815 0.89584118 -0.10149132
-0.88700831 0.18573059 0.03917106
0.51756239 -0.44239351 0.02154346
-0.33124754 -0.31275785 0.50454110
-0.55780709 0.29669067 0.28576910
-0.83655822 0.18794510 0.11775780
0.12041024 0.25563177 -0.74975550
-0.09505275 0.42804652 0.50111651
-0.02161425 -0.90541959 -0.18779145
-0.60659546 0.36824551 -0.06509325
0.16707803 -0.13676614 -0.85983419
-0.88553268 -0.09729176 0.17605147
0.40188465 -0.02765221 0.55456549
-0.06385545 -0.97314453 0.08351356
0.83335203 -0.21289416 -0.07753297
0.05128606 -0.82576698 0.22430088
-0.09114378 -0.89669114 0.15035464
-0.19228920 -0.24209306 0.72957426
0.33905214 -0.59817815 -0.17770691
-0.48160475 0.41945010 -0.22370423
-0.10815422 0.65873426 -0.33522362
-0.54030353 0.10587791 0.41115862
0.27184668 -0.71062756 0.13357686
-0.10804102 0.47006240 -0.47031391
0.09747554 -0.18198912 -0.88345498
0.24391353 -0.63693815 -0.27209118
-0.53873217 -0.04019516 -0.43298653
-0.30558312 0.34181210 -0.50274551
-0.02031664 -0.92045200 0.14701654
0.37035224 -0.45821175 -0.30873892
0.31239870 0.21332982 -0.59836537
-0.52955061 -0.32936639 0.28774765
-0.29694945 0.21812958 -0.64230520
-0.33823055 0.30636388 -0.50890905
-0.05675887 -0.51183188 -0.47009268
-0.64941329 0.16675800 0.31113991
-0.40637088 0.56303173 0.03206107
-0.14894803 0.88321298 0.10804506
0.22195925 0.24731696 0.65163881
0.16057624 -0.03130342 0.89950126
0.81780380 -0.06945488 0.21561725
-0.16289033 -0.91016167 0.06784931
0.40705356 0.21188881 0.46138421
-0.39034778 0.02179701 -0.60399741
0.20435865 -0.02576859 0.84345406
-0.51535326 -0.11525089 -0.44802004
0.02536601 -0.71533644 0.30150837
0.42372078 0.30737281 -0.40132350
0.71845090 -0.10412236 0.27676398
0.64574760 0.32889315 0.04814197
-0.15807612 0.22862899 -0.77303499
0.04619987 -0.92424154 -0.15969494
-0.30150035 0.68587661 0.13563694
-0.10903167 -0.37251323 0.59672028
-0.68204230 0.30131397 -0.14573967
0.54470587 -0.39931709 0.13666037
-0.29467341 0.00661964 0.73757422
0.90545517 -0.09242644 0.13569711
-0.40571126 -0.04911879 -0.58583850
0.32500738 -0.66670531 -0.07316370
0.11241895 0.85712808 0.15298143
0.46560755 0.09280024 0.46577463
0.14075570 0.18221210 -0.82277691
0.24388555 -0.80009425 -0.02902791
-0.17534670 -0.90601701 -0.06322576
-0.99139124 -0.05598077 -0.05092293
-0.13734350 -0.94377995 -0.07040235
-0.48980567 -0.45361573 0.15073034
-0.34342688 -0.37718654 0.42114609
0.04103343 -0.66628057 -0.34396204
-0.41518489 -0.30288658 0.42513201
0.43080428 0.49382609 0.12146860
-0.12475257 -0.89209586 -0.16911393
0.79128599 -0.19703655 -0.16919129
-0.19951680 0.40586138 0.50092381
-0.17621924 -0.19819851 -0.80575490
-0.41680175 0.11797842 0.52705306
-0.16353297 -0.23835917 0.74729979
-0.47167987 0.33002749 -0.34319055
0.64839309 -0.11764662 -0.32793179
0.14182518 0.26754561 0.68703640
0.35474652 0.55196160 0.18214732
0.33018321 -0.59889060 -0.19658089
0.56107813 0.35140985 -0.18989362
-0.26700667 -0.43476522 0.43490413
0.58950168 -0.10777748 0.36505783
0.11175109 0.36506844 0.57861370
-0.84662712 -0.23083661 -0.00142254
0.52849567 -0.39892051 -0.17286071
0.20245631 0.48188725 0.40112486
0.01718447 0.95114744 0.10246161
0.10761085 0.31019917 -0.66914552
0.35026059 -0.55563748 0.20596644
0.09432229 -0.10650991 -0.93835622
-0.81809968 0.17781799 0.15861237
0.98439890 -0.02783395 -0.01058386
-0.99323148 0.04251382 0.00079615
-0.04768136 0.18073814 0.86925334
0.32088009 0.61981940 -0.14587753
0.35964122 0.46332756 -0.30311820
0.15604374 -0.34364909 -0.62591934
-0.50336367 -0.43314657 -0.17129597
-0.44326481 0.11909556 0.50103277
-0.13577715 0.92290068 0.05084403
-0.49717009 -0.13300064 0.44376084
0.37521559 -0.25461245 0.49375525
0.53718799 0.20899151 0.34978089
0.06902105 -0.94248807 0.10826652
0.05377741 0.85719562 0.18242598
-0.37575087 -0.56705755 -0.19735496
0.50474334 -0.16902503 -0.41710225
0.04396378 -0.48865086 0.47393242
0.30250716 0.00175403 -0.71615273
-0.07066066 0.38682020 0.55699182
0.06823573 -0.96874738 -0.07818165
0.39733732 -0.55076778 0.11671770
-0.35339153 -0.49204379 0.30103117
0.45054287 -0.14663342 -0.47496527
-0.26422629 0.78379267 0.01323909
0.16590807 -0.88138616 -0.09333559
-0.82020813 -0.25241971 0.02486876
-0.34894970 0.62609625 -0.12636864
-0.73639274 -0.05347861 -0.30778596
0.00034929 0.29766238 -0.72207004
-0.22876778 -0.64653933 0.27189934
0.10197397 -0.04449482 -0.96582633
-0.24403290 -0.20182130 -0.72337955
0.57956719 0.25877449 -0.29269955
0.28949028 -0.23300064 0.60817015
-0.06593429 0.96762413 0.06514847
0.44577396 -0.01588041 0.49831364
-0.64801043 0.23032384 0.26534978
0.13593093 0.11265724 -0.89626342
-0.09741170 -0.25575313 -0.79546696
-0.04170652 -0.41607249 -0.57956123
0.17908338 -0.16314687 0.80801475
0.89579761 0.06182530 0.14377657
0.88642180 0.12774779 0.11323607
-0.68454647 -0.06122083 0.32497710
0.88929898 0.16045018 -0.03857651
-0.34121102 0.54762310 -0.25132281
-0.35518810 0.28238904 -0.51457846
0.44706273 0.26339525 0.39237127
0.24228033 -0.44718277 0.42475501
-0.91834682 0.11827619 -0.13114496
0.21105872 0.44727871 0.42924070
0.10467925 -0.29123491 -0.72141105
-0.51639527 -0.00152845 0.44642639
0.23383859 0.73910826 0.15139994
0.22450736 0.67621368 0.22496480
-0.90389115 0.16489178 0.03874204
-0.08901481 -0.00524479 0.97571844
-0.13477346 -0.02649048 0.94093823
0.38685134 0.33985776 -0.40092170
-0.50944895 0.41362226 0.17149945
-0.46441424 0.14929642 0.45984861
-0.18255292 -0.02822951 -0.90492910
0.65150023 0.23435411 -0.24899967
0.19872965 -0.20025934 0.74424732
0.05464097 0.73687822 0.27408400
-0.29050019 -0.03624400 -0.75723588
-0.15118340 0.74610764 0.23341449
-0.08405641 0.25579655 -0.76968306
0.07698543 -0.62908953 -0.36543897
-0.17590342 -0.00117197 0.89648503
-0.01054957 -0.18275850 -0.91309178
-0.10816315 0.74585265 -0.26828501
0.22718242 0.11263036 -0.79131478
-0.10012793 -0.88108408 0.16627899
0.82925487 0.10328042 -0.20298886
0.41557994 -0.00573199 0.53583312
0.88338035 -0.15888375 -0.09970125
0.23249000 0.55691189 0.31951973
-0.47427890 0.36634067 -0.29615444
0.01118841 -0.76583791 0.27329415
-0.15069406 -0.67935753 0.29735607
0.29506725 0.57767504 0.24949081
0.24873795 0.75101310 0.09493352
0.53168255 -0.43453166 -0.06374676
-0.16025621 0.73442554 -0.25383690
-0.62118894 0.07380660 -0.37271667
0.32356039 -0.56932491 -0.24276800
0.19926463 0.62282383 -0.30639410
0.10722562 0.92232955 0.07669798
0.55349648 -0.02834797 0.39798737
0.42649966 -0.04840780 0.52230805
-0.05981781 -0.26224381 -0.79917514
-0.94044900 0.09550994 0.09742179
-0.32253164 -0.28462985 -0.56248266
0.02921245 -0.97707492 -0.11058664
0.48229876 0.28891838 -0.35518873
-0.00320887 0.24450666 0.78831047
-0.11063911 0.27830291 -0.71869248
-0.50610256 -0.37901253 -0.26758161
-0.04437321 0.15346833 -0.92168862
0.05467314 0.97370672 0.03039280
0.35497686 0.00935230 0.61553955
0.03436646 0.28485548 -0.73981333
-0.27661192 -0.67066574 0.21112786
0.34925446 -0.26005396 0.52039301
0.35884407 -0.52939248 -0.24049057
-0.16172646 0.27756250 -0.69102323
0.04928670 0.12843069 -0.92391515
-0.44915208 0.38524798 0.29722920
-0.15499631 -0.34517744 0.61967212
0.58695841 0.23103793 -0.31050518
0.03625622 -0.18443957 0.88000005
0.75120580 -0.27177024 0.08193917
0.46920192 0.23050421 -0.40784067
0.39356041 0.18536422 -0.51424676
0.73035818 -0.03802873 -0.29313448
0.28013024 -0.41592655 0.43041492
-0.33673710 -0.36455780 0.43700072
0.25900492 -0.03264267 0.75591898
-0.41067857 -0.18097103 -0.52872276
-0.98521173 -0.06367337 -0.06606784
0.64642525 0.15797399 -0.30988646
-0.46202567 0.45186672 -0.19635919
0.19943936 0.71456790 0.22201194
-0.18188635 -0.67950696 -0.29617789
-0.78739971 0.02290222 -0.27022871
0.25095987 0.70459062 -0.17428240
0.34737244 -0.59509206 0.14534447
-0.38438317 0.08461401 0.58756030
-0.30890560 0.45778662 -0.38054121
0.71621770 0.14343211 0.25560760
0.01117431 0.19946571 0.85171270
0.19764124 0.35823900 0.54044116
-0.24826878 -0.49659318 0.39075604
-0.32240769 0.67741060 0.09036092
-0.58214790 0.35800293 -0.18034738
-0.32739466 -0.69799840 -0.02641576
0.21216357 0.08915257 0.80874133
0.77428550 -0.26807308 -0.05462680
-0.76176786 -0.07965259 -0.28285867
-0.14738066 0.66854435 0.29381832
0.60907692 -0.34022850 0.15398103
0.55421257 0.18052272 0.34358910
0.20638415 -0.18635429 0.74279416
-0.97303140 0.08080757 0.04337425
-0.12594707 0.64482272 0.32361189
0.15290609 -0.14919688 -0.86219245
0.18384439 -0.82449156 -0.14316340
-0.29763600 0.43748540 0.39371827
-0.01873191 -0.94219172 0.14408033
0.39703834 -0.07815994 -0.56217211
0.57482040 -0.39078653 0.07749534
-0.10094672 0.34482777 -0.62995315
0.08669082 0.92880529 -0.09952619
-0.74166924 -0.12892494 0.26761127
-0.76081014 0.26623735 0.07373033
-0.77425236 -0.06109465 0.26344156
0.25856099 -0.31482098 -0.57278746
-0.15264443 0.87542409 0.11605300
0.28531280 -0.72360206 0.06423806
-0.09765979 0.12046838 0.91204304
0.09571784 -0.75746864 0.26010734
0.54337859 0.31925854 -0.25860679
0.06797637 -0.35635564 -0.64655340
0.39510801 -0.19193836 0.50647891
0.69769841 0.05405482 -0.31316471
0.77065015 -0.14422745 -0.23485772
0.18904944 -0.60425842 0.33154789
0.02868498 -0.53660756 0.42992896
-0.25831622 0.26500592 -0.62706673
-0.15233573 -0.15903051 0.86085212
-0.12352954 -0.94118756 -0.09322040
-0.26223877 -0.12457333 0.75076008
0.32751644 0.03418278 0.65655595
-0.16605240 -0.04358771 0.90644735
0.56275320 -0.29308951 -0.28354380
0.53561252 -0.24455544 -0.34910658
-0.02758062 -0.60161495 0.37460238
0.28654325 0.60805184 0.22460762
0.02340435 -0.49296165 -0.47834799
0.04170561 0.21619004 0.81476152
0.05742135 -0.37834010 0.60140318
0.20383938 -0.35744566 0.56266165
-0.18632193 0.08399453 -0.87487555
0.00938832 -0.25850710 0.78750128
-0.26739666 0.08947353 -0.77761799
-0.36868152 0.29463446 -0.48384887
0.91371286 0.04044874 0.13562027
-0.19094738 0.54268658 0.36649221
-0.51157546 0.23369963 0.37135774
0.08354211 0.32566252 -0.65550691
0.18160267 -0.32770124 0.60885167
-0.20125574 -0.50618845 -0.42599377
0.38014513 0.37355509 0.36274227
-0.33563629 -0.47606462 -0.34783357
0.14452136 -0.78077447 0.22142418
0.70572150 0.10935015 -0.29087624
0.33402413 -0.29570168 0.49366483
-0.36646414 -0.29230568 0.48005521
0.38876620 0.19297773 0.50058669
-0.15515071 0.18976986 0.80321616
0.57396960 -0.39513031 -0.05871959
0.05925513 0.47297674 -0.47627845
-0.75083899 -0.25046027 -0.16744512
-0.33768290 -0.65181333 -0.13790390
-0.84919691 -0.22487085 -0.02228777
-0.32916284 0.25170189 -0.57371652
0.45221785 -0.33564255 0.34427094
0.44092563 -0.48313114 0.14529496
-0.06547262 -0.83332533 -0.24168245
0.50491416 0.13174592 -0.42373514
0.02522233 -0.15854536 -0.92818832
-0.26780352 -0.71342039 -0.18935220
-0.27262247 -0.52127725 0.34792671
0.03122104 0.52935874 -0.43545571
0.00787258 -0.08109663 0.97174311
0.14659595 0.28359073 -0.67762840
-0.83064693 0.20155846 -0.13102114
-0.19675562 0.63075644 -0.31397584
0.41101113 0.34857368 0.35919696
-0.17429855 -0.79553688 0.19276357
0.66279727 -0.14593986 0.29795682
0.83239710 -0.20133044 0.10754174
-0.37440789 0.54892099 0.18815705
-0.73254651 0.13268082 0.26068935
0.21055090 0.80464065 -0.09950018
-0.01398829 0.83705366 0.20854089
-0.30270922 -0.52136457 -0.33754757
-0.18765540 -0.14789248 0.83239931
0.09672289 -0.38597086 -0.60642904
0.12076938 0.58139241 0.35962826
0.67535496 -0.09469005 -0.32155311
0.74632192 -0.12676677 -0.25448051
-0.63414353 -0.37535420 0.03532513
-0.58987588 -0.32241789 -0.23961373
-0.17791045 -0.43646386 0.48379979
-0.37149003 0.60379493 0.07846617
0.56560981 -0.40379122 0.00978525
0.57577872 -0.39458194 -0.03435472
-0.21105152 0.40814254 -0.49328259
-0.19465148 -0.26157978 0.69253176
-0.29115406 0.60667747 0.24779817
0.14283115 -0.08290187 0.89996946
0.46197528 -0.49313909 0.04388691
-0.26989147 0.13819927 0.72836995
-0.24551456 0.49097791 -0.39705309
-0.52236569 0.35854554 -0.25150144
-0.70126641 -0.12499671 -0.30982170
0.37434083 -0.08441522 0.57948661
-0.36951220 0.43669698 0.33043489
0.23038183 -0.51127708 0.37487781
0.47337821 -0.35869488 0.30114937
-0.26730016 0.41471565 -0.45852226
-0.45963225 0.10756101 -0.49845272
0.10504954 0.27311406 0.71166486
-0.50097924 -0.34650591 -0.32612002
-0.94969970 -0.00076172 -0.13489638
-0.53840464 0.42765585 -0.00707604
0.51957822 -0.39543602 0.18314482
0.59263527 0.30408868 0.21682195
0.47380412 -0.06970295 0.46564859
-0.03071824 0.39507961 -0.58066785
-0.38456300 -0.05480227 0.59318835
0.19037305 0.44449022 -0.45440596
-0.32766226 0.61748892 0.18626381
0.46768498 0.37054729 0.27791184
0.18993212 0.28089231 -0.66247874
0.38955387 0.03872650 -0.57397270
-0.17634036 -0.45190796 0.46755803
-0.08875833 -0.21218698 -0.85637528
-0.00719771 0.40333003 0.54746485
0.04205847 -0.73241460 0.29336649
0.23813754 0.22576554 0.65360487
-0.23487960 0.59689450 0.30112779
0.33237401 0.20930344 0.56123859
0.14049092 0.81176370 0.18167065
0.19266348 0.32737219 0.57521588
0.06547649 -0.65153736 0.33505329
0.10342614 0.37045333 -0.58330727
0.40806448 -0.31305754 -0.42187461
-0.63803762 0.01437837 -0.36588368
-0.44963968 -0.33924276 -0.37747771
0.35513505 -0.01697456 0.61537808
-0.12620550 -0.28255072 -0.74112117
-0.40769219 -0.28119245 -0.46009269
-0.26187369 -0.34877884 -0.55158126
-0.18445028 -0.69512612 -0.28916982
0.35229719 0.38712224 0.37133959
-0.29187551 -0.52210504 -0.34961981
0.26496744 0.45078671 0.38678199
-0.60085446 -0.03795081 -0.39011890
0.34730902 0.34793934 -0.43232492
-0.91082746 0.16692011 0.04911463
-0.32235047 -0.39544323 -0.43893006
0.09697325 0.15972619 0.85262805
0.80131853 0.22668879 -0.07895512
-0.29123655 -0.02761336 0.74146336
-0.75311416 0.26004380 -0.12334534
-0.24099231 -0.80389184 -0.11919032
0.44027951 -0.38988143 -0.30592486
0.54272759 -0.35583439 -0.22844468
-0.20164157 -0.28420195 -0.67907143
-0.13434285 0.24172458 -0.76922703
-0.71396363 0.27462712 -0.15589824
-0.99401492 -0.02192577 -0.06516186
-1.00319970 0.01229144 -0.00238006
-0.00705790 -0.57431871 -0.41770250
-0.21534675 0.84645444 0.01841749
0.05074125 -0.15172172 -0.92657226
-0.20138626 -0.19868778 0.76540852
-0.04252769 0.92483670 0.12232755
-0.82939690 -0.13583791 -0.20721070
0.28139734 0.20371518 0.63173896
-0.50686646 -0.42566812 0.18885720
-0.12425404 0.27121618 -0.72826177
-0.29814914 -0.51073319 -0.35313442
-0.52158475 0.04241303 -0.44702125
-0.64933956 -0.09922785 0.33515894
0.06611221 0.17125149 0.86466867
0.83088529 0.05511646 0.20322055
0.90769184 -0.08778618 0.14870131
-0.62384146 -0.34617239 0.15463692
-0.92021036 0.09369583 0.12619165
-0.64810705 -0.36191171 0.03806760
0.28804401 0.39810961 0.42221105
-0.96737307 0.06037962 0.06972006
0.26431978 -0.27073416 -0.61617184
0.21530788 0.06611269 -0.83003312
-0.21363607 0.73769540 -0.21295717
0.76720637 0.17222062 -0.21068852
-0.68809915 -0.32171756 0.08886509
0.34309208 0.02402792 0.63060379
0.14819518 0.81907982 0.16846347
0.09763010 -0.83307916 -0.22571337
0.04911776 -0.11499955 0.94116521
0.64765012 -0.34823754 -0.02510851
0.25827801 0.69290173 -0.17950082
0.05199688 0.58425766 -0.38922572
0.29551560 0.24608049 -0.58023345
0.85212791 0.05578667 0.19318248
0.21516320 0.24532562 -0.67785490
0.57467103 0.36383569 0.11576597
-0.29525375 -0.68337959 -0.17810507
-0.56052291 0.23399632 -0.34807423
-0.38410336 0.59850335 -0.07870140
-0.29274470 0.54158175 0.29854959
0.05824699 0.48658249 0.44398758
0.36328727 -0.61166179 0.03325434
0.98042172 0.02730333 0.00209661
-0.75925541 0.27304286 0.04554641
-0.11139502 0.32984737 -0.64528203
-0.31077433 -0.30445054 -0.55116284
0.76170635 0.12584333 0.23574264
0.36394426 -0.38810173 0.37659717
-0.05447926 0.38920793 0.55093873
-0.39173958 -0.18179567 0.54045743
0.26042971 0.75629735 0.00056714
-0.93292922 0.03245448 -0.15923838
-0.73498195 0.23785016 -0.19254918
0.05989085 -0.40716177 0.55637962
0.16980265 -0.64671797 -0.31084645
0.34294933 0.61685610 -0.09663688
0.48860142 -0.43355671 -0.17383812
-0.37739640 -0.03722767 0.60690957
-0.21945442 0.79741746 -0.14158191
-0.60378450 0.06555261 -0.38250980
-0.14119744 0.25626105 -0.74635351
0.02169682 -0.24278842 -0.82866973
0.33444107 -0.15602772 -0.61973214
0.16160847 -0.81226194 -0.19084477
-0.70385677 -0.15914309 -0.29630086
-0.69820219 -0.31874889 -0.10714637
-0.75688660 0.25294670 -0.12945986
-0.24795707 0.11189426 -0.78989458
0.25726122 -0.00657463 0.76369637
0.79876590 0.22199850 0.07848182
-0.18766002 0.16895817 0.79955560
-0.30594105 0.42413545 -0.41267964
-0.47052613 -0.37295640 0.29537228
0.08508044 -0.66013128 -0.34930077
0.26907408 -0.61441243 -0.26735747
0.00694851 0.12326366 -0.94558913
-0.02208078 0.42757565 0.51326537
0.83164489 0.21507956 -0.01085486
-0.07790306 0.47623619 -0.47423139
0.84490836 -0.21661179 -0.01646412
0.42641011 -0.19262752 0.47568902
-0.08454909 0.81860834 0.21124180
-0.05224623 0.44210726 -0.50268775
-0.03044067 -0.33546552 -0.70688611
-0.50363922 0.45261580 0.04630884
-0.43065366 0.19012634 0.47554013
0.11979939 0.01270365 0.94181353
-0.50684160 0.00654644 -0.46318901
-0.18411790 -0.41266441 0.50813085
0.05195775 -0.47673318 -0.49581492
0.55498725 -0.35506460 -0.21235546
0.56657416 -0.34187001 0.22024514
0.34449655 -0.63653195 0.07564835
-0.37104666 -0.16893257 0.57101685
0.35591134 -0.06243506 -0.62328982
-0.79010528 -0.23491906 -0.14965963
-0.25977963 -0.32721555 -0.57470953
-0.03744350 0.56165522 -0.40700364
0.10185936 0.89144361 0.12923130
0.90177357 0.10925540 -0.12278699
-0.63695467 -0.16432622 -0.33513910
-0.61550438 0.36039433 0.05870539
-0.11286324 -0.42183992 -0.55636311
0.22725073 0.44892773 -0.43614456
-0.44064674 0.04376597 0.52606869
0.54351777 0.36476737 -0.19797277
-0.15577517 0.02273802 -0.93219829
-0.72285581 -0.28716594 -0.14908531
0.02269315 0.96090043 0.07194445
0.09195106 0.17960308 -0.85768360
0.07003167 0.36207482 -0.61106181
-0.36755851 -0.24579172 -0.53783089
0.21735556 -0.38927555 -0.52649522
-0.56180632 0.40224868 -0.07766701
0.29630253 0.61961490 0.18944281
-0.26178005 0.01571997 -0.80151457
0.41737831 0.17213364 0.48051763
-0.25351331 0.80030137 0.01620988
0.16541263 -0.19904537 -0.80632597
-0.07520945 0.29673061 0.68571013
0.37960437 -0.57522607 -0.11585212
-0.31789714 0.38984877 0.42650104
0.96914858 -0.04754259 -0.05888099
0.37292710 -0.20868264 -0.53347766
0.08646115 -0.81857151 -0.23922920
0.11779154 0.30348757 -0.67349863
0.15135397 0.89951253 0.00260752
-0.60375768 0.29221380 0.24417418
0.15598699 -0.38989606 0.54135257
-0.25616151 0.42567512 0.43713528
0.42876920 0.50686342 -0.08020182
-0.54792774 0.21211721 -0.37776682
-0.63259739 0.00828272 0.35431916
0.21661049 -0.23486936 -0.70923465
0.59867007 -0.26554152 0.26390895
-0.61369562 -0.38465056 0.05468267
0.24406208 0.78558123 -0.02646600
0.40483940 -0.04825807 0.55447823
0.36777499 0.48082465 0.25905079
0.06272736 0.69953042 -0.30806804
0.10249885 -0.74987441 0.26196229
-0.94122058 -0.16010693 -0.02343492
-0.90009087 -0.11974526 0.15748465
0.55348843 0.38771364 -0.09978475
0.06003985 0.03762314 -0.97978562
-0.38855582 0.32352880 -0.44214222
0.19073103 -0.05418504 -0.87186909
-0.26269102 -0.38540104 0.48733413
-0.32191503 -0.31980070 -0.52168876
-0.87170780 0.06414507 0.19246620
-0.09305195 -0.62935472 -0.36526918
-0.37120181 0.03720472 0.61344278
0.22484612 -0.62114078 0.29339871
-0.27844694 -0.68161976 -0.21013531
-0.75260741 -0.23944944 -0.18095613
-0.02943911 -0.76950216 0.26982695
0.30191639 -0.61405194 0.20960574
0.57813317 -0.11637761 0.36868396
0.06076488 -0.76069659 -0.28432971
0.40049660 0.05369013 0.53951222
-0.20618413 -0.22594675 0.73666608
-0.49168488 0.33901954 -0.31299680
-0.49720484 0.26109347 -0.38641110
-0.78943765 0.08533000 0.24193591
-0.04323724 -0.52543563 0.44073498
-0.23763379 -0.63278961 0.28097340
0.03832817 -0.41679627 -0.57232398
0.70130873 0.29744747 0.05328827
-0.27232036 -0.76323384 0.09520375
0.53345197 0.09515379 -0.41852340
-0.17271380 0.23864758 0.73365784
-0.38740456 0.17771201 0.53360784
-0.32151169 -0.31931353 0.50331008
0.31227109 0.25603905 -0.55834794
-0.48900017 0.06458122 0.46751839
-0.52849579 -0.44531223 0.01363862
0.25011995 -0.30672505 0.57342649
0.85824567 0.09382230 -0.18209356
-0.46352547 0.10273528 -0.49151623
-0.22282960 -0.52517855 0.37541127
-0.00835453 0.64578897 -0.34780222
-0.52540743 -0.03636211 0.43974945
-0.55502945 0.18996121 0.36274821
0.08960988 0.94321817 -0.05998090
0.51042879 -0.17575459 0.40457711
-0.22103356 -0.72978723 -0.23246804
0.35231814 -0.55238384 -0.22247455
-0.33803022 0.35120928 0.44683802
0.48335579 -0.41114229 0.21733083
0.70252430 0.05891314 -0.30756596
-0.24065663 0.78395277 -0.12179388
0.04432632 0.63514096 0.33392796
0.24107815 -0.47316960 0.40073308
0.26365814 0.12658861 0.71068466
-0.12826942 -0.24561581 0.77709180
-0.06806209 -0.31628820 -0.70979798
0.29253376 0.05286829 0.70195621
0.88569790 0.16135135 -0.05374234
0.20961134 -0.65866876 -0.27812567
0.54742461 -0.02370374 -0.42384955
0.37143043 -0.15154806 0.55930579
0.22386536 -0.65774637 -0.27129120
-0.06340607 0.59016460 -0.38441479
-0.71682596 -0.26375803 -0.19864772
0.01489197 0.98266202 0.00575493
-0.13633503 0.56322849 0.37225917
0.26988348 -0.13304968 0.70793796
0.26800054 -0.15642694 0.69031012
0.50887370 0.28664845 0.32654706
0.50979424 0.03395382 0.43698817
-0.11072950 0.54655343 0.38691235
0.18151681 0.09619586 -0.85844284
-0.56391692 -0.21225935 0.35085714
0.25515199 -0.78077400 -0.02471072
0.35805386 0.53788561 0.19467080
-0.10191697 -0.49488077 -0.47845742
-0.56702048 0.14365868 -0.39334550
-0.08068543 -0.16523647 -0.90506357
-0.14487405 -0.62599367 -0.35960868
-0.19716112 -0.77208811 0.19184527
-0.09132256 0.19977194 -0.84717244
0.68885225 -0.32200068 0.00911644
0.90202367 0.07954671 -0.13997409
0.37758026 -0.58308792 0.10497966
0.75598681 -0.02845282 -0.27343965
0.16532992 -0.82392853 0.16929106
0.20474572 0.57619983 0.32340568
0.24411096 -0.57953233 0.31149280
-0.13812329 -0.86592901 0.16079777
-0.48876441 -0.22169079 -0.42214075
0.95780575 -0.02369295 0.09090769
-0.24756366 -0.00500535 -0.82290602
-0.01940474 -0.53642499 0.42842555
-0.45205864 0.00994674 -0.52538335
-0.54929346 -0.31113961 -0.29616046
0.80331147 0.16002218 0.16945030
-0.23578215 0.61142695 -0.30190349
-0.57069647 -0.12777643 -0.39612576
0.34398165 0.38635564 0.38075766
-0.20596802 -0.01364530 0.86745769
-0.42083937 0.40188333 0.30961668
-0.56245238 0.39244053 0.10676995
0.29473117 0.02005911 0.70536435
0.59479868 -0.24139391 0.30342996
0.54243433 0.38156316 -0.15810876
-0.04113575 -0.37056625 -0.64782131
-0.21506694 -0.67319018 -0.29128438
-0.01156244 -0.48802781 0.47002289
-0.46087414 -0.14505100 -0.49074522
0.74876660 -0.04212429 -0.27828616
-0.34610227 -0.15899758 0.61290187
-0.64915663 0.08158461 0.33505207
0.07601717 -0.31999701 -0.69171053
0.74374968 -0.28478137 0.05721705
0.55350810 0.14094172 0.36998817
-0.49879572 0.40876243 0.19706379
-0.27598682 0.28066596 -0.58814138
0.37571532 -0.58071053 0.09207773
0.28845695 -0.05495103 0.71661741
0.02625923 0.25404716 0.77243775
-0.12565544 0.16345626 -0.87048119
0.40861171 -0.55810255 -0.00614046
-0.58432364 -0.41911137 -0.02528473
-0.70129132 0.24651659 -0.21111570
-0.16859263 0.31146914 0.62026083
-0.23255521 -0.27304187 0.64673841
0.20958197 -0.01162596 0.83634591
0.57368702 -0.16444919 0.35430920
0.41093239 0.53887802 -0.03409284
0.26782963 0.15731956 -0.70093668
-0.24542256 0.69042712 -0.22570163
0.13635962 -0.46465275 -0.47613588
0.52343833 -0.42874143 0.11152345
0.30147436 0.13523060 0.64908391
0.29172745 -0.09725071 -0.70472664
0.17480208 0.51303244 -0.40570143
-0.18034576 -0.46838391 -0.46755612
-0.13633482 -0.11460523 -0.91284013
0.17118500 0.26477480 -0.69085300
0.06099034 -0.96900022 -0.10917666
0.55209893 0.35686645 -0.19581948
-0.34385240 -0.34810448 -0.46797195
-0.92397898 0.09623926 -0.14071947
0.07098471 -0.86911458 0.18514843
0.84233856 0.04537089 -0.21447557
-0.80278420 -0.23014435 0.10825991
0.44667816 0.46980068 0.13590592
0.40184331 -0.10000404 -0.54983068
-0.76481462 0.18648033 0.20705400
0.00452833 -0.73972958 0.28814715
0.08203550 -0.85747075 -0.21265647
0.32095420 0.21347919 0.57341772
0.52698410 0.22215950 0.35589361
0.33244309 -0.65596038 0.05903247
0.31176165 0.54108298 -0.27845812
-0.66069579 -0.33608010 0.10327860
0.40714434 -0.26940450 -0.45213085
-0.86723989 -0.21423405 0.03022349
0.20139420 -0.53212649 0.38611907
-0.72247612 -0.15978685 -0.27235320
-0.06589445 -0.22184226 0.83381248
-0.27216998 0.10950323 -0.76312786
-0.91099823 0.13766117 0.09278274
-0.44948912 0.51065707 -0.06025258
-0.37836289 -0.49474370 -0.27584845
-0.96898520 0.07992142 0.06040655
0.72039479 0.27483097 0.07997174
0.67294908 0.20403537 -0.25960279
-0.12416743 -0.93759060 0.07140756
-0.06374680 0.49631822 -0.45666048
-0.15517572 -0.94237477 -0.04344898
0.37048176 -0.59979284 0.03205547
0.30324543 0.33218917 0.47302780
-0.73713416 0.01950242 0.28670114
-0.37838960 0.03475329 -0.61348021
0.15314642 0.16377142 -0.83225459
-0.12453673 -0.42042437 0.53037167
0.31395292 0.09737819 -0.67046970
-0.65447724 0.30085924 0.17088921
0.65152329 0.19372870 -0.28226444
0.17476930 -0.88984388 -0.04425988
-0.27850953 0.07038710 -0.76457107
-0.62922931 -0.37425449 -0.03432392
-0.50618917 -0.43200243 0.17297958
-0.36044118 -0.12272216 -0.62462473
-0.49533024 -0.31793550 -0.34783626
-0.22995882 -0.25102806 -0.68842447
-0.48737091 0.43652689 -0.18827336
-0.31944454 0.07131632 -0.69343889
0.47587246 -0.46863663 0.11614166
-0.28173968 0.34665185 -0.52531445
0.52395868 -0.06888585 0.41862214
-0.07855967 0.55501217 -0.41024938
-0.23277129 -0.84090459 0.02501036
-0.02903494 0.06873263 0.97479808
0.47512084 0.18876831 0.41354337
-0.08580771 0.27719784 -0.73659945
-0.65546614 0.22696605 -0.26813909
-0.00372746 -0.03658178 0.99112976
-0.43487227 0.51788479 0.09110995
0.02841364 0.03281403 0.97818279
-0.19730833 -0.83260381 -0.15814112
-0.30006632 -0.07588866 -0.73532331
0.44554216 0.47671184 -0.12885849
-0.05442026 -0.70014971 -0.32871294
0.51833534 -0.44218585 0.07648426
0.58737773 -0.38682419 0.00229674
0.51899981 -0.20103008 -0.39638621
-0.75744975 0.02158739 0.27426791
-0.24419799 0.51267648 -0.37730712
0.32529730 0.27099457 -0.52584642
0.22344333 -0.52828604 0.36926556
0.56398976 -0.11438854 0.38074604
-0.38184413 -0.58044064 0.13631390
0.21596649 0.61444741 0.28568506
0.24359867 -0.66257274 0.22436211
0.12759221 -0.91050684 -0.11102073
0.25131574 -0.70394140 -0.19658290
-0.92897481 -0.17015551 -0.04211411
0.52629495 -0.14200453 0.39687672
