-0.15909702 0.29196635 -0.28841779
0.19227377 0.10364528 -0.25637400
-0.09316577 -0.74467629 0.11669593
-0.07227265 -0.72982144 0.14928395
0.07702089 0.53593659 0.42632058
0.08349116 0.37399942 -0.35993367
0.02661642 -0.37454897 -0.66173446
-0.12654017 -0.05489454 0.09056691
0.02946712 0.07591492 -0.51598036
-0.14764887 0.08961959 -0.40424296
-0.09030708 0.08728819 0.21750943
0.00339178 0.15792091 0.42007676
-0.08623307 -0.71484315 0.12206218
0.02452223 -0.34447533 -0.73201102
-0.01491117 0.32498106 0.50486362
-0.07861802 -0.23172188 -0.64668834
-0.04784338 -0.68141514 0.06098583
0.07398360 0.08263692 0.22866863
-0.10804098 0.06892874 -0.37576091
-0.04034951 -0.28062016 0.00919163
0.07196683 -0.53312993 -0.00582463
-0.03192092 -0.23927408 -0.61162359
-0.07485954 -0.17029360 0.00974831
0.07230664 0.63466048 0.36631358
-0.12437586 0.00788426 -0.05996133
0.06726287 -0.65938884 -0.58681101
0.04195459 0.55272263 0.65640676
0.04577452 0.56942815 -0.22252150
-0.04053798 -0.47781521 -0.00967737
0.11745697 0.35399923 0.08098173
0.13117409 0.12911302 0.21507630
0.06938290 -0.39441556 -0.00586620
0.04748244 0.20016515 0.42272314
0.16998105 -0.06512869 -0.50542808
0.18672864 0.28755683 -0.08050910
0.15885200 0.03543926 -0.03800466
0.00106163 0.04037021 -0.52569956
0.21338363 0.10666573 -0.19632588
0.19311842 0.23305297 -0.41506249
0.05344088 0.08499540 -0.46569473
0.02073528 0.43685657 0.03140446
-0.04112296 -0.72641385 0.08119630
-0.10829958 -0.71518660 -0.50581020
-0.17757814 0.20956901 -0.43629825
0.17784844 0.21823812 -0.00466263
-0.08396724 -0.71903163 -0.55465907
-0.04830467 -0.69926172 0.02721537
0.01339118 0.53405291 0.67995143
-0.19491820 0.10414743 -0.18891345
-0.10733072 0.34180248 -0.35093734
0.02483901 0.44907993 0.36724174
0.06189552 0.17838348 0.37200254
0.01819769 0.01758717 0.21599409
0.03427071 -0.33307776 -0.66626418
0.21785095 0.20036685 -0.07645229
0.05541404 -0.51298845 -0.67195243
0.12768728 -0.72167563 0.07437580
0.05073627 -0.64068592 0.08147398
-0.04380531 0.29889235 0.34370548
-0.15976778 0.07711203 0.02523593
0.13492212 -0.67225444 -0.62256712
0.13978182 0.26085690 -0.53628474
-0.06405500 -0.70271873 -0.57639915
0.08018380 0.54196072 0.51074368
-0.00273472 -0.39611968 0.04484791
0.12989321 -0.61872810 -0.63086337
-0.04538790 0.35556412 0.18601973
0.15874419 0.04043984 0.11798485
-0.07577814 -0.29041028 0.02881983
-0.04397858 0.42998847 0.01991206
-0.02256300 0.26841947 0.27503327
-0.19232641 0.10646127 -0.07759282
0.04991006 0.64817989 0.42424205
-0.15699100 0.18875335 -0.51342905
0.06072897 -0.25370613 -0.70028502
-0.05349028 -0.25885785 0.06133714
-0.00289715 0.29960403 0.29135627
-0.00885838 0.53423935 0.66490328
0.03433928 -0.54148489 0.03756844
0.19493005 0.16026840 -0.43768027
-0.00168366 0.13648769 -0.66162419
0.04557850 0.16227703 -0.61659336
0.00082219 -0.33495265 -0.69807076
-0.04711851 -0.14705330 0.01717700
0.06779927 -0.00376551 -0.27570286
0.16683874 0.25315470 0.15339342
0.08176462 0.25754154 0.39485821
-0.16166116 0.06207440 0.10026298
-0.02500299 -0.03703360 -0.20115601
0.15970279 0.00160668 -0.15239142
0.17497106 -0.00328028 -0.51291871
0.11822690 0.05712357 -0.31044376
-0.05572036 0.54848951 -0.17774203
0.13989061 0.07489593 -0.33783805
0.02066672 0.45121747 -0.35872346
-0.17477113 0.15051320 -0.03327234
0.06627026 0.33173788 0.45936546
0.10197847 -0.22884692 0.07145616
0.03859356 -0.25355756 -0.67317611
0.04052288 0.55954975 -0.25092673
0.01574286 0.55194920 -0.27495563
-0.02118326 -0.22421700 -0.63309550
0.03686007 0.33234754 0.22584447
-0.06789508 0.21662125 0.28243139
-0.02480130 0.42936870 0.50046855
0.06447250 0.43275031 -0.02982487
0.01866343 0.41248837 -0.42598334
0.13706058 -0.63832492 -0.62698007
-0.20374300 0.20717981 -0.22790377
0.07182933 -0.12692317 0.02635624
-0.01520148 0.38226110 0.19763926
-0.12375504 -0.72743386 -0.54376304
0.07140294 -0.60788804 -0.66525185
-0.04103802 -0.02273229 -0.49979413
-0.04005228 0.04909809 -0.36456847
0.02584326 0.56554443 0.67356157
0.02759297 0.57041806 -0.27799591
0.03431455 -0.11029586 -0.60788310
0.07675134 0.34401834 0.42744783
-0.09032176 0.36590078 0.02780751
-0.16973703 0.12798783 0.04270454
0.08724147 -0.41437921 -0.68216527
0.15016946 -0.09421719 -0.51241934
-0.06681810 0.64217514 0.33768269
0.01709308 0.02297110 -0.59371990
0.09283359 -0.32235605 -0.67328894
-0.16809896 0.16728134 0.04015106
0.07968588 -0.72755265 0.13264510
0.18673591 0.15227988 -0.28205007
-0.19836469 0.25073522 -0.11592631
0.17729941 0.24050465 -0.46765095
-0.00760695 -0.01023094 -0.02489107
-0.19768052 0.12184468 -0.21953723
-0.15956086 0.22274938 -0.50135672
0.00812309 0.45333976 0.03376922
-0.14522874 -0.05183552 -0.52230430
0.07858754 0.43462920 -0.33975005
-0.07617075 0.57460105 0.47332311
0.08460145 -0.57753748 0.04239530
0.14300062 0.18114468 0.22237732
-0.04644323 0.53344494 -0.12944227
-0.17481464 0.20317498 -0.35402152
0.14940193 0.07601541 0.16598520
0.06098301 -0.16681269 0.03999996
-0.12011043 -0.73194063 -0.58297724
0.01304949 0.19534616 -0.65201187
0.14113246 0.00978402 -0.19360165
0.17197032 0.12744258 -0.54381382
0.00161774 -0.39040294 0.02688036
-0.07096273 -0.30517682 0.00216281
0.18650727 0.07374126 -0.23529129
-0.01857409 0.09030955 0.26500660
-0.20133688 0.10055031 -0.14751779
0.13904324 -0.01231019 -0.43481189
-0.02841724 -0.41408694 -0.67929286
0.10461200 -0.71927571 -0.54548776
-0.10422689 0.03880262 -0.39069805
-0.11137996 -0.69900692 -0.59022743
0.09461716 0.12677324 0.24691340
-0.01331130 0.47913194 0.36442241
-0.13370575 0.29862943 0.08947146
0.12495795 -0.02123087 -0.00716085
-0.03655486 -0.03219835 -0.04463065
-0.12133537 0.31929514 -0.42880282
0.11672464 -0.03200250 -0.13736257
-0.04086207 -0.32143024 -0.00777159
-0.09551406 -0.18455824 -0.57777089
-0.09694215 -0.60805476 -0.61632907
-0.08357226 -0.02317461 -0.17837760
-0.12692219 -0.00392015 0.03336001
0.06828899 -0.63551313 -0.63944060
-0.18853647 0.13899814 -0.08208931
-0.12692159 -0.74680221 -0.60338491
0.09800404 0.41325226 -0.31858650
0.10844257 -0.02167361 -0.42996413
-0.02321585 -0.06141406 -0.56957865
0.05983474 0.34882244 0.49136329
0.08388054 -0.65422791 0.01055875
0.12604523 -0.14239022 0.06751242
-0.04886794 -0.13376892 -0.64827323
0.11035726 -0.69487238 -0.63269907
-0.04094334 0.51143456 -0.09960964
0.01893241 0.05172005 -0.36825272
-0.06015777 0.52995712 -0.24585837
0.06308579 0.07943727 -0.41379288
-0.13969895 0.11517502 0.17189898
-0.00728719 -0.04449812 -0.24790211
0.05728044 -0.02682865 -0.19209051
0.12228124 0.04708256 0.19519882
-0.01335762 0.51824999 -0.09141880
-0.13638009 0.20735726 -0.54153758
-0.20002910 0.20200256 -0.08754242
-0.03070112 -0.47962695 -0.66909254
0.01054524 -0.05146461 -0.14796087
0.03725092 -0.01677762 -0.58889979
-0.10616379 0.44509381 -0.23939316
0.11679626 0.20339030 -0.56618047
-0.00831182 0.58722490 0.36270353
0.02608612 -0.42390299 -0.69127095
-0.08594587 -0.62014240 0.05342331
-0.16916810 0.22421244 -0.38130766
0.18762310 0.05174179 -0.49518093
0.10683367 -0.23430255 0.01837513
0.00226344 -0.10014497 -0.56558198
-0.14015128 0.34198254 -0.21103728
0.03322923 0.53282809 0.66897553
-0.00249872 -0.02253355 -0.55453300
0.09915704 -0.62210107 0.06065773
-0.09956436 0.34409526 0.13791856
0.07166967 -0.16973691 -0.64306426
0.14616422 0.27394703 -0.50195885
0.06696873 -0.72775918 0.03253461
0.06181696 -0.08628740 0.09681454
0.12196609 0.47350448 -0.23953728
0.03366909 -0.00856012 -0.54055101
-0.07250751 -0.66768211 0.09627547
-0.01524533 0.28268903 0.29117036
-0.12706769 0.35569048 -0.07593802
-0.01309736 0.05998571 -0.60058594
0.18027826 0.09162197 -0.28160098
-0.05061678 0.22599745 -0.59667987
-0.03970018 0.61456287 0.36908972
0.02898277 0.24417129 -0.59436870
-0.05642831 -0.74632007 -0.58242995
0.08730858 -0.50645626 -0.66207474
-0.05826225 -0.56732988 -0.67115194
0.01253732 0.02990526 -0.65069568
0.02576159 0.48500901 -0.34534219
0.06449251 0.09057949 -0.61415362
-0.06720401 -0.19574137 -0.57209462
0.02816212 -0.39932933 -0.71716958
0.03741183 0.50949091 0.52491504
-0.09034093 -0.15420690 0.09354295
-0.10882354 0.31641650 0.10714929
0.21861669 0.15810323 -0.22110321
-0.01063909 -0.08686128 -0.59174597
0.09191915 0.52084094 -0.23523460
0.08525483 -0.06791875 0.03619848
0.03740159 0.39246380 -0.41499469
0.14108916 -0.00344222 -0.21535908
0.14592744 -0.09320807 0.08666213
0.22118293 0.25557426 -0.16527562
0.16060923 0.23923042 0.04566962
-0.04078723 0.59552497 0.61745036
-0.03440962 -0.08602425 0.09509270
-0.11251383 -0.10808636 -0.49071139
-0.02925315 -0.10974123 -0.61274213
0.01472887 0.66006458 0.51446521
0.06525997 -0.57492566 -0.61413872
0.07359949 -0.39014265 0.02297178
0.16966449 0.24963459 0.09379274
0.07748703 -0.03415535 -0.04303871
0.02684386 -0.14089580 -0.62201142
0.10831330 0.01456460 -0.60257232
0.00675023 0.09976596 -0.67357260
-0.12905516 -0.09546542 0.04674872
-0.02486119 -0.21705675 0.03606091
0.11079916 -0.72634858 0.01915703
0.07015065 -0.70131803 0.02676330
0.06235924 0.48379582 0.48872274
-0.03370604 0.60629255 0.57940108
0.08228556 0.16148792 0.34468409
0.10300799 0.18252604 0.26355892
0.06236675 0.62963992 0.40806749
-0.15082642 0.04604848 -0.41720602
0.14098109 -0.73033714 0.13474612
0.11300658 -0.67559934 0.02815364
0.05502064 -0.69369078 0.06584115
0.20136695 0.29312554 -0.13818693
-0.02918810 -0.02895901 0.11881836
-0.03160337 0.00995831 -0.31864333
0.08365192 0.37224069 -0.43930277
-0.03275502 0.10762474 -0.42681655
-0.04852879 0.08326721 -0.40043688
0.06785028 -0.58230466 0.00170799
-0.07472711 -0.15816689 -0.62513024
-0.04984547 -0.09133102 0.02601911
-0.10431547 0.34759599 -0.02201942
0.02436516 -0.03449308 -0.05099004
-0.13061063 0.01270670 0.10903238
-0.13785376 0.33606935 -0.34701970
-0.18069150 0.06869932 -0.14361472
0.11801228 -0.06744127 0.01618264
-0.08739174 0.44399530 -0.30044869
-0.05107587 -0.21249363 -0.63805026
-0.00743329 0.10337658 -0.56895757
0.09788256 0.08810379 -0.60261458
0.07108833 -0.45997205 -0.67916965
-0.05655259 -0.67511618 -0.60323876
-0.17989229 0.15360720 -0.27709752
0.03156894 0.61683685 0.57364362
-0.01998114 0.03812877 -0.58305174
0.15638451 0.13005908 -0.56535369
-0.02519527 0.03554280 -0.33712941
-0.01359263 0.61209977 0.58397269
-0.03242692 -0.15269889 -0.56486923
0.20708475 0.14546564 -0.47957036
0.12899198 0.06459609 -0.39189458
0.03003115 -0.37224084 0.00454817
0.18168592 0.30821878 -0.23956971
0.05831437 -0.65299368 0.02718300
0.21816885 0.12449032 -0.16542712
-0.02646565 0.38308591 -0.46298963
0.12488675 -0.10283407 0.04420710
0.11121682 -0.17619891 -0.55909324
-0.03743063 0.33764121 0.47621137
0.04326661 0.33749855 -0.54039907
0.06981065 0.00955582 0.17473999
-0.14511052 0.32982582 -0.16644640
-0.07247847 0.41566208 0.03291065
-0.02654506 -0.61070925 0.05041507
-0.04060179 0.55246079 -0.16755813
0.07491518 -0.22912440 0.01676732
-0.05340033 -0.02492411 -0.47031927
-0.12385817 0.11656085 0.20208515
0.00673990 0.31045309 0.51163417
-0.07301497 -0.74522555 0.17797551
0.13791808 0.33869883 -0.38134155
0.04190936 0.11790234 -0.44149771
0.10010584 -0.08170825 0.12123400
-0.15965334 0.31990308 -0.14721379
0.11404680 0.45259196 -0.13447997
0.09636965 0.23835498 0.26904729
0.20879367 0.19057745 -0.24470669
0.07824500 -0.67752814 0.04976732
0.07913047 -0.11853068 -0.50841308
-0.13492519 0.35166448 -0.25882941
0.02405212 0.50347960 0.62620598
-0.06507814 -0.05062906 0.01184461
0.04551204 0.49324143 0.50954014
-0.06090942 -0.34880245 -0.67145348
0.04851983 -0.29880500 0.02587814
0.04148053 0.59512687 0.56111771
-0.10053554 0.29317588 0.18320197
0.02685344 0.08117469 0.28042352
-0.19653176 0.14158018 -0.24669932
0.07381775 -0.49456206 -0.64958245
0.08988858 -0.04331250 -0.15381059
-0.10226841 0.04146712 -0.32662138
-0.03206050 -0.19115886 -0.59351879
-0.11927842 0.33500770 -0.05601466
-0.06488403 0.18034844 -0.59375030
-0.07770935 0.37261066 -0.35036361
-0.09184329 -0.13326621 0.00205855
-0.05096466 0.02272945 -0.45846540
0.12576453 0.36721241 -0.06030120
-0.01448609 0.15452264 0.39710745
0.08440839 0.06607562 -0.41789189
-0.05454642 0.29971534 0.38022420
0.08007129 -0.31514373 -0.69307482
0.07852577 0.26092419 0.32566145
-0.16260512 0.06214047 -0.51677704
0.08357896 -0.14396970 -0.52362645
-0.12081088 0.20039502 0.22380644
-0.13235782 0.00674680 -0.56341851
0.08451191 -0.71171170 -0.55399281
0.09880646 -0.18141522 -0.00500814
-0.06232221 0.38566032 -0.35296521
-0.14814061 0.30312875 -0.34872681
-0.01480043 0.54962075 -0.14842182
-0.11144842 0.21360862 0.23190418
0.09183224 -0.23327205 -0.62547296
-0.02920877 -0.34115118 -0.71036386
0.14265934 0.33288020 0.01568982
-0.13932423 0.30914316 -0.44522071
0.00370612 0.01240984 -0.56047088
-0.07200711 -0.48479688 -0.65750158
-0.08510701 -0.74807560 0.04510612
-0.07621691 -0.70120215 0.03348519
0.01779040 -0.38224909 -0.70735645
-0.11675859 0.16581750 -0.57753050
0.11488886 0.42626202 -0.12321714
0.15002981 0.08583570 -0.31646955
-0.05170694 0.57634735 0.53472233
0.06417727 -0.65293539 -0.65110528
0.16190121 0.33423370 -0.11692189
0.03084329 -0.00750508 0.16770346
-0.01754385 0.20017549 0.45427099
-0.16612944 0.23216465 -0.43639389
-0.06928571 0.18526630 0.31539139
0.06192904 0.05626403 -0.44894156
-0.10093476 0.03066591 0.17796586
0.10381740 0.14682087 -0.59532315
0.04240094 -0.32575867 -0.70797551
-0.13076070 -0.70954275 -0.54050010
-0.05411688 0.13840455 0.28754705
0.08633799 0.56411803 0.48961508
-0.17268416 0.07100973 -0.03193279
0.12984088 -0.07500006 0.11388966
-0.03925588 0.50625080 -0.12745811
-0.04002381 0.05153867 0.21111727
0.07588879 -0.01858448 -0.22048184
0.13354398 -0.11787712 -0.58340079
0.14408799 -0.01477956 0.02951935
0.02575568 0.44884655 0.04803073
-0.00450621 0.05026248 -0.37845916
-0.02580721 -0.55079818 -0.65487093
-0.17384818 0.18228200 -0.44117194
0.00394706 -0.43279773 0.03608733
-0.16150816 0.22956845 -0.46026835
0.07191966 -0.74444741 0.03834115
0.14058699 0.02262431 0.14471200
-0.05440028 -0.53680521 -0.62779254
-0.03953399 -0.62559968 0.06094190
-0.05762672 -0.29994911 -0.64736640
0.02126232 -0.02382054 -0.06859023
0.06554382 0.42299083 0.07007211
0.04661318 -0.18464580 -0.61936885
0.03763600 0.27596343 0.47924262
0.06307630 -0.67985493 -0.60907912
0.14277859 0.06688397 -0.57554841
0.03705299 0.14972043 -0.60066736
-0.02963798 -0.03392718 -0.17399496
-0.05144060 -0.73259753 -0.60470456
0.02911039 0.08021000 -0.38501748
-0.07950938 0.15202117 0.25328842
-0.13791040 0.33181387 -0.29009569
0.04131867 -0.33384034 -0.00379740
0.10023367 0.34089068 -0.48356178
0.05789137 -0.10071796 0.04414267
0.15607120 -0.74888474 -0.54773068
-0.10859147 0.01032460 -0.41102090
0.18890819 0.14227501 0.01423647
0.06338590 0.54226363 0.62159258
-0.02063640 0.30976051 0.22697547
-0.12575476 -0.07701179 0.04778393
-0.06330518 0.07453057 0.22280979
-0.07712278 -0.75275743 0.08414524
0.12904514 0.38437122 -0.08623639
0.03059916 -0.04405276 -0.22906964
0.17795783 0.10067232 -0.51742989
-0.03800298 0.32135287 0.45713243
-0.09797541 0.36202171 -0.04937595
0.01104558 0.49205661 0.66625565
0.19378369 0.18159890 -0.27903053
-0.14725447 0.06494821 0.12613510
-0.06536581 -0.22800258 -0.63580006
-0.16813654 0.06078680 0.06581545
-0.02326117 0.52692872 -0.30520016
0.17744219 0.04043614 -0.21253099
0.01808106 -0.05299767 -0.17172256
-0.15910164 0.01227644 -0.50872785
-0.05178371 -0.15279967 0.09572949
0.09846989 -0.04540422 0.01150466
0.12465697 -0.14346036 0.02460948
-0.07181650 0.13483146 -0.60929877
-0.01602430 0.66620433 0.45687038
-0.15005283 0.26454040 -0.47706735
-0.06953046 -0.09058842 -0.48697475
-0.12367945 0.40274823 -0.20074649
0.08014077 -0.74802828 -0.54461259
-0.07211556 0.33899555 -0.48798546
-0.04751312 0.62285727 0.50609112
-0.06750277 -0.63023990 0.01582048
-0.07020098 -0.01156070 -0.50823295
-0.15720460 0.26592243 -0.40097570
-0.01443986 -0.01251464 -0.04375573
-0.03317972 0.35487619 0.50671273
-0.10165641 0.25395685 0.23705721
-0.07391981 -0.72201103 0.02258282
-0.14321692 0.15432559 -0.32982811
0.07215518 0.50930262 0.42011172
0.05592505 0.28184706 0.28846106
0.09237231 -0.68034798 -0.62373763
-0.04175217 0.07970484 0.23588493
-0.14142893 -0.06510248 -0.50208783
-0.00602691 0.50199282 0.66657162
0.07703562 -0.08823146 0.02678979
0.03241061 -0.02356150 0.02031899
-0.04956472 -0.18720214 -0.57005948
-0.10339604 -0.15969303 0.03493627
-0.04759788 -0.56182212 -0.63999230
0.08033771 0.35208732 0.18030034
-0.15902966 0.17334874 0.00259319
-0.01303546 0.08891392 -0.41177982
0.19102000 0.12309021 -0.26880312
0.18137662 0.23960543 -0.34445596
0.03677399 0.18077992 0.41216502
0.06917543 -0.61730254 0.07206477
-0.05357695 0.50373280 -0.29602185
-0.05507902 0.53293270 0.50988430
0.07041200 -0.29624975 0.03515339
0.10021047 0.37215778 0.07515600
-0.14302301 0.27989823 0.12060717
-0.03359387 -0.03678097 0.01760834
-0.12762246 0.02252907 -0.26610374
-0.11266813 -0.73102134 -0.63547915
-0.17543256 0.29047132 -0.14511800
0.05010569 0.25491640 -0.59326696
0.04464297 0.29128161 0.25438607
0.05329310 -0.03593154 -0.05739358
-0.15180999 0.04486623 0.00027397
-0.05910805 0.46570307 -0.10593884
-0.00860707 -0.41416389 0.02781658
0.04866953 0.47273588 -0.33250648
0.16471849 0.18325983 0.16718908
-0.14723043 -0.73390692 0.15019923
-0.13046306 0.36057627 -0.16794634
0.17477544 0.03862044 -0.24499263
-0.03973403 -0.22629495 0.06320652
-0.00764426 -0.32125634 -0.72263604
0.02507542 -0.35017183 -0.01418206
-0.06423131 -0.59091616 0.00153236
-0.09551302 -0.74989486 -0.54679406
0.16439897 0.34060797 -0.26323581
0.06787407 -0.04385069 -0.01699018
0.07799780 -0.06414620 -0.62026489
-0.01484568 -0.02526301 0.13168150
0.02438092 -0.04067857 0.07831627
0.06153692 0.41065517 0.47293770
-0.15504748 -0.02891102 -0.51139134
0.08414377 -0.70479232 -0.64340025
0.05158183 -0.08183629 -0.53000700
0.17557503 0.23955050 -0.02285455
0.05958802 -0.06792399 -0.62957442
-0.05285003 -0.74710900 0.16460070
0.10479590 -0.19590409 0.01150215
0.05619830 0.60211647 0.36393446
-0.03242980 -0.48130766 0.00835596
0.08414362 -0.32330030 0.01976711
-0.01107312 0.43935412 0.07219513
-0.01828772 0.41114414 0.50103229
0.07336497 0.00811849 -0.58680576
0.03725286 -0.62023777 0.06227711
0.01500142 0.37563118 0.18520474
-0.03029203 -0.61081398 -0.62141556
0.05145444 0.28253558 -0.58676761
-0.10148686 -0.62019116 0.03957271
0.06495862 -0.04142480 -0.09458356
0.17374325 0.34583482 -0.15308239
0.12284504 0.10128148 -0.60595578
-0.13190591 0.37878308 -0.18146417
0.06714816 -0.31676951 0.04234554
0.02568130 0.58826655 0.35089967
-0.01255196 0.38785943 0.37651372
-0.02251652 0.38518566 0.51046902
-0.04510166 -0.19653426 -0.64399928
-0.03231528 -0.00275852 -0.29028279
0.00139965 0.52212250 0.55751312
-0.16008903 0.02945691 -0.45254779
-0.15900229 0.11788687 -0.30144176
-0.05890072 -0.73046595 0.04929322
-0.00627902 0.22575366 0.46669385
-0.08427000 0.30066076 0.21062514
-0.06968495 0.52035344 -0.14360859
-0.05148707 0.43922478 0.44599429
0.14987835 -0.00059773 -0.12144578
0.01742710 -0.38263804 -0.02072684
-0.05152723 0.28766465 0.33027554
-0.00105882 -0.04689592 -0.55976731
-0.10447077 -0.00831994 -0.22465651
-0.18044731 0.28959468 -0.22539645
-0.06568840 -0.28202242 0.06779779
0.18305549 0.24825221 -0.38155425
0.21986130 0.12065646 -0.13380066
0.11344535 0.21679476 0.24820283
0.00641334 0.30533826 -0.56419820
0.17518944 0.14666241 -0.33211792
-0.05501884 -0.36059314 0.03986511
-0.08853126 -0.00564397 -0.24131434
-0.00804743 -0.31558675 -0.69119203
-0.07150356 -0.35185796 -0.69125533
0.12664089 -0.05767377 -0.46581966
-0.17204480 0.27920914 -0.26116127
0.06317333 0.52488643 0.51643360
-0.02613213 -0.32811418 -0.73881382
0.05473856 -0.67994690 0.03694413
-0.08912475 -0.10649125 -0.61640018
-0.03623229 0.58474517 0.37816691
0.11037624 0.37472817 -0.03106271
-0.09583452 -0.17694548 0.03149291
0.13715726 0.39963436 -0.11735767
-0.08826920 0.64688176 0.34079197
-0.04236351 -0.29988438 -0.69047469
0.10484561 -0.15715259 -0.00221810
0.04846536 0.34990036 -0.50493091
0.04964766 0.53945994 -0.27412406
-0.07327858 0.54200798 0.46444041
-0.00142216 0.34852511 -0.52324152
0.01183429 -0.25484538 -0.66375488
0.04269985 -0.09453765 -0.58623970
-0.04901358 0.41183510 0.03310631
-0.11460348 0.43484777 -0.19059017
-0.02672181 -0.29093415 -0.65571672
-0.12232596 0.39541450 -0.16820969
0.05804187 0.62849271 0.51662862
0.17385112 0.27938178 -0.44891393
-0.00286514 -0.02818362 -0.65933263
-0.03776308 -0.42868936 -0.65666074
-0.00594326 0.55082846 -0.25510880
0.00883953 0.55635875 0.36614224
0.01796862 -0.03744803 -0.25809631
-0.00195747 -0.00514235 -0.61919647
0.05728820 0.01454487 -0.50004506
0.06310774 0.45697999 -0.05842633
-0.07002367 0.24806029 0.37381750
0.13511732 0.19710663 0.22914517
-0.15883520 0.31526956 -0.22031970
-0.06701320 -0.31212002 0.04019728
0.12115487 -0.00908968 -0.42384344
0.02062045 0.46241683 0.51395589
0.04276131 0.18510610 -0.60464650
-0.01192757 0.48966116 0.37832764
0.18908620 0.06056497 0.07902437
0.08386088 0.60683537 0.34146601
-0.03701901 -0.67597145 0.03925437
-0.00223092 0.11519779 -0.59223527
0.07215302 0.19678429 -0.58861804
0.03736908 0.44517168 0.10700305
0.09272429 0.27372202 0.23901939
-0.13468257 0.32356420 -0.05523510
0.22469595 0.19801968 -0.23011468
0.15304279 0.23037353 0.18545422
0.07830079 -0.37624854 -0.01197838
0.00847909 0.42957485 -0.38221762
-0.02226171 0.30496374 -0.55488408
-0.04418447 0.49986762 0.46199375
-0.01925815 0.53313416 -0.10586648
-0.15791304 0.22951764 0.12220931
0.03517124 0.61170703 0.54739672
0.23151495 0.18315619 -0.17001513
0.21713744 0.14515652 -0.08136417
-0.07509083 0.38783681 -0.02363337
-0.06398267 -0.60741532 -0.64542300
0.04489716 0.03907638 0.21249875
0.04234594 0.53049958 -0.12599634
0.17280369 -0.73176301 0.12030020
-0.12875861 0.33140451 -0.31929258
0.15030576 0.12555918 -0.35118392
0.13765863 0.29592779 0.15501833
-0.02893457 0.64383727 0.54256988
0.08116446 -0.54488432 -0.63737965
0.02942977 0.04703227 0.23934495
-0.12925115 0.00267837 -0.10989599
-0.07107174 0.54400837 0.48993480
-0.10822852 0.31972018 -0.47827342
-0.13123544 -0.04030678 -0.45123374
-0.02627175 0.51033515 0.63921410
-0.10406312 -0.70118707 0.03737579
0.02591529 0.48098767 0.38537508
-0.12144893 0.23167920 0.22085217
0.12367941 -0.06977314 -0.59794718
0.06227403 -0.00877041 0.15778355
-0.07473537 -0.27394027 -0.64680231
-0.18874952 0.25602043 -0.09140220
-0.01027892 0.58282262 -0.22773665
0.03152817 0.01548281 -0.51688564
-0.04708532 -0.34953731 -0.71524656
0.04959641 -0.20272914 -0.59781736
0.04897878 0.07637528 0.23348886
0.10767107 0.49528462 -0.25094742
-0.13078974 0.08439909 0.16845188
0.01417446 -0.44354042 -0.01080268
0.01017615 0.14088051 -0.55128169
0.05154052 -0.25523475 0.05742489
-0.05482939 0.61423343 0.47847831
-0.01706702 0.15241773 -0.59659284
0.11491789 -0.73320758 -0.62961751
-0.08971490 0.05950291 0.20564078
0.00756092 0.41392133 0.15365764
0.10968960 -0.75043750 -0.58392125
-0.15677164 0.14654347 -0.54210943
0.15784568 0.29826143 -0.00662046
0.10172421 -0.22269441 0.00230846
0.11225940 -0.74659413 0.13600022
-0.00193060 -0.00422026 -0.28791451
0.10594016 -0.02118728 0.01185831
-0.10151149 -0.57484299 -0.63175768
0.08121489 -0.17192055 -0.54500389
0.12269243 -0.71376032 0.14166009
-0.01325236 -0.26957422 -0.69547600
-0.05224692 0.35204199 0.40715811
-0.10362961 0.44151837 -0.22270823
-0.10365092 -0.13812673 -0.53765398
-0.06086311 0.35391405 -0.44567373
-0.07289148 -0.12249207 -0.49582216
-0.03361556 -0.18829794 -0.62876844
-0.11738009 0.39597872 -0.25998414
0.04420728 -0.47412264 -0.68617100
-0.06927217 -0.31378248 -0.64644957
-0.00252496 0.49708873 -0.32296070
-0.08079889 -0.15407234 -0.52655280
0.21661849 0.10462651 -0.21692795
0.06647080 -0.71302706 -0.62961566
-0.07571272 -0.73232818 0.16646488
-0.14597154 0.11343011 -0.55538362
0.15355442 0.38201839 -0.24915877
-0.02907328 -0.16246748 -0.63348597
0.08227620 -0.70000470 0.06407904
-0.01357204 -0.38236004 0.03655694
0.05468284 -0.17557165 -0.58142245
-0.11095407 -0.73050988 -0.52190322
-0.03483338 0.42931715 0.08172400
-0.11267211 -0.65414351 0.04313786
0.04035719 -0.02360645 -0.24807850
-0.11668045 0.06299834 -0.59191459
-0.04838650 0.37989894 0.46684375
0.11698841 -0.02545857 -0.60683560
-0.12240147 0.05854071 -0.31881198
0.10451405 0.04964112 -0.39552629
-0.03506360 0.09423909 0.24977434
0.08793116 -0.17214400 0.08091456
0.03306318 0.64173353 0.53833932
0.05610814 -0.01057041 -0.61603016
-0.03440051 -0.56497306 0.03883655
-0.04004922 -0.03183788 -0.14374769
0.03077468 -0.01875817 -0.51882207
0.09974604 0.08607118 0.21667208
0.02381526 -0.05007438 -0.57341534
0.00584604 0.01785243 -0.33533791
-0.11732368 -0.15557504 0.07502715
-0.03254246 -0.64244652 0.04994710
0.06900300 0.62471342 0.39254490
0.04702260 0.41910797 0.12539688
-0.01644420 0.03287125 -0.55486029
0.06914070 -0.17451577 0.07359580
0.12775064 0.08307947 -0.37615648
-0.01087308 0.00186702 -0.54953015
-0.07358904 0.02749234 -0.32158488
-0.02402885 -0.11543547 -0.56861156
0.13012844 -0.00649423 -0.07024924
0.05634680 -0.05001847 -0.13762830
0.06617510 -0.49498889 -0.00863414
-0.01892736 0.64305604 0.52170080
-0.04413807 0.11266810 -0.43864915
-0.03571175 -0.30977237 0.00746628
0.12892090 0.34723821 0.06958263
-0.04118509 0.55439967 -0.25767726
-0.10979977 -0.63020229 -0.63629323
0.05268914 -0.15781292 0.08280672
-0.17916079 0.16348536 -0.02263282
-0.01563455 -0.41822442 0.04608869
-0.06511742 0.46617204 -0.30606321
-0.10915087 0.27679807 -0.53630900
0.08041796 -0.43042320 -0.68446654
-0.05351820 0.37177333 -0.44981611
0.04212970 0.30495352 -0.56123847
-0.02275435 0.59184349 0.60080963
0.14127465 0.41398928 -0.21747486
-0.16367880 0.08750753 -0.41286212
0.07003666 0.24884406 -0.59388798
-0.07449987 0.50088954 -0.19698337
-0.20021828 0.17341135 -0.06958109
-0.01967391 -0.25573474 -0.64648432
0.01714344 0.08983447 -0.66226161
-0.08430538 -0.08948882 0.02703504
-0.06100588 -0.38823780 0.02776918
0.13999219 0.05131025 -0.37152231
0.15011220 -0.01792242 -0.57250530
0.06999438 0.06390230 0.21573742
-0.07164040 -0.73064280 -0.62253529
-0.02173337 -0.20216687 0.04900803
-0.16836500 0.05681998 -0.05421087
-0.16687812 0.15193690 0.12925798
-0.06434960 0.36629009 0.12332880
-0.17264616 0.10119373 -0.42086560
0.06551904 -0.11470296 0.01073044
0.10557592 -0.20903479 -0.58753562
0.02950665 -0.43819585 -0.66221362
0.02115506 0.00428107 -0.30363891
0.04273853 -0.57252455 -0.64177674
-0.11384457 0.00232242 0.13528705
-0.11522896 -0.02858290 0.11290720
0.01620461 0.34512645 -0.52408624
0.19159345 0.05352820 -0.05794974
0.12927593 0.34021610 -0.44746241
-0.10523635 -0.70275879 -0.61603040
0.14641672 -0.73006433 0.08291405
0.04899912 -0.45102051 0.03083111
-0.10367129 0.42560685 -0.27482787
0.13094264 0.42999521 -0.15237400
0.00271191 -0.02183891 -0.63508356
0.03520800 0.00878607 -0.53806430
0.12557471 -0.72189295 0.03562044
0.08000342 -0.72782081 0.07432529
0.04821285 -0.16598815 -0.60974765
-0.04692250 -0.37356934 -0.00851973
-0.02497127 0.45832074 -0.05152713
0.06783952 0.37800556 -0.40954322
0.02654708 0.52070838 0.53190958
-0.01519408 -0.05475847 0.07732747
0.13377166 0.39956731 -0.27129835
0.19960469 0.11817791 -0.03201664
0.10522131 0.48137403 -0.27500570
0.19720308 0.07393492 -0.20319864
0.11372391 -0.10788211 -0.49134719
0.03971712 0.10472269 -0.40833268
-0.14085527 0.33849722 -0.24288653
-0.06468634 -0.04263640 -0.12127683
0.00470756 0.22688946 -0.63884073
0.01934037 0.27785358 0.28927675
0.08721011 -0.65549707 -0.57574278
0.05126346 0.01150176 -0.33691683
-0.05231682 0.39064628 0.13044496
-0.02899631 0.63173366 0.37647393
-0.17043377 0.22002915 -0.33922818
-0.20609567 0.18586792 -0.16833146
0.02925050 0.11693586 -0.58910698
0.05269052 0.45546019 0.40142676
0.13754465 -0.72929162 0.15209241
-0.18304117 0.07221975 -0.17956987
-0.03446098 0.65713936 0.42622635
0.17744242 0.31351718 -0.10229336
-0.11987447 -0.02009191 -0.43921259
0.12775309 0.30344844 -0.49820387
0.20494802 0.12092617 -0.05727240
-0.14944783 0.29216379 -0.33442521
-0.17156336 0.04379100 -0.08609541
0.05904595 -0.02077953 -0.49505541
-0.02157633 -0.28564548 0.04511556
0.07687738 -0.24647886 0.04712985
0.04732694 -0.37655604 -0.68837136
0.06743197 0.40524498 0.45525163
-0.09829183 -0.66519350 -0.64713806
0.00022052 0.52639717 0.60178727
-0.11447993 0.43530986 -0.21099558
-0.07150800 0.46443760 -0.09007618
0.11306752 0.15028082 0.23490927
0.12293445 0.26420486 0.22118473
0.09165772 -0.03512015 -0.19102003
-0.15585391 0.20280537 0.15199690
0.20573349 0.17741467 -0.05740169
-0.12144665 -0.12185404 -0.55508298
0.03705555 -0.61076146 0.04160788
0.18218498 0.26924494 -0.03367434
0.05391920 0.43360445 0.04101730
0.05284460 -0.41904041 -0.02407083
-0.10341458 0.06187966 0.18101732
-0.13434356 0.29063883 0.02182082
0.16469079 0.01621076 -0.04794430
0.09628155 -0.65442693 0.07014421
-0.07966310 0.33221194 0.20156111
0.02668273 0.64417368 0.42676875
0.00085667 0.07978992 -0.55908012
0.06079545 0.15075147 -0.60633522
-0.10547321 0.37320226 -0.06455043
-0.05473675 0.59614539 0.39293003
-0.10337328 0.35403219 0.05229133
0.17678751 0.14587970 -0.31386834
0.02907072 -0.01984027 -0.26926091
-0.16824864 0.19059750 -0.49696568
-0.02277932 0.12859161 0.36306497
0.06280591 0.38181999 -0.44226462
0.05454888 -0.36513627 -0.01821019
-0.05250983 -0.57787281 0.00113266
-0.02749172 0.50882137 0.37795123
-0.04274452 0.60341924 0.52494574
-0.10294848 -0.17458391 0.05293056
-0.02813601 0.31666693 0.24073917
0.19001138 0.18121855 -0.30268022
0.04235176 0.03241264 -0.52096617
0.17862636 0.14213330 -0.35599145
-0.01313672 0.58338821 -0.19224449
-0.12969176 0.01217400 -0.09178438
-0.11517837 -0.10673174 0.09996365
0.05069144 -0.30480102 0.04678352
0.06756587 0.53480911 0.40237543
-0.01933450 -0.43054208 -0.01022480
0.06763450 0.31959930 0.22239934
-0.10004528 -0.09434658 -0.47597995
-0.06885372 -0.63332856 0.08105572
0.02452348 0.31762999 0.32948509
0.08162412 -0.59359396 0.05578804
-0.11879082 0.32975391 0.00773200
0.11694874 0.34348455 0.10811648
0.07528847 0.39191806 -0.36097383
-0.13099715 0.02285807 0.01786171
-0.02503339 -0.06500027 0.08846184
0.15195097 0.31239900 -0.44217214
0.00355423 0.13489103 -0.52013600
-0.03940709 0.00963590 0.19854571
0.13796481 0.11376853 0.20254733
0.07299691 -0.54194111 -0.61808968
0.08043735 0.00469572 -0.31776842
-0.10502662 -0.12937823 -0.49528474
-0.07289165 -0.05017971 -0.61500627
0.04825341 -0.51496589 0.04380815
-0.08873294 -0.72096300 0.05403341
0.07188229 -0.74210328 -0.62080109
0.13205010 -0.65245312 -0.63517052
-0.14229257 0.02344155 -0.55163139
-0.11806856 -0.07079303 -0.59650671
0.18300129 0.03111394 -0.50610745
-0.06364357 0.51690334 -0.17658810
-0.09971388 0.17571719 0.23307905
0.02211544 0.39877027 -0.44384864
0.11108503 -0.21122560 -0.61852074
-0.00095687 -0.32707286 0.02395598
0.05888432 0.39039743 0.38871583
0.10412019 -0.07087827 -0.61932492
0.07564037 -0.06602010 -0.48548037
-0.08869011 0.37235841 -0.00579842
0.16101018 0.03976260 -0.27116919
-0.06485566 0.54398549 -0.22409458
-0.08632196 0.22540987 -0.57557297
0.05752460 -0.22732349 0.07060976
0.06235524 0.51176405 0.50078112
0.04361381 0.51820815 -0.30693176
-0.12283032 0.38091084 -0.25443417
0.15972306 0.16797605 -0.53406620
0.15983726 0.30812022 -0.31508124
0.16451137 0.26258123 -0.48520878
-0.07622032 0.38793209 0.08218938
0.09140291 0.60591018 0.45944986
0.07799800 0.26505926 0.27530149
-0.07406866 -0.66711402 -0.58175606
-0.03540338 0.40818599 -0.36303303
-0.03507062 -0.52170229 -0.67552906
0.14021328 -0.69489807 -0.62542158
-0.12732853 -0.06154933 -0.57399160
-0.16927415 0.11277744 0.03186064
-0.07131886 -0.44599822 -0.65488946
-0.02563996 0.57906669 -0.21313246
0.13491182 0.22260737 0.22241865
-0.16288801 0.19101402 0.12813434
0.08552594 -0.27451593 -0.68300897
0.04064842 0.14227338 0.35437879
0.21525912 0.10630144 -0.16592495
-0.00101686 -0.38363016 -0.71122378
-0.02562999 -0.14144441 0.06867303
-0.01830226 0.05284375 -0.50622928
0.04677105 0.52689528 0.36747462
0.04638203 -0.08444288 -0.56315541
-0.13673455 0.21736211 0.20125954
-0.05269075 -0.19422486 0.00727375
-0.05251419 -0.37371489 -0.68966615
-0.01862270 -0.03083215 -0.53060991
0.08617537 0.10593346 0.23777196
0.01410844 0.11346857 -0.61552870
-0.14029123 0.33780825 -0.13682333
-0.00581404 0.28833345 -0.58206850
-0.19833174 0.17633781 -0.20212337
0.09272069 -0.70087266 -0.53830218
0.12837936 0.01215403 0.14989340
0.12199011 -0.12574872 -0.51243746
-0.07273775 0.48859197 -0.28764468
0.04654291 0.29523697 0.49322397
-0.07373045 -0.67009109 0.07877072
-0.02513205 -0.35771018 -0.67517781
0.09968442 0.08251023 -0.37371066
0.08629794 -0.47159636 -0.65967131
0.06153871 -0.00387541 -0.48634651
0.13863192 -0.08891717 0.02603833
0.06532176 -0.08607037 0.06732698
-0.12512396 0.35788366 -0.28283176
0.10719384 -0.74394172 -0.50556302
0.02441225 -0.30953780 0.02517299
-0.16234894 0.03170758 -0.07586445
-0.00245606 0.38537061 -0.43339157
-0.13490288 0.30578247 -0.00656647
-0.10201350 -0.64604217 -0.63502723
0.05419493 0.27153015 0.27428499
0.12456378 0.01086562 -0.27976835
0.03105235 0.40471128 0.38635474
-0.15677021 0.06061707 -0.26594216
-0.06996848 -0.18837912 -0.62762719
-0.19309631 0.14708251 -0.05791607
0.20626073 0.28018993 -0.15042669
-0.14593469 0.27972054 -0.00424591
0.09209384 -0.16428038 -0.53355604
-0.13332254 0.02871171 -0.02805015
0.10880131 0.32457051 -0.50771773
-0.03718068 -0.06514009 -0.62323028
0.16183822 0.27863726 -0.00575709
-0.11428163 -0.14729354 -0.57153028
-0.15092236 -0.03522038 -0.47863784
0.09870962 -0.53804982 -0.66342533
-0.03392740 0.03645689 0.20671070
-0.02643139 0.56549758 -0.17049661
0.19370469 0.18443747 -0.02603636
0.07689332 -0.36793822 0.01748629
0.06561664 -0.53811926 -0.67256188
-0.05374020 0.45853984 -0.32729408
0.05604644 0.04271312 -0.48696101
-0.14079328 0.28433016 -0.45277387
0.17593351 -0.71716416 -0.53913152
-0.12325467 -0.11795749 0.07019735
-0.12727159 0.10485341 0.18919025
-0.06757651 0.09084642 -0.60736877
0.07543669 -0.42407921 0.00256740
-0.05230892 0.50922728 0.40783358
0.07429063 0.36101902 0.41414014
-0.03897475 -0.64961034 -0.62083203
-0.05773282 -0.02814189 -0.21460533
-0.14605942 0.02916395 -0.06304751
0.06305798 -0.43313041 0.00958965
-0.02105504 -0.50218105 0.00608010
-0.01709965 0.09187864 -0.50502408
-0.15596123 0.06500264 -0.02390882
-0.17680348 0.18906382 -0.38446093
-0.04243405 -0.11974759 0.02035071
0.06845780 -0.26262653 -0.00843543
0.08561289 -0.69451982 0.03192693
-0.10593700 -0.72472864 0.09078880
0.01679233 0.64087498 0.37922665
-0.03299819 0.65692979 0.39534479
0.01852949 -0.36068359 -0.70091623
-0.12311874 0.34431291 -0.03735726
-0.06742550 0.60714352 0.43096790
0.14795025 0.06493094 0.15260130
-0.09601623 -0.16499096 -0.54432517
0.03334660 -0.02969419 -0.60490233
-0.16957740 0.11543928 -0.27369535
-0.05968008 0.40225869 0.01172467
-0.17244212 0.14886433 -0.44817635
0.06273325 -0.01735143 -0.59870541
0.12225002 0.31790200 0.14714479
0.08490690 -0.63214755 0.00970925
-0.02049061 -0.52674484 -0.66225547
0.17659755 0.02070952 -0.14341344
-0.10396465 0.13048637 -0.59036958
0.19415063 0.13174781 -0.46474132
0.12009848 0.22508213 -0.57201844
0.02031135 0.49799228 0.52148110
-0.03192806 0.35596129 -0.47899729
0.17441593 0.29083222 -0.34713897
-0.10949970 0.39771912 -0.28483123
-0.04462978 0.27232355 0.28878638
0.04096444 0.29522043 0.31013694
-0.10643503 -0.17873487 0.07078893
-0.12846284 0.37002891 -0.14966856
-0.09247691 -0.66857386 0.03796218
0.00074411 0.56491041 -0.27774784
0.02473528 0.31062591 0.50777447
-0.16648276 0.08319636 0.09824020
-0.04463910 -0.39726692 -0.65864271
-0.20821275 0.20127618 -0.20993772
-0.00633723 0.56717443 0.67647511
-0.07488525 0.52308011 -0.18747896
0.18806602 0.21956921 -0.45665586
-0.04440859 0.38357720 -0.40879503
0.11969589 0.03057801 -0.38749984
-0.07742983 -0.55181080 -0.62429214
0.06138258 0.53599286 0.54301608
0.11797179 -0.68987167 -0.56151009
-0.03256073 -0.68502337 0.05510689
-0.05205323 0.41609076 -0.00918779
-0.05346661 -0.53558087 -0.67564005
-0.05538608 -0.34965435 -0.65034848
0.18574867 0.00495398 -0.49663284
0.14299580 -0.72678757 -0.62416184
0.17642614 0.28599885 -0.29144779
0.02259211 -0.41463140 -0.00960431
-0.01121985 0.01983719 0.20955591
-0.02939008 0.40262759 0.16196756
-0.00698896 0.49655598 -0.06477381
-0.08066145 0.05386645 -0.61062306
0.13696346 -0.12560907 -0.55399245
0.00520409 0.37247834 -0.50754750
-0.16391386 0.08470660 -0.29179022
-0.01634625 -0.08916624 -0.61161727
0.05510527 -0.25176841 0.02001143
0.21361277 0.23547730 -0.19115359
0.02481562 0.50242829 -0.33420318
0.09001786 -0.24571149 -0.63690919
0.02843155 0.56534624 -0.17520984
-0.12212181 -0.64490521 -0.63881159
0.15275884 0.26900455 0.15490662
0.22782136 0.18634802 -0.20311813
0.06762064 0.48641199 -0.10135251
-0.04034170 -0.63081312 -0.61020821
0.04314458 -0.11368799 -0.57973373
-0.16316202 0.11393867 -0.39896244
-0.10396183 0.00033803 -0.42410836
-0.04993463 0.48709339 -0.30915076
0.00503921 0.07004175 -0.51198828
-0.08542169 0.38488871 0.01923149
0.03782610 0.54362261 0.55916977
-0.12931994 -0.10240802 0.06914268
-0.08985421 -0.71123004 -0.57600528
0.00046528 -0.05018732 -0.09943910
-0.11475701 -0.05843103 -0.58554530
-0.02921546 -0.18887511 0.02766856
-0.06481824 0.26281264 -0.56954181
-0.11046867 0.32681194 -0.45440149
0.18120286 0.10308644 0.11843084
-0.17121112 0.27471042 -0.06947742
-0.05185690 0.65744931 0.49164593
0.18631063 0.26028529 -0.43410301
-0.08819826 -0.27145955 0.03055404
-0.10910393 -0.13084972 0.03907797
-0.14859200 0.33924332 -0.26425496
0.11734291 -0.17786978 0.02521374
0.10131222 0.34381950 -0.46715006
-0.01338730 0.02320997 -0.59944910
0.05002308 0.40715671 -0.36866707
-0.04411064 0.61579704 0.34520292
-0.07159171 -0.68954700 0.10738516
-0.06579180 0.44018507 -0.05509142
-0.05608850 -0.48595095 -0.68729055
-0.01101310 -0.03734047 -0.12541278
-0.11856598 0.08791833 -0.34937549
0.08498216 0.61096120 0.36769411
-0.04914822 -0.33338800 0.02564988
-0.07263853 -0.10261121 -0.62121481
-0.02558658 -0.23279995 0.04776540
0.17491423 0.17489937 -0.30597919
0.07711331 0.19606026 0.34597954
-0.06350873 0.40191379 0.10764261
-0.02498313 0.06934331 0.26027766
0.19297373 0.13930933 0.07792073
-0.15107927 0.14328255 0.15288249
0.11063521 -0.65806890 0.02694971
0.02812584 -0.06548083 -0.56494319
-0.18809827 0.18897782 -0.04496131
0.12160687 0.00773804 -0.22892439
0.05600853 -0.45089218 -0.01621867
-0.02527714 0.06668470 -0.48056155
-0.03310387 0.45121574 0.49337113
-0.02652138 -0.14472502 -0.63963699
-0.17399701 0.13916345 0.09166491
0.07940486 0.31132674 0.41302240
0.15553373 0.32459968 -0.33732760
0.22860351 0.13250464 -0.17820343
-0.07640430 -0.74289161 0.13065921
-0.04956767 0.30755845 0.24377024
0.10179342 -0.56572306 -0.64596218
0.14885202 0.35158762 -0.08224265
0.19510421 0.20045429 -0.43390977
0.01195354 0.12672715 -0.53612530
-0.09751230 -0.67134273 -0.62942117
-0.04628695 0.19783607 -0.60307229
-0.03717888 0.00933109 -0.61459833
-0.09720743 0.23671871 -0.56812400
0.13077472 -0.74294430 -0.61329198
0.11714002 0.35881621 -0.37345335
0.03563495 0.46009481 0.38882241
0.09327344 -0.29516703 0.02771771
0.04080747 -0.66199422 0.05439159
-0.03904301 0.08044094 -0.60901272
0.03981127 0.10521859 -0.48306155
-0.06664725 0.13777852 0.25753719
-0.08359554 0.28454021 -0.55170220
0.02708619 -0.29555529 -0.65750808
0.02799310 -0.44775599 0.01630367
-0.03312077 0.54810524 -0.13361481
-0.04078795 -0.73896414 0.02154948
-0.17390455 0.08732156 -0.47119048
0.01123561 0.30751139 0.30314267
0.14026147 -0.70963907 -0.55925059
0.15182878 0.11014581 -0.34171802
-0.07148322 -0.02598266 -0.51736158
-0.18062332 0.06155042 -0.11570361
-0.18379426 0.11868781 -0.24910609
-0.05619698 -0.23908685 0.06695065
-0.07283715 -0.64653593 -0.58409506
-0.10620683 -0.74512839 -0.47653878
-0.18458854 0.23545057 -0.24795052
0.06891891 0.30777639 0.36207873
0.06894483 0.39608413 0.14001247
0.04823079 -0.01233065 -0.29722703
-0.02529839 -0.26268241 0.00150890
0.22171828 0.18913943 -0.09228274
-0.05126910 0.53458101 -0.21305026
0.04738141 0.19548707 0.44357291
0.21252730 0.07611172 -0.16324176
0.00887261 0.02186764 -0.63630074
-0.05482273 -0.21684770 0.00932853
0.02120710 0.37696198 0.38097921
-0.00292976 -0.01784150 0.00583175
-0.00195442 -0.35523331 -0.68114996
0.19482255 0.24546894 -0.04652836
0.07186338 0.28128970 0.30984905
-0.02077790 0.08126943 -0.47402620
0.05676044 -0.73888689 0.08515873
0.03828106 -0.30410567 0.00966345
0.11857425 -0.03143505 0.12850989
0.00099522 -0.40239182 0.01541554
0.18916951 0.18815376 -0.36226532
-0.09917982 0.02648987 -0.30614921
0.04933393 0.03101519 -0.59753591
0.18379951 0.05733268 -0.45526537
0.02686879 0.51070130 -0.09183757
-0.07787061 0.11292116 0.24021366
-0.16371351 0.34118420 -0.21575148
-0.00867102 -0.63395774 0.04517059
0.05870298 0.43695238 0.46402839
-0.01950548 -0.02835060 -0.57675493
-0.09947889 0.00437970 -0.26928204
-0.16469027 0.03673732 -0.13445702
0.08582366 0.57187617 0.50702250
0.03606452 0.08279678 -0.49893060
0.12574163 0.04209816 -0.59260827
0.06540090 -0.28370184 0.05729101
0.12194085 0.42006415 -0.13937461
0.01323033 -0.03500498 -0.01251092
-0.14943549 0.32672623 -0.18668391
0.09858786 -0.70590335 0.02700112
0.15974440 0.03675684 -0.01484162
-0.08669696 0.32681057 0.15932217
-0.02560184 0.36761138 -0.46905959
-0.05597443 -0.27335218 -0.66584134
-0.02819681 -0.66112620 0.03747303
0.12975584 -0.16091552 0.05391823
0.01231981 -0.02933169 0.14941192
-0.04922948 0.65611988 0.47364014
0.16066429 -0.72212225 -0.59622270
0.14710191 0.34561825 -0.33621037
-0.03286049 -0.03099758 -0.61018151
-0.09632264 -0.13310051 -0.52041936
-0.09179186 -0.62723827 0.02676136
0.13458169 0.00660681 -0.40228000
0.00001982 0.41063613 0.50680351
-0.11580957 0.40077159 -0.15389469
0.02081591 0.38515073 -0.47152263
0.06204043 0.58321726 0.55282575
0.03932857 -0.00436889 -0.57815641
0.09121773 0.15271081 0.25920635
0.15370299 0.02891943 -0.21817647
0.07289759 0.56636590 0.40992999
-0.10527343 -0.04538435 -0.43348268
-0.09683920 0.21175683 0.24692008
-0.04611346 0.26621547 0.31198260
-0.05218101 -0.40488160 -0.00855945
0.03595439 0.28990227 -0.57192326
-0.20101289 0.15399453 -0.21272051
-0.15082620 0.14183708 -0.31957367
-0.10142218 0.28942209 -0.52894944
0.17957668 0.25394994 -0.01559455
0.04091508 -0.02701901 -0.52963907
-0.03704040 -0.48886913 0.02639494
-0.13045926 -0.73731792 0.07082512
-0.11232264 -0.05527323 0.11660828
-0.07835513 0.20479605 0.26686981
-0.11273409 0.03551487 0.16652158
-0.12307240 0.12779358 -0.56842136
-0.08951692 0.02771260 -0.32937607
-0.06806207 0.38030669 0.15124576
-0.16639532 0.18811311 0.05086727
0.04671339 -0.24787425 -0.69232881
-0.04852356 -0.74908328 0.09934807
0.08572514 0.25591195 -0.58022815
-0.03479390 0.07844397 -0.38199827
-0.14258151 0.24340552 0.06026104
-0.02005668 0.46983981 0.49976307
0.14908545 0.05623686 -0.40578032
-0.03322433 -0.01355120 -0.53407836
-0.16177833 0.09316683 0.01725888
0.09527685 0.18586579 0.29371685
0.08078884 0.51038772 -0.14237233
0.09326829 -0.02522612 -0.43619469
-0.13790375 0.29707107 -0.40630412
-0.08567134 -0.02393755 -0.60842693
0.16257302 0.08248357 0.12845017
0.04793669 0.06103898 -0.61301774
0.21358511 0.26193392 -0.15007338
0.02304728 0.55735683 -0.13962623
0.12734930 -0.04366629 -0.44329071
0.05488337 -0.06833832 0.10935813
0.04345138 -0.32897976 -0.65189743
-0.16170891 -0.00586480 -0.49588731
0.04598568 -0.47949040 -0.00330994
-0.10450217 -0.12610435 0.11082977
0.18440412 -0.72699332 -0.52680337
-0.01770595 -0.31598461 -0.64913362
0.06507424 0.32520106 -0.52893078
0.01007695 -0.34338042 0.00509244
0.00880798 -0.03729854 -0.07129280
0.10673030 0.38925877 -0.33395597
-0.06509261 -0.39994204 -0.67541170
-0.11844280 -0.00809497 -0.13960892
-0.04688411 -0.62443703 0.01176531
0.09688871 -0.00251102 0.15495728
-0.13038935 0.28412682 -0.51040441
0.14402416 -0.00773033 0.04814024
0.02760904 0.26819903 -0.58846557
-0.06188255 0.27158561 0.40308478
-0.05210890 -0.25398219 -0.63378567
0.00437034 -0.00685301 -0.54212594
0.06925894 0.04385439 -0.43955481
-0.10328060 -0.70154804 -0.56405246
-0.03530790 -0.70487750 0.07977286
0.03374139 0.03123660 0.22492331
-0.20167217 0.25872558 -0.14597265
0.17442912 0.34026942 -0.19374500
-0.10641230 0.46020341 -0.21310998
0.19165140 0.17680447 0.08471896
0.07176661 -0.33705750 -0.65131605
0.21904069 0.21422446 -0.20200093
-0.00572779 0.43907985 0.03483526
0.08441778 0.17615119 -0.60787350
0.05446757 0.34825096 0.39373448
0.14145020 -0.10289457 -0.50150090
0.17070805 0.07049948 -0.52812761
0.18243609 -0.00021140 -0.46393299
-0.11837693 -0.72531986 -0.49759349
0.05776619 0.19792561 0.40299013
-0.07934643 0.37844577 0.06223896
-0.03892217 0.32577223 0.37750173
-0.04625481 0.38361290 0.48818350
0.13016467 0.34710613 0.01849342
-0.10083759 0.06365572 -0.34291708
-0.03880484 -0.00601692 -0.49496877
-0.05158471 0.24354732 0.40318999
-0.02087475 0.11379752 -0.60766834
-0.04814102 0.26233292 0.26631829
-0.05586123 0.29383764 0.41414949
-0.04560906 0.45006156 0.41666302
0.07896753 -0.70417660 0.04635450
-0.19952503 0.19552311 -0.13405547
-0.13149850 -0.72884834 0.10040709
0.00270998 -0.07771586 -0.57465917
-0.19695105 0.15826243 -0.24072175
0.01885183 0.57128662 -0.19573316
0.14731437 0.01216600 0.10086362
-0.16845900 0.20933893 -0.02453819
0.04529488 0.54440409 -0.15742956
-0.05548916 0.42199755 0.10078521
-0.04171930 0.50403792 0.49509501
-0.15514950 0.07277222 -0.40995893
0.08654527 0.36947381 0.12372646
-0.03055120 0.33341685 0.50171846
0.00044507 0.40154055 0.37587845
-0.04730593 0.55708539 0.60720140
-0.00157740 0.50160569 0.50915039
-0.02157147 -0.46969464 0.00260391
0.00439509 0.32751983 0.23901269
-0.11117374 -0.02218851 -0.16269641
0.09847087 0.43820682 -0.10172840
0.08770307 0.28142387 -0.55906481
-0.08661967 0.15671045 -0.59562093
0.01801077 -0.01174533 -0.03603832
0.06408419 -0.19145282 0.01134658
0.07191743 0.01256028 -0.46026063
-0.07318007 -0.69163269 -0.63551104
0.00659086 0.45038670 0.00162573
0.16791679 0.21654084 0.15891179
0.01487231 0.51086414 -0.07408321
0.04715028 -0.06110907 0.08205348
-0.02575918 -0.08665428 0.07083798
0.01132906 -0.33175415 -0.68590426
0.13782345 0.02237002 -0.24173830
-0.16326793 0.21225682 0.10939719
0.21698932 0.21993271 -0.09089327
0.09094834 -0.20061927 0.07521958
-0.03636893 0.52190143 -0.12357824
0.15845756 0.16515312 0.17218600
-0.04815040 -0.12772918 -0.51953214
0.17921306 0.28007731 -0.40035442
0.19109643 0.10858168 0.03941635
-0.03494633 -0.30438316 -0.70664042
0.18123184 0.17266624 0.12664551
0.15568195 0.30481634 -0.02521566
-0.10601874 -0.75220448 0.08784126
-0.02871509 0.51790351 0.53366637
-0.06830790 -0.32938418 -0.68988591
0.05263836 0.40612364 0.38422608
-0.06731665 0.60012382 0.50424725
0.14472923 0.09925079 0.17464922
-0.06550803 -0.61365581 -0.66240758
-0.14258340 0.12238613 -0.34027994
0.09743803 0.37913781 0.05686326
-0.07913016 -0.60495239 -0.65570980
0.00594524 -0.02615832 -0.26064032
0.13021895 -0.15261391 -0.57417452
0.04764019 0.42967129 0.49085307
-0.00280811 0.25403067 -0.59243166
0.03153085 -0.26303843 -0.66186893
-0.06504229 -0.19117276 -0.64935523
-0.02187854 0.34208623 0.36912477
-0.04386618 -0.22058992 -0.66945773
-0.11622413 0.06879349 -0.57662696
-0.17876698 0.26105753 -0.06319840
-0.03224896 0.13635789 -0.60718769
-0.04348207 -0.14588131 -0.63354605
0.11742482 0.39173406 -0.30049056
0.02678804 -0.34628445 -0.69582921
0.12333814 -0.64338917 -0.65333289
-0.04178091 -0.01855204 -0.61591685
-0.05639321 -0.74348909 -0.63324118
0.03096169 0.43391940 -0.37163398
-0.17706479 0.30165744 -0.21451594
-0.04466144 0.46411860 0.47391027
-0.13812622 0.06650063 -0.32081217
0.17551354 0.27689019 -0.37233138
0.12148835 0.44106430 -0.25666481
0.11652912 0.36274144 -0.40110084
-0.01853684 -0.01857178 0.15757805
-0.03419766 0.18130849 0.38865823
-0.04789941 -0.02301112 -0.03097358
-0.04515881 -0.04959867 0.11518480
-0.08068941 0.33607987 -0.50183487
-0.14996390 0.15954474 0.16777727
-0.16461399 0.13694301 -0.51020664
0.19991565 0.07852043 -0.22728018
0.10805897 -0.16464514 0.07762239
-0.18334651 0.10240875 -0.04260120
-0.05013434 -0.16997090 0.07701887
0.07440972 -0.73400509 -0.64014107
0.05270831 -0.58888650 0.02175981
0.13524941 -0.74676490 0.12107731
