-0.56377667 0.12233168 -0.00603456
-0.61672086 -0.02645673 0.15837711
0.66004688 0.06907706 0.27259463
0.78367138 -0.14873855 0.40343162
0.26864043 -0.20271157 0.53586066
-0.41156915 -0.18304251 -0.50885582
0.03455741 0.13467386 -0.25364879
-0.42311460 0.04986144 0.41414681
0.10729919 0.01946508 -0.43750769
0.58204639 0.10625699 0.28320503
-0.10159758 -0.14031015 -0.44529584
0.79918450 -0.20913959 -0.44898814
0.33193883 0.07881084 -0.17356880
0.47350919 0.13392283 0.03429844
0.39592135 0.05310868 0.32405856
0.51344168 0.01015204 0.35409519
-0.37444940 0.05582073 0.45471162
-0.40898350 0.09006682 0.40394625
0.37016830 -0.14656864 0.47424215
0.16493671 0.12805468 0.26269656
0.66273916 -0.05115224 -0.30505100
0.53112072 0.11643583 -0.11938515
0.00759035 0.26567048 -0.09617788
-0.12029834 0.01067208 -0.43925288
0.17380238 -0.13446003 -0.53279704
0.38300240 -0.12610053 0.57143700
-0.33969972 -0.04707803 -0.45267808
0.04328208 -0.20902556 -0.53668898
0.01944111 -0.13201001 0.47917089
0.08855665 0.10515429 0.25881541
-0.06576910 -0.04706274 0.45772684
-0.22160426 0.08413694 -0.47625431
0.68829131 -0.14065273 -0.35263520
0.12365024 0.15943827 0.15828311
-0.21561225 0.23062092 -0.20662314
-0.31424031 0.31341445 -0.09131030
0.06270356 -0.02940638 0.43314046
0.09945057 0.28438753 -0.21573928
0.36210951 0.12114544 -0.27814358
-0.08586361 0.10657187 -0.44794479
-0.31999254 0.23241547 -0.13044550
-0.57294166 0.07010952 0.06616156
-0.14902502 0.18080942 0.24409330
0.16352898 0.12070543 -0.01894804
-0.22738822 -0.21660551 0.56974208
0.40870026 0.10135628 -0.03123147
0.32475701 -0.13794500 0.43433496
0.10645542 -0.15411310 0.56989223
0.27185231 0.08677617 -0.05753613
0.54693496 -0.07442840 -0.35750708
0.29249749 0.06037710 -0.31773341
-0.23397690 -0.21356949 -0.59490049
0.20590287 -0.18816461 0.64646417
-0.08153801 0.20295395 -0.20267703
0.11851459 -0.17028821 0.46075770
-0.33627981 0.29916072 0.07368506
-0.59130585 -0.07593154 0.01953377
-0.40354910 0.11798390 -0.24984169
0.16905254 -0.05098902 0.37144229
-0.22758412 -0.19483006 -0.62445092
-0.71592391 -0.19333795 0.32028404
0.25713500 0.18498042 -0.13750863
0.05622455 0.09164997 0.05264219
-0.11519402 0.08691232 0.43434715
0.00654331 0.12517971 -0.40228939
0.24933641 0.01927537 -0.33749333
0.36631057 -0.20880955 0.49460715
-0.09704918 0.29104108 0.22784202
-0.21993998 0.09708272 0.46507686
-0.26154196 0.12436759 -0.26605150
0.61583251 0.04963323 -0.04429380
0.15721068 0.23846942 0.15011889
0.69323391 -0.21007055 0.46614680
-0.07487270 -0.13072547 0.64983958
-0.58874267 -0.12197226 0.22313547
0.08112413 0.20600884 -0.14063951
-0.73437274 -0.19371068 0.07833228
-0.27802023 0.10760400 0.38889453
-0.33569977 0.06374244 -0.37968111
0.12809242 0.07630099 -0.41443852
0.56313717 0.10674720 0.30983931
0.60614139 -0.04454862 -0.34253821
0.36364323 0.07689115 0.04793101
-0.48396564 -0.03219604 0.29363847
-0.58421791 -0.12846664 -0.37306085
-0.52740568 0.08364882 0.09296978
0.00334484 -0.11686224 -0.45705730
0.65207922 -0.00285629 -0.21103945
0.72043651 -0.20161086 -0.19037820
-0.58845389 0.07340499 0.02792759
-0.08540516 -0.15799575 -0.54296321
0.20390841 -0.17955063 -0.52037203
-0.19453458 -0.19223775 -0.49769586
0.83936191 -0.14546308 -0.12383248
0.37119105 0.02530343 0.29684561
0.59899950 -0.12999742 0.56650704
-0.31687969 0.18525520 0.15617831
-0.32598636 0.08127603 -0.20634688
0.75172281 -0.19724992 0.57882243
-0.36707845 0.11014279 0.08981308
-0.04923426 0.13720822 0.40821359
0.38470265 0.08230327 0.14171988
-0.54816300 0.02423359 -0.28019559
0.09943731 -0.21008050 -0.40168136
0.76062191 -0.21186173 0.14261892
0.33540741 -0.01662140 -0.27579361
0.51192307 0.08209994 -0.24168241
0.40084982 0.13265258 0.21458562
0.49982435 -0.20411044 0.61660522
-0.22226471 0.09321907 0.23308548
0.22995624 0.03525674 -0.27817541
0.78296381 -0.13810866 -0.42297128
0.82544637 -0.21120858 0.12693666
0.42593360 0.01756882 0.28875181
0.23069139 0.08082718 0.21345447
-0.71517080 -0.14711142 0.22262974
0.67212605 -0.21803740 0.50662613
0.47150722 -0.12723170 0.51673758
-0.01587196 0.08626501 -0.00888572
-0.36173248 -0.02994916 -0.44191048
0.47686929 0.09156229 -0.02954350
0.48803905 0.13825491 0.01916636
-0.59192294 0.12836659 0.09668707
0.28291351 -0.10826167 -0.34009489
0.25893682 0.10243810 -0.01853246
0.37024701 0.07371088 -0.21571699
-0.35315961 0.11698678 0.14376362
-0.09636926 -0.14549999 -0.61781007
-0.67762387 -0.14838001 0.27817473
-0.40810800 0.08174556 0.03158647
0.50380492 -0.16133265 0.61131048
-0.49544877 -0.13700813 0.39732808
0.03992626 0.19371913 -0.08194201
-0.01241504 0.22801599 0.24723399
-0.17044699 -0.15248358 -0.51065248
-0.01599007 0.08223206 -0.17654146
0.74519616 -0.10599384 0.11210759
0.63687581 -0.02106487 -0.27631962
0.14747885 0.09221338 -0.25495130
0.20449418 0.08673981 -0.23966941
-0.37230420 0.08027920 0.15924552
0.07996670 0.19624101 0.02461143
-0.50926340 -0.16153459 -0.28155822
0.86563027 -0.20281324 0.10635803
-0.40130296 0.13418850 -0.21104060
-0.21035445 -0.03177983 0.47113171
-0.35607153 0.24546674 0.05743701
-0.37668067 -0.20757273 0.63622528
0.50910729 0.07782906 -0.28051296
0.65951353 -0.07731409 0.29664791
-0.32955441 0.05743358 0.42691916
0.18733877 0.13371834 -0.01462320
-0.18309039 -0.20988137 0.63972682
-0.33808109 0.14203666 0.29223120
-0.34278753 -0.17626266 -0.51066518
-0.27451104 0.13460706 0.14498110
-0.35985416 -0.19847833 -0.45934671
-0.35839775 0.07842700 -0.06915097
0.52804899 -0.00494088 0.30342469
0.29017717 -0.14655897 -0.28308645
0.12900880 -0.21033701 -0.52561736
-0.26695958 -0.20331523 0.62409675
-0.50909883 -0.06819692 0.26941735
0.14737967 0.11448468 0.28595388
0.45936731 -0.04316654 0.45001060
0.00671963 -0.15528671 -0.48248333
0.74487889 -0.06233972 -0.18668067
-0.39118066 -0.19699326 0.51687211
0.28456831 0.07921015 0.07664512
0.71997845 -0.04579081 0.25266242
0.01759162 0.29743642 0.22892545
-0.25070012 0.20063826 -0.13787656
0.73610836 -0.02298376 0.07048521
0.73898965 -0.14393692 0.41914195
-0.06182954 -0.20671284 -0.60165799
0.46445614 0.07573317 0.08723678
-0.62142718 -0.09570089 0.01580390
-0.42131972 -0.15458825 0.36768055
0.02733051 0.32376498 0.20755041
-0.29631779 0.13465525 0.32726589
-0.27878654 -0.14951397 -0.47232476
0.49123210 0.00500856 -0.38097173
0.31130078 -0.07519580 -0.45028281
-0.59632927 0.09633520 -0.16407549
-0.19187306 0.18109283 0.19238493
-0.12491103 0.18469523 0.21045020
-0.32530415 -0.17215262 -0.62853682
-0.26753068 0.07743873 -0.28241783
-0.16472371 -0.21338817 0.57301164
-0.57442307 0.13279305 0.17289178
0.65809947 -0.12203464 0.42830789
0.22354127 -0.20713788 -0.42436939
0.04779396 -0.13552989 0.51450419
-0.34771344 0.04046452 0.41114965
0.36988661 0.01214663 0.33873785
-0.53095251 -0.14002049 -0.32031032
0.15246722 0.11590391 -0.37629697
-0.25222597 0.23179922 0.20545301
0.74523598 -0.19986521 0.39943397
-0.37989601 -0.16131859 0.49493876
0.13107404 0.05870368 0.31075129
-0.43692586 0.10985771 -0.37265366
0.73058474 -0.02977850 -0.18921806
0.03504259 0.10004202 -0.38916716
0.01759960 0.09531797 -0.09629991
-0.00942456 0.07699741 0.33055997
-0.27468488 0.07620432 -0.24935436
0.06126605 -0.21723154 -0.55954707
-0.56405586 -0.22232983 0.17740518
0.24661782 -0.11413185 -0.29027128
0.56876093 -0.09808567 -0.62620056
0.04072285 0.32168844 -0.09891212
0.64058375 -0.21123144 0.58732599
0.41731757 -0.09474173 -0.60835028
0.43697560 -0.07070306 0.32447255
-0.48492771 0.09510589 -0.12904127
0.81352443 -0.12991738 -0.19645229
0.63530219 -0.08482970 -0.44131485
0.65778148 0.04237486 -0.28758636
-0.25634760 0.07681850 -0.15985076
-0.28893211 0.07629837 -0.47062272
-0.31751338 0.02381941 -0.40650347
0.09043117 0.09061916 0.07457589
-0.29669419 0.06321500 -0.39753437
-0.33716613 0.08759676 0.31427696
-0.26987639 0.19650300 -0.15829022
-0.54970640 -0.14253691 -0.50645697
-0.00733265 -0.02926210 0.49975526
-0.26356161 0.04601544 0.44666535
0.29064003 0.12915893 0.07137217
-0.07076579 0.18643707 0.18343075
-0.74107367 -0.13499686 -0.23088425
-0.03314091 0.07928894 0.24646996
0.13497120 -0.00406018 -0.39877921
-0.59035122 -0.08527583 0.23096640
0.74454415 -0.08649473 0.20452046
0.09865960 0.13755858 -0.31959784
-0.71730232 -0.13602416 -0.04862267
-0.01385207 -0.07625429 -0.42638251
-0.71853089 -0.21296579 -0.06647456
0.71853167 -0.04395800 0.10783152
-0.04753789 0.09018876 0.32310989
0.53164136 -0.14368565 0.57709944
0.50896800 0.07321753 0.15111652
0.07685918 -0.05642008 -0.39415380
-0.60109305 -0.12909691 0.43714309
-0.33010602 0.07678866 0.00294331
-0.38993087 -0.19882090 -0.54635304
-0.05308298 0.13885599 0.29201964
-0.32359535 0.07972407 0.03445318
-0.55163383 -0.01640949 0.25322896
0.10660531 0.20366058 -0.22556935
-0.39310297 0.14482117 0.00716308
0.18522798 0.24710836 -0.14600007
-0.10781932 -0.14898339 -0.51935339
-0.45067239 -0.14822687 -0.38194439
0.30909240 0.06811714 -0.28994942
-0.31707367 0.16299081 0.07115874
0.10002449 0.22545478 -0.13303205
0.54309279 0.03811768 0.32197610
-0.33172274 0.13825783 -0.38953924
0.50316542 0.06809088 0.27031288
-0.66701406 -0.20971891 0.36501560
-0.56710291 -0.02298781 0.16056830
-0.61315602 0.03572090 -0.12869303
-0.30592522 0.15954795 -0.05236019
-0.33874807 0.20970094 -0.04451907
0.82264960 -0.13617779 0.22480822
-0.26372981 0.26640391 0.19331175
0.48792350 0.08482271 0.18939200
-0.26944253 0.10372431 -0.32832664
0.58039415 -0.11556390 -0.39046654
0.57186007 -0.11414799 -0.60530722
-0.56683171 0.08522952 0.00852140
0.51438391 0.13177374 -0.02534578
0.03153213 0.29602352 0.07846437
-0.47412607 0.07355767 -0.16459133
-0.24138889 0.23040675 -0.19414270
-0.62661076 -0.07703277 0.01488524
0.01099270 -0.06404149 0.49035606
0.04362886 0.31676418 0.15077159
-0.02103487 -0.20182478 0.55511487
-0.26511765 0.08053142 0.38976732
0.51592898 0.11064262 0.20464669
-0.45819128 -0.02591475 0.36823854
-0.60721898 0.05007432 -0.15244843
0.44008568 0.00090402 -0.48554200
0.06324198 0.30187500 -0.02516789
-0.14855069 0.02425096 -0.49262470
-0.62387729 -0.03485014 -0.09078720
-0.00254542 0.31312332 0.22274674
0.09599782 0.21919657 -0.21921851
0.86589885 -0.18750206 -0.00000633
-0.56951737 -0.12164851 -0.11774167
0.86732817 -0.20904660 0.19273832
-0.68023717 -0.20026991 -0.16897999
0.51083744 -0.06408354 0.43988857
-0.37182745 0.08920956 -0.14616141
-0.55195135 -0.06854773 -0.25298539
-0.56616694 -0.19667657 -0.50616491
0.22950903 -0.11633313 0.37989771
-0.16881289 0.09355700 0.19248486
-0.09360335 0.07250962 0.23433413
0.67437327 -0.13088773 0.58189040
-0.07027055 0.22518387 -0.22242022
-0.42344177 -0.17533025 0.36500204
-0.50341773 -0.21058303 0.42545864
-0.04337573 0.13946342 -0.35904509
-0.44543281 0.14619204 -0.12265587
0.53593856 -0.00881873 -0.45135403
-0.43108043 -0.12857378 -0.58575267
0.04166204 0.25555652 0.23942997
-0.53873670 -0.14829488 0.27260917
-0.19393979 0.13767549 0.33300063
0.48406050 0.08686014 0.25184181
-0.59670967 -0.11594044 -0.17948800
-0.05610187 -0.19966446 0.61841822
0.49286795 -0.07971221 0.41420528
-0.35397258 -0.14759333 -0.47423217
0.19911753 0.13098192 0.30845910
-0.42124414 0.13622521 -0.23872489
0.40534693 -0.13928510 0.49323988
0.23041481 0.09605006 0.11522476
-0.54165220 0.12852141 -0.06668407
-0.34120128 0.12673369 -0.07416575
0.82475638 -0.21171021 -0.06333699
-0.50876158 0.04404557 -0.29893711
-0.63892460 -0.12873994 0.28663567
-0.54167616 -0.19453411 0.42481217
0.84269208 -0.19917063 0.05108605
0.09219406 0.29617888 -0.14087076
0.23110908 -0.16495113 -0.62424916
0.18984129 -0.06776059 -0.31018180
0.29409394 -0.21306449 -0.43856204
-0.44162956 0.07780300 0.08689089
-0.49700034 -0.10204403 0.29030198
-0.57009679 -0.03768898 -0.22730687
-0.18506774 0.14181370 0.36442447
-0.46036264 -0.11636855 -0.37897664
0.24405155 0.07866143 -0.28838205
-0.21696426 0.12700616 0.22947854
-0.16458485 0.30639565 0.21844201
0.07218099 0.08039577 0.10550818
-0.62730324 0.05467278 -0.08057276
0.10437206 -0.16999564 -0.40540111
-0.70778495 -0.13005972 0.19989564
0.19144572 0.07246649 0.39058971
0.43636134 0.06687225 0.14847885
0.52950913 0.13015330 -0.18001279
0.53379035 -0.12697721 0.45638746
0.60078251 0.10513784 -0.09467379
0.04450496 0.12618411 0.02963406
-0.51973730 -0.06794514 0.31043085
0.55749428 -0.06411441 -0.62792659
-0.74511051 -0.16009933 0.31062123
0.03674894 0.13928279 0.34380534
0.16690677 0.20749778 0.23994589
0.60590357 0.08821903 0.30574277
0.63828444 -0.01404132 -0.32345375
0.22387664 -0.19413754 -0.36411455
-0.48052961 0.09961465 -0.16170865
0.67306954 0.06200097 0.02060116
0.23822679 -0.09590602 0.36484769
-0.58504897 0.10459585 -0.03968788
0.30635670 0.08589276 0.05459031
0.35931751 -0.14713307 -0.48566979
-0.43910027 -0.05193409 0.41068774
-0.12544575 0.25847048 -0.21981540
0.05357697 0.13788459 -0.03641832
0.45639122 -0.02264395 -0.52503675
-0.29067302 0.13646536 0.23761401
-0.18895289 0.07594705 -0.48726386
0.28281623 0.08463106 0.28241616
-0.71890247 -0.15811799 0.32851911
-0.29043385 -0.03499302 0.46427122
-0.30724564 0.10093231 -0.30914035
-0.07227989 -0.02621585 -0.45402482
0.42323446 0.07972178 0.34491658
0.75395602 -0.08360714 0.22463754
-0.60345578 0.04646999 0.13883644
-0.22460045 0.14447537 0.20286100
0.04233416 0.24042454 -0.04418427
0.46900544 0.13786307 0.29311058
0.20189086 -0.14376497 -0.38252744
0.17074047 -0.13542822 -0.62450695
-0.58065569 0.09346741 0.21334296
-0.23872316 0.26988795 -0.15403494
-0.27107689 0.11272392 0.43381166
0.33475974 -0.20790237 -0.31105849
0.27036303 0.10567418 0.16267015
0.13033813 -0.12692514 -0.34813946
0.39797506 -0.09088327 0.40000758
0.00162545 -0.21271425 0.54726881
0.39440489 -0.10752591 0.33267581
-0.24431792 -0.01800245 -0.48052156
-0.20545556 -0.09418465 0.45162323
-0.61790818 0.06377761 -0.12116441
-0.01454043 0.12870705 -0.23646876
-0.06905616 0.11637277 -0.33280623
-0.40707079 0.01630226 -0.35224167
-0.15530173 0.09923445 0.50053465
-0.14035168 0.24147582 0.24344532
-0.21863165 0.20774212 -0.21064842
-0.51416939 -0.18016225 -0.30502146
-0.20040095 -0.21096677 -0.58106053
0.01169656 0.30148682 0.12600696
-0.32713398 -0.17310052 -0.58836019
-0.17205103 -0.13444266 0.59192997
0.24994668 0.10427954 0.32794851
0.54200995 0.07083593 -0.16443737
0.40225255 0.02035780 -0.27389500
0.31282061 -0.07979219 -0.48199451
-0.09415751 0.13088663 -0.45020872
-0.52598584 -0.06074675 -0.22775805
-0.08556449 -0.15233923 -0.50494909
-0.44434106 -0.12700845 -0.42873111
0.77213758 -0.20531270 0.21162213
0.41802981 -0.02162472 0.29624259
0.01122269 -0.10043870 0.48221281
0.14487210 0.30191222 -0.17081015
-0.49652392 -0.05714679 0.34099302
-0.75561351 -0.20771411 0.10781476
-0.69884872 -0.18572091 -0.36814633
-0.19835433 -0.14541265 -0.48961824
0.06076602 0.17436017 -0.07491055
0.28392226 -0.08353080 -0.31779155
0.65217334 -0.10189001 -0.44420749
0.31866392 0.13607126 -0.02721299
-0.45056319 -0.20071122 -0.55682129
0.78392452 -0.13103414 -0.30548558
0.25278366 0.21494347 -0.21151417
0.71085757 -0.16581966 0.19936785
-0.41852424 0.08799248 -0.18457098
-0.70847768 -0.21904132 0.00715965
0.15006797 -0.02056041 -0.33700722
0.57177210 -0.07938483 0.48299536
0.28999653 0.14504226 0.27035910
-0.67720777 -0.15106751 -0.15188222
-0.21843158 -0.10517842 0.51181227
0.61527753 -0.13556781 0.58556157
0.59536368 -0.15208462 0.58467108
-0.53083879 0.06306766 0.29125303
0.11693775 0.21393420 -0.13302304
0.71776062 -0.18837216 -0.47477248
0.11826051 -0.17186055 -0.63187218
-0.26191458 0.07778081 0.33926690
0.23483405 -0.20998690 0.31613508
-0.30085018 0.16816849 -0.07844793
0.57327765 0.12491824 0.13517991
-0.00300129 0.12762938 0.13896659
0.47404110 0.10990406 -0.27267855
-0.55302447 -0.20466939 0.40612957
0.07193728 0.29042774 0.01584995
0.31391031 0.05408352 -0.27695858
-0.22463337 0.31890652 -0.19552492
0.70901823 0.00054935 0.14094728
-0.17965598 -0.13032243 0.55812258
-0.52669019 0.13940734 -0.21984638
-0.32037720 -0.18625863 0.52508914
0.26879823 0.01204203 0.29228744
-0.16867828 -0.12970275 0.64511597
0.78784877 -0.12653849 0.42681733
-0.28419632 0.13809109 -0.34291995
-0.55975121 0.12859264 -0.19133127
-0.17301486 -0.13364242 0.68533289
0.71451479 -0.09564769 -0.02683121
0.21222793 -0.21061349 0.31828377
-0.69692349 -0.13828845 0.15042542
-0.10776994 -0.08352761 -0.44677490
-0.03600766 -0.15441148 -0.55903459
-0.10081547 0.08353367 0.32805929
-0.40998790 0.08448688 0.09493216
-0.22988379 -0.13374588 -0.57291085
0.58627671 -0.13479602 -0.47473776
0.06060141 0.19360065 0.05249970
-0.75780362 -0.15885675 0.21610726
0.20926905 -0.20894516 -0.39116448
0.44731036 -0.07086808 -0.60075545
0.72198462 -0.03175215 0.02179678
0.03579927 -0.01293322 0.44367996
-0.20377189 0.09737987 -0.33355111
0.30767998 -0.21327639 0.57942963
0.41791943 0.10217028 0.09128801
0.36701506 -0.13276254 -0.58313203
-0.33217952 -0.19458455 -0.51148683
0.85646307 -0.14743169 0.18133292
0.06650358 0.18326429 -0.03571497
0.21861522 0.02321061 -0.30222014
0.02055521 0.28126097 -0.21545507
-0.57813621 -0.00641603 -0.17373312
-0.56878042 -0.15686373 0.42887962
-0.62896597 -0.14000091 -0.09480629
0.12142320 -0.16705620 0.65531582
-0.57345927 0.11626703 0.01050049
-0.05943201 0.07227899 -0.40323511
0.15143497 0.10872073 -0.33432129
0.06213790 0.13264397 -0.26018050
-0.68697155 -0.19366919 -0.13797507
-0.05000693 0.15946838 -0.22482570
0.61654431 0.09467810 0.09849255
0.65688491 0.04296353 0.17626749
0.41685551 0.11495023 -0.28965324
0.64751142 0.00509410 0.00231066
-0.23128828 -0.21082076 0.60662657
-0.77054256 -0.12699720 0.01266667
-0.61806405 -0.10900933 0.04990098
0.21003507 0.20312832 -0.22384265
0.16261014 0.08834024 0.25228313
0.31498101 -0.14110231 0.57701558
-0.04730515 -0.07355002 -0.43786952
0.31138876 0.05708251 0.33938861
-0.62586081 0.01824944 0.03519792
0.70914745 -0.00991361 0.16093083
0.60427946 -0.11048804 0.41903147
-0.33839369 0.22199176 -0.08754116
-0.39042619 0.13293374 0.22111188
0.66225135 -0.13020854 -0.60727602
-0.13522819 0.19610657 -0.22006071
-0.12433095 -0.13489950 0.64860636
-0.22541463 0.19127125 0.23151346
0.33361751 0.15989882 -0.15126491
0.28540879 0.04285812 0.34960121
0.20756128 -0.10039279 0.38809249
-0.01185801 -0.20762923 0.62516481
-0.62368077 0.06386036 -0.04324159
0.13745943 0.06277887 0.34057707
-0.11099193 -0.15270230 0.46226478
0.26867598 0.13269983 -0.25245538
-0.36469102 -0.14572354 0.51441014
-0.57472706 0.08967119 0.24480619
-0.11233002 0.13702515 -0.23872063
-0.35532051 0.19372953 -0.05326547
-0.09977686 0.07482573 -0.19445920
0.44514090 -0.08511505 0.42151457
0.24605429 0.13756035 -0.27295905
-0.22650383 0.05014108 0.50295621
-0.43328586 -0.21835077 -0.48956478
-0.64399993 -0.13952020 -0.35762310
0.53420264 0.12149666 0.25955522
0.21710502 0.24970621 0.20659561
-0.38489512 -0.00251518 -0.38753727
-0.13717178 0.10650502 0.21789458
0.22983348 0.14952430 -0.13415009
0.74328810 -0.21066880 -0.05389367
-0.60384548 0.04015867 -0.02525524
0.02622023 0.30393872 -0.07403359
0.54405409 0.13197550 -0.08883821
0.11068480 0.30343986 -0.14743194
-0.53381032 -0.17615245 -0.25866446
0.15399790 -0.14219272 -0.35988057
-0.59746009 -0.05743164 -0.00997396
-0.31364894 0.27178252 0.02598912
-0.00477169 0.05808888 -0.46355861
0.71140903 -0.17627309 0.51557857
0.45377284 -0.14439051 0.51749861
0.52531576 -0.00457077 -0.39057526
-0.58726823 -0.17718752 -0.00501062
0.08488183 0.13628179 0.08584722
-0.05022082 0.11677704 -0.23516548
-0.06747659 0.21246339 0.23817553
-0.50900775 0.11718974 0.27176356
0.61714804 -0.19635788 -0.34233791
0.13572782 -0.13309948 0.51711893
-0.60626447 -0.02298319 -0.09071478
-0.31618857 -0.21188524 -0.49935538
-0.32854691 0.07682717 0.09736456
-0.68528539 -0.14228000 -0.09359894
0.20889391 -0.15458676 -0.45949259
0.51471162 0.08441409 0.05523182
0.16372287 -0.18617980 -0.33428073
-0.31828982 0.17595956 -0.13647275
0.32852861 -0.20934910 0.30508596
-0.52888680 -0.11544874 0.31452212
0.26884040 0.13680875 0.07927903
0.85089433 -0.13734119 0.08916452
-0.54968476 0.08234499 -0.10939513
0.24357744 0.12656888 0.04864773
0.76030874 -0.10981704 0.13909328
-0.55471468 0.13503015 -0.11728536
-0.40341097 -0.11702575 -0.36619645
-0.57315850 0.11842611 0.04774957
0.03952962 0.32222933 -0.20400073
0.71163362 -0.20384601 0.00664324
0.46458888 0.12611610 -0.04129017
-0.08458775 0.08732607 0.16027482
0.04498813 0.13090134 -0.23350155
-0.61410081 -0.12781663 -0.39557508
-0.34175897 0.17216514 -0.03967510
-0.31323281 -0.10880636 0.49384257
0.19798590 -0.15321535 0.44552454
0.56221992 0.10444893 -0.24863344
0.12598585 0.12774852 0.37974566
0.82564294 -0.13310184 0.06598151
0.11463390 -0.16380504 -0.37056947
0.33200267 -0.17097504 0.35333472
0.15763897 0.08560799 -0.21828203
-0.02333383 0.08559063 0.26991802
-0.10418534 0.20359552 -0.17372929
0.60927624 -0.20867103 0.53247935
-0.33459264 0.03122072 -0.40061393
-0.40153027 -0.15139382 -0.45527709
-0.38933140 0.02898625 0.40224195
-0.73345149 -0.19824909 0.22791794
-0.27647123 0.17114902 0.11909784
0.42776081 0.13430524 -0.22905555
-0.55754745 0.07991019 -0.03643415
-0.74970967 -0.14355360 -0.17975935
-0.55613738 -0.13585596 0.26271045
-0.23405460 -0.14433852 0.49380279
0.74877304 -0.19357923 0.20241687
-0.04449359 0.07511162 -0.28090477
-0.75912392 -0.21550870 -0.02401707
-0.12885089 0.12004620 -0.24253005
-0.58095109 0.13444728 -0.10681960
0.76813644 -0.21065804 0.48847657
0.18135925 0.14929846 0.25900650
-0.45570633 -0.03308928 -0.30664766
-0.52282977 -0.03863979 -0.31015557
-0.69891709 -0.13172624 0.04550613
-0.68902522 -0.20026159 0.12753505
-0.03661728 0.12005762 0.25119418
0.08720492 0.26361141 0.05209386
0.38114050 -0.20287514 0.62913829
-0.15084949 -0.18458065 0.46704152
0.15823781 -0.14019477 -0.59668303
0.54314649 0.11592992 -0.29833877
0.11243701 -0.14494486 -0.49392986
0.37560558 -0.03043287 -0.50013798
-0.54064512 -0.15714207 0.21781155
-0.35311690 0.11390273 0.26318470
-0.49272168 -0.12593263 0.49091724
0.26933593 0.16883102 0.15925784
-0.06442779 0.12591487 -0.41362163
0.64365518 0.07812157 -0.05604137
0.09034166 0.07676822 -0.19418766
-0.58437192 0.05957088 -0.21405080
-0.51657075 0.13170254 -0.04806934
-0.26993397 0.21464126 0.14879966
0.10612158 -0.12213801 -0.37341017
0.33682999 0.08175156 -0.31629774
0.75999558 -0.14880075 0.33717635
0.85967910 -0.17349550 -0.06872895
0.13859355 0.07532066 0.21979767
0.68371487 0.04551353 0.11660246
-0.47868961 -0.21233666 -0.52729899
0.75362432 -0.21527353 -0.31436059
-0.35420510 0.03519008 0.45954415
0.65990698 -0.06876373 -0.26340726
0.27272606 0.09303999 -0.16863395
0.30261183 0.02594330 -0.33047214
-0.50686777 -0.21368146 -0.48131466
-0.31801358 -0.20668191 0.57290649
0.20732646 -0.06751378 -0.33854449
0.48764804 0.06166904 -0.29977399
-0.25779125 -0.14555220 -0.49276936
0.13054278 0.08826827 -0.27218160
0.22669555 -0.05192954 0.36004797
-0.25503787 -0.09439766 -0.47658294
-0.58532763 -0.03340677 -0.11436823
0.69728982 -0.05016233 -0.29559952
-0.70794952 -0.11528984 0.01839636
-0.19210082 0.02794685 0.51091081
-0.09526805 0.21699628 -0.20810892
-0.07608038 0.07562478 0.21384734
0.12238241 -0.08438388 -0.41324830
-0.37440082 0.11422032 0.37241369
-0.37448609 0.07532685 0.45067638
0.68011892 -0.13425206 0.40071261
0.38202846 0.13242838 0.26376367
0.23875208 0.05036530 0.33342421
-0.06791931 -0.21370548 0.58194155
0.21063384 -0.10428551 -0.29121774
-0.38337499 0.07759888 -0.42192370
-0.26508084 0.31006536 -0.17054711
0.76779157 -0.11119938 -0.16921221
0.06283808 0.07905689 -0.30468628
-0.63811070 -0.03685846 -0.04430324
0.43462923 -0.05231279 0.49105081
0.45311508 0.08895753 -0.26693556
0.11030837 0.13308033 -0.09281467
0.05658025 -0.13328478 0.67035526
-0.52897984 -0.14166912 -0.40034655
0.08029785 0.16150810 0.10757075
0.28883347 -0.10035929 -0.58580995
0.73495114 -0.17925034 -0.46253958
-0.22109635 -0.08904578 -0.44778979
0.62364835 -0.04501493 0.29352722
-0.11498319 -0.20519057 0.60634935
-0.05439061 0.09217338 0.12504467
0.78562379 -0.21532622 -0.31807265
0.40361243 -0.06238869 0.50585061
0.18741511 0.12618570 0.26052392
0.12069810 0.07343354 -0.01224086
0.32009894 0.09025364 -0.15435576
0.74518961 -0.21575183 -0.51030409
0.52950364 -0.08712085 -0.31756571
0.60606015 0.04985625 0.00622398
-0.50208604 0.14254570 0.07436118
-0.44274557 0.07482094 0.23093721
-0.07657815 0.13777047 -0.34361348
-0.68330914 -0.16511101 -0.38807490
-0.57321090 -0.21212071 0.49278158
-0.12845550 0.22600614 0.21120284
-0.60388929 -0.19714235 0.34561756
0.00876947 0.09584983 0.12427123
0.38971525 -0.18729563 0.46853471
-0.12610304 0.11642814 -0.28164959
0.13037941 -0.20977688 -0.47761780
0.00976826 -0.21139464 -0.48895901
-0.33176321 -0.20083955 -0.60608816
-0.55554003 -0.12464522 0.35719898
0.01881550 0.08653648 0.21113811
0.02957112 -0.13704956 -0.62937897
-0.75979251 -0.21852535 0.02192311
0.49881437 -0.14335571 0.49356553
0.47551554 -0.13850282 0.60466725
0.17791948 -0.21261451 -0.58819783
-0.41372389 -0.00870315 -0.34939846
0.14931400 -0.19749339 0.65705043
0.47115895 0.11271530 -0.12716639
-0.33118147 0.18124500 -0.06993107
-0.22648680 -0.03477802 0.49961957
0.49479288 -0.06334864 0.47203016
0.60282439 0.10457700 0.23192151
0.41876122 0.13623294 0.24880785
-0.59722185 -0.14471781 0.29281974
-0.54853654 -0.03795423 -0.27443022
-0.20040439 -0.13608965 -0.61688823
0.11885371 0.18030345 -0.13850830
-0.08603777 0.32307449 -0.18358363
0.59803402 -0.16636483 -0.38900596
-0.41119626 -0.14646448 -0.50372243
-0.19045311 -0.12750649 -0.44056299
0.64530396 -0.08748898 0.34926808
-0.41929051 -0.21314034 -0.44161552
-0.26913857 0.16627885 0.20540805
0.22830997 -0.17389253 -0.27959070
-0.49205798 -0.20717737 0.45938224
-0.59378237 -0.07837440 -0.18354039
-0.30068448 -0.12038741 -0.41718754
0.00155435 0.08904077 0.15068983
-0.49052900 -0.19280191 -0.38496926
-0.58003294 -0.20225061 0.09965923
-0.77383542 -0.20324528 0.19292755
0.52713156 0.13540305 -0.22930866
-0.57260233 -0.16223359 -0.26336518
0.69337821 -0.07339185 -0.08762579
-0.13148442 0.01958928 0.51197678
0.60391712 -0.16631892 -0.55595487
-0.16112410 0.27094167 0.22938552
0.56063050 0.03162014 0.32823747
-0.59293520 0.13129525 -0.05379098
0.71337372 -0.19769110 -0.02077432
0.05501181 -0.16020113 0.50847924
0.76737940 -0.14725411 -0.05350845
0.06642029 0.12664214 -0.05164199
-0.09249601 0.26501289 0.20010221
0.62477899 0.09150909 -0.02576718
-0.52511090 0.07634225 -0.03931810
-0.63628578 -0.17631084 0.21856567
-0.16430323 -0.02922311 -0.44258422
0.19080229 0.01430530 0.39380619
0.81437981 -0.14316708 -0.16827051
-0.81352353 -0.16111580 0.08317550
0.21536319 0.05354670 -0.27527937
0.81386745 -0.18807411 0.54132432
0.01927636 0.09405854 -0.41122928
0.64019740 -0.10809770 -0.61323804
0.64444774 -0.21403870 0.44482026
-0.10274316 0.13598651 -0.25705215
0.08930371 0.25623402 -0.21883827
-0.05750105 -0.14837295 0.47037947
0.72906429 -0.01894560 -0.27269500
-0.20738666 -0.19148348 0.68343669
-0.41983742 0.13099924 -0.21198481
0.73537278 -0.18061519 0.42046136
0.04083028 -0.11835781 0.42123353
-0.29679585 -0.16078153 0.43494856
0.26442713 0.07716241 0.29191804
0.63058853 0.04565206 0.33808222
-0.40297753 0.08595544 -0.13777098
-0.47523913 -0.12922214 0.48422930
0.06063088 0.11799875 0.25045237
0.59146392 -0.05753709 -0.29250309
0.72739685 -0.05985870 -0.13853109
0.38008207 0.07095861 -0.23074818
-0.02407845 0.11629689 0.30157694
0.18939333 0.09042448 0.35590148
-0.56658912 -0.20593518 0.37575483
-0.16582613 -0.17024511 -0.44478297
-0.57918686 -0.06231039 -0.09093304
-0.40283230 0.07824872 0.21845652
-0.00562475 -0.14395145 -0.43574870
0.76992995 -0.12145595 0.18073937
-0.23207551 0.10162401 0.17876592
-0.56350577 -0.12668653 -0.26841232
0.52033848 0.02955515 0.35087410
0.81591409 -0.12881203 -0.07943516
0.68907136 -0.14461067 0.29681614
0.30453292 -0.20991665 0.61336386
0.33850002 0.02320908 0.31118652
0.22428314 -0.19800965 -0.29247531
0.86603618 -0.20416638 0.03301757
-0.11626159 -0.19490023 -0.53768116
0.73457360 -0.20619941 0.29858637
-0.41292897 -0.14044246 0.41616833
-0.29123366 0.06307241 -0.45669627
-0.28918713 -0.03637574 0.43102896
-0.21975967 0.12998158 0.38127115
0.21843661 0.11850353 -0.29800662
-0.10105433 0.32292068 -0.16989698
0.44095007 -0.03308853 0.35294935
0.38225883 -0.03145916 0.34638247
-0.48057091 -0.14821766 0.43589264
0.14968795 -0.21387559 0.49916363
-0.30783612 0.31725937 -0.13271755
0.32434067 -0.01592374 0.29644874
0.54898912 -0.08585951 0.50724781
-0.61184013 -0.02244713 -0.12958507
-0.41241241 -0.14858183 -0.41904107
-0.74509525 -0.21706074 -0.00096433
-0.49031061 0.13913101 -0.03532581
-0.55699974 -0.10490185 -0.21701159
0.35911462 0.08747113 -0.20181151
0.07500906 -0.11707060 0.42325073
-0.02595210 0.08520589 -0.13401690
-0.13689682 0.15002280 0.23695222
-0.56899965 -0.14644368 0.47259879
-0.30334094 0.10109659 -0.14776342
-0.35870844 0.21687892 -0.02092713
-0.49100053 -0.14938235 0.28815028
0.69955915 -0.05128805 0.00658067
0.46811762 0.07180460 -0.05296689
-0.51004934 0.07930914 -0.17315443
-0.63604248 -0.19930132 0.17757982
0.08507705 0.15053421 0.26861838
0.19085354 -0.07290529 -0.36980677
-0.65836072 -0.19393308 0.37757182
-0.27046710 -0.13670859 -0.42037609
-0.42310390 -0.13423096 -0.60161585
0.35159108 -0.18380997 0.37796283
-0.48996764 -0.20158485 0.55265379
0.27623221 -0.21102461 0.50842923
-0.49109662 0.13105580 -0.09217387
0.07405990 0.09861763 -0.04423486
0.20654981 -0.14827591 0.59015501
0.21272857 0.12202486 -0.32132638
-0.63716537 -0.12026045 0.12353567
-0.44387212 -0.11817212 0.34147504
0.07091956 0.19408049 0.13993958
-0.43098029 -0.13124974 0.52012336
0.53781521 -0.06922456 0.49181360
-0.63450229 -0.06432482 -0.05565768
0.04587334 -0.14623785 0.66201180
-0.34661025 -0.21403766 -0.43564284
-0.73249793 -0.19543552 -0.10097750
0.20489822 -0.12768304 0.46019346
0.07842343 0.11579551 0.28823328
-0.71676195 -0.21131155 0.07104270
0.03058778 0.08445641 -0.06812679
-0.25254169 -0.15036398 0.44871420
-0.07218118 -0.11501384 0.47718629
0.70337802 -0.11720359 0.35256746
-0.30230811 0.18310569 0.17105860
0.25436687 0.10614018 -0.24523589
0.34214091 0.08462039 -0.10089776
0.59936076 0.03905824 0.34395966
-0.13059445 -0.13001381 -0.54231513
-0.49996614 -0.16396944 0.59153652
0.51534104 0.13701814 -0.19903369
-0.33752447 0.14575487 -0.02028856
-0.31619585 -0.19644572 -0.55913323
0.67469847 -0.20696393 -0.35547197
-0.55620515 0.12289307 -0.07639005
-0.72861665 -0.20388857 -0.31451073
0.24116057 0.00725343 0.36282021
0.29406476 -0.13457139 -0.45221508
-0.66318440 -0.20888168 -0.40413880
-0.15579626 -0.21376643 -0.50544769
-0.32670689 0.30960095 -0.02361602
0.72296488 -0.13084757 -0.07603855
0.00943672 -0.13332996 -0.42896456
-0.40646258 -0.19402193 -0.46654114
0.41145635 0.14126962 -0.10021479
-0.05442404 -0.06878302 -0.46970466
0.23982276 0.11813890 -0.23892808
-0.49806243 0.12386630 0.09477016
-0.07421668 0.09199806 0.22178429
0.12807418 0.11264999 -0.03119121
-0.38274592 0.02512276 0.44796160
-0.05371645 0.08064739 0.39281961
-0.35264575 -0.18954289 0.59638703
-0.21957351 -0.05674114 0.45435417
0.52128637 -0.05663418 0.39555094
0.11047003 -0.20900181 0.48466939
0.01856601 -0.15824254 -0.41241530
0.28564692 -0.17809917 -0.60542583
-0.26685447 0.26546746 0.12677741
-0.58912987 0.05891625 -0.01765626
0.60977900 0.06166971 0.31267157
-0.48375016 -0.18802671 0.30366674
0.28500503 0.07366094 0.17078233
-0.35886198 0.07797845 0.31102309
0.65860736 0.04582740 0.24384502
0.46706507 -0.05137197 0.35868981
0.67656755 -0.21969759 0.43411002
0.08245668 0.20420420 0.23726226
-0.57063216 0.06848586 -0.13518342
-0.43871859 -0.06720708 -0.33240074
0.77135503 -0.20579076 0.33294675
0.04003030 -0.21125206 0.62383151
-0.06526603 -0.20391604 -0.54436839
0.64762002 -0.04669288 -0.32960662
0.50447255 0.13356945 0.09886726
0.71793306 -0.02135547 -0.28759179
0.02611230 -0.15330401 0.48370886
-0.79395139 -0.15313043 0.22990122
-0.13121776 0.10150573 -0.32542598
0.69867074 0.00460159 -0.15923253
0.21177043 0.07561295 0.14192680
-0.57296240 -0.18268089 0.48760846
0.28086787 -0.11971526 -0.55461085
0.56642109 -0.09643197 -0.36363459
-0.80848539 -0.19079326 -0.08249677
0.14282377 -0.15204675 0.64314997
-0.52477109 -0.14625508 -0.24568772
0.48157862 -0.04760003 0.39402512
0.67407972 -0.13362257 -0.28848961
0.19488968 0.08670399 -0.19935766
0.24969457 0.04049298 -0.27671221
-0.14740036 -0.07191630 0.49485675
-0.36341301 -0.07890058 -0.37706238
0.19791088 0.08825418 -0.14670965
-0.33957335 -0.21127063 -0.59203893
-0.64514011 -0.18062472 -0.24016014
0.41579932 0.08548455 0.16244191
0.67863166 -0.02280436 0.16129543
-0.38561240 -0.19404000 0.41224834
0.50073814 -0.08842111 0.43244085
0.12931058 -0.07463280 0.40196803
0.29801613 -0.21136481 -0.38506100
0.63650203 -0.09028465 -0.48414332
0.27305475 -0.19938365 0.45416093
-0.57848442 -0.13890670 0.13749819
-0.23859781 0.08485990 0.31466082
0.14860903 0.10956995 -0.26018214
0.73129117 -0.14889587 -0.07279177
0.56413913 -0.02066301 0.30110523
0.12512212 -0.00833832 -0.35640323
-0.15203775 0.12609281 0.25613549
0.27470973 -0.13151579 0.56156510
-0.43952554 -0.13035540 0.48606515
-0.30243638 0.12381323 0.28620395
0.57734388 -0.12272412 -0.50425959
-0.03886553 0.11081061 -0.43096295
0.57435048 -0.11865376 -0.33308104
0.68640536 -0.09421702 0.34066039
0.73629624 -0.16735323 0.53424144
0.78310692 -0.17863357 0.33556691
-0.23902270 -0.04421487 -0.44947657
0.25410336 -0.00633946 0.29887354
0.23639268 0.22542827 -0.21321529
0.23842280 -0.21385950 -0.40911880
-0.75981373 -0.21332917 0.05171145
0.73632568 -0.13735440 0.51104701
0.19816855 -0.00732618 0.31290537
-0.32002309 0.25612772 0.00295049
0.84625798 -0.13849759 0.42094791
0.04325756 0.06847639 0.47167739
-0.64619559 -0.12986447 -0.32084164
0.50608724 -0.01301946 -0.36233073
0.20682296 -0.20594189 -0.33386925
0.30188003 -0.16339703 -0.27780989
0.31408194 0.07764929 0.12344409
-0.59681791 -0.10078153 -0.01352042
0.73598385 -0.06397089 0.27637523
0.28616786 0.11860887 0.29260182
-0.61804914 -0.16504936 -0.47267461
-0.27068561 -0.12675738 -0.51109779
-0.07639247 -0.12053950 -0.43126208
0.34038574 -0.15348241 0.56044817
0.46467230 0.13014188 -0.23539314
-0.41095814 0.13893971 0.10128178
-0.58091295 -0.16919366 -0.07619503
-0.55866653 -0.13783348 0.32189992
0.69634336 -0.05569730 0.14825383
0.70272368 -0.09608649 0.27789870
-0.40057868 0.13576907 -0.09449373
0.53539383 -0.00931725 -0.60353816
0.75331891 -0.21063030 0.26297650
0.18166772 -0.19215231 -0.57692230
0.37106234 -0.14074264 -0.42913949
0.75494838 -0.13044348 0.54048902
0.39234301 -0.09986196 -0.59125572
-0.42145497 0.08214304 -0.24773797
-0.17858697 0.04302215 0.51566398
0.07882468 0.02787075 -0.44773492
0.58442402 0.06487551 0.23274815
0.17402139 -0.12904271 -0.48482215
0.27624041 0.11871878 0.08725806
-0.43919730 0.09935167 0.21418963
-0.38825956 0.05360432 -0.42907485
0.34980845 -0.02370134 -0.33611244
-0.15885830 0.11876790 -0.41962075
-0.19433968 0.13676271 0.44442064
0.31949899 -0.10128218 -0.27691907
-0.33432072 0.13909875 -0.08638282
-0.32944217 0.08063289 -0.10864888
0.37004006 -0.00594993 -0.27035159
-0.77793932 -0.16556962 0.06385001
0.39211065 0.11382086 -0.16322367
0.17942627 -0.13892788 -0.39307255
-0.25180495 -0.05012008 0.46971351
0.60963064 -0.12408842 0.50889355
0.68053818 0.03843907 0.04044179
-0.28077909 -0.21178845 -0.59120464
0.34862727 -0.21350062 0.55090630
0.46471360 -0.15476158 0.61645639
0.03912364 0.17523979 0.05443613
-0.29916623 -0.14018571 0.52040136
0.16199274 -0.12652183 0.42275766
-0.20835906 -0.20958993 -0.55854768
0.70745599 -0.14217377 -0.01159533
-0.58471364 0.08570931 -0.19616432
0.43006408 0.12180531 0.29949790
0.46302071 -0.20701832 0.58361530
-0.53877920 -0.10615459 0.23038749
-0.63488007 -0.15221308 -0.04560689
0.40848383 0.08304943 0.04582646
0.12780198 -0.17615588 -0.50818527
0.26942450 -0.14425348 0.38656285
-0.09229844 0.11274191 0.18100785
0.22134706 0.07388812 -0.02687145
0.47502261 -0.00765362 -0.44974685
0.86259878 -0.16430233 -0.30048633
-0.35328025 0.07935305 0.24301422
-0.53819299 -0.09680957 0.29758120
-0.38063049 -0.10595565 -0.40557384
0.21577227 -0.05250639 -0.28883398
-0.53997934 -0.14774905 0.29125929
-0.30226001 -0.13451464 0.45489654
-0.03208620 0.10808854 0.48437488
0.12377578 -0.20637655 0.60052532
-0.05905078 -0.13199931 0.52121317
0.83809417 -0.13628556 0.19528596
0.68843615 -0.21310619 0.56965941
0.33782178 -0.07059550 -0.31477609
0.71011293 -0.17432816 0.24243636
-0.55500090 -0.02627348 0.18328500
0.43447131 -0.06107341 -0.50656080
0.10019683 -0.15763181 -0.52274150
-0.32975441 0.28558028 -0.11775444
0.04694510 -0.19839503 0.49604607
0.12535030 0.18654473 -0.20522983
-0.30360997 -0.16136551 -0.49294686
0.28797081 -0.14789622 -0.42264959
0.69960821 -0.03865984 -0.31825975
0.14437407 -0.15944396 -0.34969974
-0.63760221 0.01838688 0.00210640
0.84431982 -0.14441481 -0.09421030
-0.24997237 0.21292078 0.16201764
0.79206061 -0.14960125 0.01001598
-0.56038034 -0.15230565 -0.33149189
0.42553627 -0.02235536 0.35003492
-0.02912910 0.04098662 0.50426900
-0.08921555 0.31140250 0.23537803
-0.54897541 -0.00589337 0.28984702
0.17045702 0.04280543 -0.38465998
-0.32444760 -0.14138305 -0.47767383
-0.11322951 -0.12216254 -0.43431422
-0.05919651 -0.17842916 -0.44826812
-0.38750648 -0.06959826 0.38965377
0.65434998 -0.12702984 0.46604541
-0.63775593 0.01022525 0.05187288
-0.17919564 -0.09270743 0.47412699
0.07375304 0.00187202 -0.39078680
-0.47113422 0.01752037 -0.29225534
-0.43001652 0.08994706 -0.33292544
0.43786234 0.10266015 0.25782877
-0.00019374 0.11868322 0.27055532
0.65287393 0.06750131 0.22370327
0.18938248 0.19918692 -0.22086900
-0.32309729 -0.06316996 0.42669579
0.78610426 -0.20859572 -0.38129237
-0.12536629 0.27749166 0.19202776
-0.42007369 -0.13247909 0.44947678
0.37296632 -0.16634011 0.47373918
-0.55890024 -0.11544801 0.16262200
-0.75839198 -0.13672507 0.03897687
0.56110716 -0.20742828 0.51268542
0.61874372 0.09500787 -0.00815552
0.63657755 0.01222161 0.34087759
0.58229995 0.08701812 0.25153205
0.71134627 -0.16482110 0.02007237
0.21364020 -0.21718571 -0.44300348
0.79692954 -0.12708177 -0.15516941
-0.28706574 -0.10735813 0.49574077
0.56567705 0.03222213 0.28721398
-0.60839331 -0.21305710 -0.46640015
-0.28991121 -0.16475500 -0.42700049
-0.06113674 0.24494228 0.23691830
-0.54138696 -0.09237616 -0.20135501
0.62270975 -0.20105621 0.42423564
0.58213031 -0.17489186 0.47009781
0.75413996 -0.11109900 -0.05918414
0.52949482 -0.21020499 0.55289108
-0.60709649 -0.16295221 0.23429382
-0.22896671 0.18400140 0.20064270
-0.51648319 0.07300586 0.01472102
-0.04934126 0.09447730 0.17703024
-0.05566641 -0.00390014 0.46810779
0.85871041 -0.18895216 -0.15640843
0.74684489 -0.04861031 -0.20723321
-0.13478556 -0.01394125 0.51035273
-0.45193955 0.14601088 -0.04335420
-0.41149256 -0.19922978 -0.52022994
0.34148610 -0.05111868 -0.27500591
0.71570730 -0.13652115 -0.40434718
-0.44805685 -0.20464343 -0.45955569
-0.04047670 0.05692663 -0.44567585
0.34314978 0.09111616 -0.12755878
0.12313088 -0.18026640 -0.55919790
-0.11775839 0.00079994 0.46061310
-0.02636778 -0.14744359 0.55351126
0.15688543 -0.14670558 0.38939992
0.44941348 -0.09144348 -0.52532911
-0.77272809 -0.21174371 0.03799922
0.33531091 -0.13833465 0.32301548
0.00243127 0.16549301 0.13939098
0.37900969 -0.09375647 0.37927842
0.32512614 -0.14087667 0.37394404
0.21849497 -0.12690814 -0.55079240
0.73333013 -0.02743592 -0.06778821
0.33539274 0.02345295 -0.32275507
-0.03608191 -0.13207446 -0.46501046
-0.40453508 -0.06354525 0.44465801
0.42920601 0.14145216 0.20510575
0.18268226 0.07394122 0.31441715
-0.23862579 -0.10676372 0.49107692
-0.64311975 -0.19279554 -0.19322342
-0.46128690 -0.15945014 -0.30252889
-0.01000996 0.09185239 -0.23900464
0.07616457 0.12147786 0.34597525
0.54095769 -0.14110312 0.53749388
0.01730913 0.24700755 0.24272861
-0.28756618 0.13526738 0.36858729
0.49763906 0.11884347 -0.29924285
-0.06588464 0.16621491 0.24613623
-0.38619453 -0.19603813 0.45861304
-0.20766802 0.11634785 -0.32033846
-0.30920950 0.21144474 0.07137117
-0.09732044 0.31767958 -0.19980851
-0.09559737 -0.01142476 0.47555789
-0.32321042 0.09691442 0.00449218
-0.36602637 0.10127883 0.24411409
0.65429908 0.03440629 0.03618242
0.57587081 0.11919447 -0.12442668
0.34958073 -0.14993300 0.34292448
-0.39852890 0.08037953 -0.00030117
0.05934299 -0.18285465 0.67818642
-0.36228451 0.08655537 -0.11743721
-0.57248157 0.10383445 -0.20832261
-0.56643158 0.03132358 -0.15359218
0.80954552 -0.21211639 0.43837416
0.21172418 0.03712883 -0.31363192
0.75100517 -0.11405566 0.28862497
-0.32523900 0.22423430 0.13648610
-0.52204704 0.13762020 0.17415220
0.64907777 0.07427707 -0.18083857
-0.25554121 0.24249680 0.19013587
-0.07243710 0.01934167 -0.48858672
0.34982044 0.09107111 -0.30648071
0.28617689 -0.19480707 -0.62220436
0.33323798 -0.08207914 -0.63099027
0.71035653 -0.13950956 -0.36658058
0.49109587 0.08418864 -0.02052591
-0.42047650 -0.13806497 -0.44300801
0.08542732 -0.17824055 -0.62559885
0.34738454 -0.01634050 0.29223895
0.17656995 0.04702275 0.37803698
-0.19400261 -0.12928155 -0.51117301
0.64745003 -0.21490029 0.50754750
0.59645021 0.10352921 0.26077223
0.52300841 0.04834098 -0.26700667
0.66176695 -0.13083367 -0.38056150
-0.52407801 0.00774493 0.24723949
0.64748067 -0.10611488 -0.36742097
0.62962878 0.01394155 -0.30957019
-0.26523376 -0.20742342 0.64602828
-0.29512915 0.12769717 -0.37289050
-0.06219724 -0.00000559 -0.48474520
0.29598010 0.02953806 -0.30220184
0.31370974 0.14174309 -0.12364641
0.05279996 0.30671355 0.01669159
0.26997399 -0.07020111 -0.28537005
-0.11508717 -0.21167317 0.67917198
0.15953055 0.09234814 0.19597661
0.49996531 0.11385720 -0.06786507
-0.49910092 -0.08363298 -0.34576297
0.06768532 0.06381872 -0.39475468
-0.32533681 0.07355482 -0.30842921
-0.23285767 0.07399431 0.23202221
-0.47947329 -0.17139913 0.48731226
-0.13027619 0.13592219 -0.37390172
-0.37942505 0.11012474 0.41125187
-0.02796642 0.31486171 -0.13598090
-0.47732276 -0.21474895 0.33482853
0.31419286 -0.18921113 0.29343030
-0.57461959 -0.12944637 -0.16597132
0.53645176 0.06373572 -0.27279812
-0.24803320 0.07659894 -0.19175193
-0.34479436 0.00201849 0.46869448
0.64444327 0.07659447 -0.27011234
0.17671703 -0.09834760 -0.31649268
0.38665691 -0.04290763 -0.61143196
0.16816628 0.26517880 0.22702596
0.06454653 0.20043220 0.07729700
-0.35155997 -0.12624633 0.45479882
-0.28938895 0.00813304 0.49591529
0.74894506 -0.14247118 0.26055789
0.78351194 -0.15105063 0.35929474
-0.10199825 0.11882778 0.38629672
-0.12241934 -0.20439181 0.47190216
0.53482699 -0.00291084 -0.31157941
-0.63470387 -0.13973472 -0.33405012
-0.44466862 0.11244310 0.10052594
0.22887975 -0.21512285 -0.35592157
-0.29920590 -0.07556433 0.48904449
-0.72828996 -0.15340878 -0.15971044
-0.64670843 -0.20846346 0.10571092
0.33368248 0.07502185 0.03540312
-0.45559499 0.00877634 -0.36174613
-0.72582763 -0.21080905 -0.16467036
0.10273555 0.08575686 -0.24644420
0.24704230 0.08345102 -0.20134024
0.32078168 -0.15221287 0.46179664
0.73190546 -0.19692491 0.23956352
0.05582472 -0.13291790 0.46763757
-0.44010183 0.12230521 0.05520387
0.70047700 -0.19955993 -0.39241335
0.41039172 -0.09548953 -0.53264153
-0.10506669 0.28637058 -0.21735911
0.59497631 -0.12583691 0.44489855
0.21454783 0.18680239 -0.12959218
-0.17379375 -0.21251813 -0.56546831
-0.68563306 -0.14634489 0.11102281
0.48058188 0.03532575 0.31208220
0.08579015 -0.20622522 0.50691313
0.40966249 0.07965945 0.07971963
0.63103139 -0.02683106 0.34801069
0.17644933 0.13607191 0.29579663
0.09197179 0.07891865 -0.05607390
0.04891812 0.09555057 0.01504475
0.48420522 -0.00063428 -0.63113010
0.84915805 -0.18130279 -0.41494617
0.66134852 -0.10636751 -0.30412003
-0.29004210 -0.11526208 -0.44787803
-0.66784286 -0.15825570 0.09455836
0.02592975 -0.14741983 0.44021529
0.64779425 -0.11093383 -0.32999364
0.70865643 -0.12335321 -0.01824355
-0.34425759 -0.00658246 0.40671512
0.57946205 0.05683406 -0.02413378
-0.66846395 -0.21123692 -0.11654572
0.53031564 -0.05245708 0.44443029
-0.01740977 0.14598522 0.24751037
-0.27561972 0.01343291 0.44391602
-0.10466212 0.08096070 0.30096632
0.51637876 0.12774558 0.04200764
-0.65036273 -0.11865552 0.06172686
0.71845430 -0.17473060 0.12755468
-0.59081089 -0.20894220 0.02892344
-0.03346679 -0.13844725 0.51561522
-0.47666836 0.00055072 -0.37126675
0.05273893 0.15996248 -0.23778373
-0.24740946 -0.12740450 0.65159637
-0.11049093 -0.12252872 -0.50315136
0.14051880 -0.14070614 -0.47011784
0.67431545 -0.01305947 -0.32223192
0.21101823 -0.21188730 -0.47142571
-0.11898887 -0.04857877 0.51084930
-0.61265808 -0.04177748 0.12252066
-0.63581628 -0.19517592 0.14908074
-0.40138960 -0.16196203 0.62121040
0.44766068 0.07559289 -0.15018362
-0.11282638 -0.14387012 0.55475301
0.06326954 0.21128926 -0.11183049
-0.35069659 0.24891944 -0.03466833
-0.54564476 0.05378754 -0.27243271
0.52767998 0.09358023 0.01124880
0.72955042 -0.21248263 -0.38315034
-0.57152116 -0.03910503 0.15436229
-0.31320676 0.09403896 0.03222876
-0.06046498 0.07474616 -0.21265025
-0.45239738 -0.21456596 -0.52045512
0.44235572 0.08639564 -0.28316113
0.15286390 0.07691791 0.02030470
0.26296258 0.08313759 0.34528133
0.59631270 0.05160446 0.08323559
-0.52661890 0.04889494 -0.31418303
0.64564449 -0.20278305 -0.55456960
0.25738680 -0.20888466 -0.32974270
-0.74475342 -0.21165636 0.14996214
-0.33078694 0.13261467 0.40734720
0.24662215 -0.14472161 0.50303537
0.70009398 0.02746744 0.01295924
-0.22347690 0.26333809 0.21827906
-0.02573650 -0.12877098 0.60342550
0.40567946 -0.20791355 0.55589336
-0.43270263 -0.13726500 0.61907750
0.84077585 -0.13381828 -0.30408064
0.42927489 -0.07301807 0.48312482
0.11547735 0.20644408 0.16277748
-0.44411409 0.01709037 0.41249651
-0.40312153 0.08885632 0.37774897
-0.59703928 -0.09839775 -0.05315998
0.60300785 -0.17925441 -0.49489784
0.67033625 0.04213150 -0.27065760
-0.41735706 0.00296555 0.36300942
-0.46649000 -0.09627661 -0.37322351
-0.78505319 -0.20906249 0.10456619
-0.21066289 -0.21012935 0.66258174
0.30418411 -0.12939091 -0.38315707
0.32571927 -0.04750052 -0.32034209
-0.31389448 -0.21443895 -0.58046466
0.71361911 0.01159574 -0.01208539
-0.51756823 -0.07976814 0.24537945
0.23428607 0.07242040 -0.04974613
-0.33097985 -0.09635790 -0.39453444
0.84688139 -0.19460383 -0.13151784
0.79636264 -0.21146390 0.27398974
-0.55562603 -0.13735078 -0.15285514
-0.22841832 0.13676605 0.24329223
0.17527530 -0.19676732 -0.62435782
-0.12968975 -0.18035558 0.69255114
-0.04361636 0.13755032 0.24175207
0.17999956 0.07709018 0.11828989
0.59472847 -0.14858714 -0.39780268
0.06188794 -0.20682541 -0.40243220
0.11238678 -0.12478803 -0.42651263
-0.59744477 -0.17875698 0.07677558
0.27624133 -0.18917821 0.48142067
-0.57754070 0.06162876 0.21775253
0.65993434 -0.11206192 -0.38406229
-0.10694751 0.09410318 -0.38321128
0.38732290 -0.12973920 0.43083614
0.16186389 -0.07166007 -0.37997866
0.22306533 0.04864828 0.31263304
0.42578828 -0.08775844 -0.29914585
-0.40748361 -0.15245046 0.46655414
-0.38785392 0.12784694 -0.38035414
0.71941847 -0.21263376 -0.31719008
-0.63713109 -0.00254450 -0.01203860
-0.07019705 -0.15054169 -0.45566604
0.63715386 -0.09049228 -0.30221647
0.80052745 -0.21319619 0.48344934
-0.57112300 -0.20926273 -0.24545386
-0.11360389 -0.20798275 0.48993641
-0.59068865 -0.19692363 0.25315997
0.69745028 -0.06051848 -0.25226912
0.30709502 -0.18418875 -0.62225717
-0.60342902 0.00278224 0.01248659
-0.64128804 -0.15353954 0.21413504
-0.08322015 0.09228072 0.39513379
0.23772345 0.08356676 -0.08283545
0.13679621 -0.14145479 -0.42407823
0.37175763 -0.21288633 0.57573777
-0.19397365 0.19025612 0.20748347
0.67620003 0.01272177 0.32389909
0.74713373 -0.04640006 0.25980768
0.20616174 0.01821272 -0.36443332
0.22042845 -0.05689654 0.31021366
0.76853216 -0.20085086 -0.30149060
-0.20689452 -0.06536365 -0.48614955
0.54104930 0.07990727 0.22203872
-0.59730953 -0.14173989 0.33296064
-0.39567953 -0.05077705 -0.41197062
-0.28717202 -0.20326945 -0.46637258
0.86465466 -0.19712545 0.30903572
-0.52882010 -0.14568044 0.49292952
0.00705056 0.08705391 -0.37619948
0.32676730 0.07882719 0.15177289
-0.34868214 0.19674790 -0.03705609
-0.12152842 0.15435408 -0.18467852
0.78969336 -0.15920143 -0.46897864
-0.58669668 -0.04489265 0.03414919
0.70874137 -0.13987535 -0.16662651
-0.24514240 0.08413444 0.40292463
0.29238433 0.15514722 -0.21733519
-0.48368937 0.05362478 -0.32510599
