-0.16381949 -0.01444337 0.40398291
0.15248108 -0.17843775 -0.40701938
-0.34878644 -0.32310593 -0.18109854
0.33900857 0.05520970 0.07215707
0.37504944 -0.07119834 0.31339899
0.35075355 0.10250007 0.03465521
-0.42904592 0.63960266 0.01242376
-0.23226398 0.01410323 0.31354803
-0.00671729 0.13611670 -0.02183500
-0.35901257 0.14226814 -0.18665217
0.28477994 0.33249584 -0.21365167
0.45288515 -0.21451096 0.27304044
0.42270079 0.02166938 0.05155548
0.42988843 -0.39129612 0.00197286
0.44168931 -0.40477288 0.04560363
-0.30827117 -0.59093332 0.28720304
0.28337973 0.18317360 -0.20681787
-0.27657917 -0.83940583 0.20797974
0.21336350 0.08854311 0.10209712
0.24261713 0.74357718 -0.15509105
-0.09875309 -0.01898087 0.27962643
-0.40147561 0.49579000 -0.07488064
-0.22835255 -0.48440555 0.34972820
-0.04442909 0.13773568 -0.13542399
0.46842530 -0.16497923 0.29192740
0.08870013 0.15076099 -0.16778940
0.09798185 0.21535648 -0.25737345
0.17360464 -0.01150749 0.35471511
-0.14846614 -0.13076746 0.42466664
0.13845283 0.91684061 -0.11745115
0.33652422 -0.29911396 -0.16063318
0.08506703 0.10740865 0.06744786
0.26635218 -0.26545104 -0.36272529
-0.20526414 -0.40086454 0.35251737
0.12410562 -0.12325279 -0.41972521
-0.17813559 -0.10037182 0.44294131
-0.43084460 0.84972250 0.07732891
-0.10614529 0.05061391 0.18299669
0.32417342 0.14857796 -0.17457628
-0.30213428 -0.01353452 0.27751264
-0.29614851 0.08189825 -0.10408177
-0.32746771 -0.41129214 -0.34821606
-0.43292487 0.63480854 -0.02419363
0.29520932 0.06714331 -0.07575010
0.00165193 0.05443508 0.05814885
-0.29421455 -0.42454684 0.17699242
0.30492392 0.89186800 -0.15974915
0.19433656 -0.26819834 -0.51179636
0.37687278 0.04485126 0.18278265
0.41216609 -0.35536966 0.14606988
0.12992114 0.16089864 -0.18894619
-0.28394410 -0.92659050 0.23577142
-0.28710645 -0.18241638 -0.25555721
-0.25068754 -0.02352069 0.44026309
0.38208562 -0.03435249 0.36845940
0.49713889 -0.04570826 0.31434262
-0.26007682 -0.79741615 0.28542310
-0.23271729 -0.08992624 0.39175692
-0.17272997 -0.00781257 0.35151318
0.40620324 0.08374228 0.04135987
0.18754150 -0.02010857 0.40742147
0.26891071 0.27369687 -0.21424414
0.12065557 0.01814895 0.31720504
0.21532041 0.87623423 -0.12815590
0.22542214 0.17019843 -0.24539308
0.25982344 -0.01113080 -0.34851345
-0.16157429 -0.19956066 -0.34911782
-0.22745256 -0.16434728 -0.31077775
-0.04126635 0.08408930 0.00463387
-0.33422649 0.05999138 -0.22804463
-0.25648537 0.09277941 -0.01948270
0.45501012 -0.70305157 0.08752327
0.41641396 -0.11172649 0.26673535
0.28163356 0.28284311 -0.24261770
-0.06674711 -0.02315236 0.37941948
0.29118848 0.15424787 -0.24774368
-0.29645273 -0.46294436 0.12168232
0.26315707 0.08136147 0.00258929
0.29472113 0.53011155 -0.21537182
0.39748314 -0.38756424 0.08248433
0.01171273 0.71997863 -0.11541304
0.27838472 -0.41563168 0.21999419
0.35068387 0.88880348 -0.09415805
0.31763598 0.72615784 -0.12117647
0.35644075 -0.35469514 -0.11773048
0.28410807 0.40607926 -0.17980808
0.33524141 0.13271016 -0.06806145
0.08505716 0.43465370 -0.17921206
0.24281968 -0.24252588 -0.40884328
-0.35954866 0.80845946 0.00172682
-0.20065349 -0.17135940 0.44439423
-0.34819391 -0.13959107 -0.28544888
-0.28454050 -0.29282904 0.40816036
-0.26744315 -0.23466675 0.37468985
0.41900459 -0.09687142 0.28536403
-0.16176029 0.69923097 -0.10935262
-0.11191599 -0.19834392 -0.32019189
0.17124988 0.87360007 -0.12867492
0.32880536 -0.38636100 0.21885699
-0.33265570 0.37409261 -0.05430583
-0.06292606 0.01665488 0.31090096
-0.22302262 0.66215527 -0.09420542
-0.20391835 0.03098489 0.15977085
0.22529827 -0.52385336 -0.59219950
0.24281666 0.04724742 0.11538234
-0.47450572 0.81713396 0.04495004
0.25422603 -0.03804827 -0.32954168
-0.27788138 -0.21340758 0.39143127
-0.05963296 -0.13797243 -0.36694440
-0.25511327 0.03790727 0.25639161
-0.27040806 -0.10514621 0.38119096
0.01292427 0.15829885 -0.09845736
0.46661752 -0.47717491 0.16589734
0.25546947 0.50748384 -0.20285447
-0.25497234 -0.74645281 0.29481718
-0.17891194 -0.03195497 0.31997570
-0.30097413 -0.54942548 -0.47114015
-0.23664765 -0.35011908 0.33417410
0.08066291 -0.12233590 0.39170361
-0.05144246 -0.05716039 0.46315044
0.07062361 0.01363699 0.30509302
-0.22021915 -0.12135231 0.44445437
0.34508902 -0.05071520 0.30415398
-0.31276432 -0.57940894 -0.47897696
0.12585676 0.16207390 -0.13993944
-0.47304508 0.83024681 0.01504164
0.11472499 0.09874974 -0.00382421
0.20665555 -0.32263005 -0.54905760
-0.38434699 0.74139339 -0.00645091
-0.02273538 0.12977637 -0.03534991
-0.09194975 0.90530670 -0.08156163
-0.06198040 -0.14969748 0.40141469
0.24319173 0.71185637 -0.14865893
-0.36090854 -0.07420076 -0.24127664
0.24911815 0.55367798 -0.14179711
0.35222682 0.88947636 -0.14322482
-0.09007169 0.05463850 0.14699452
-0.42254138 0.63847786 -0.04328391
0.04417010 0.10039143 0.07104856
0.18514697 -0.02763137 -0.38411051
-0.34249955 -0.23655413 -0.25968277
-0.26945186 0.88720363 -0.04630635
0.43961722 -0.38654104 0.12259938
0.38322341 -0.09431569 0.29517636
-0.36729288 -0.37029821 -0.37692344
-0.21795739 0.00308202 0.28677672
0.07891406 0.19381939 -0.17333290
-0.16782725 -0.06079392 0.38448647
0.29977858 0.08550922 -0.05616841
-0.14673494 0.06565215 0.16738200
0.25662816 0.11188892 -0.26254112
0.42177168 -0.40444881 0.12912035
0.23528531 -0.40677685 -0.55955952
-0.12428875 -0.02308547 0.41747266
-0.01363214 -0.08490098 0.39010116
0.22950967 0.18308668 -0.20291448
-0.32946706 -0.33207497 -0.22035825
0.10868289 0.67929554 -0.14085707
0.22460671 0.04317843 -0.28947172
0.41774070 -0.23389837 0.20434579
0.27484363 0.29920053 -0.26332599
-0.29931873 -0.56764078 0.26943085
0.11910836 0.02689767 0.28379098
0.30618280 0.47006109 -0.18818206
0.24835375 0.46470213 -0.23153763
-0.10611897 0.41958523 -0.16400732
0.16909923 0.88456541 -0.11312409
0.36967775 0.14614607 -0.09319203
0.02963294 0.12326343 0.00468925
-0.07527439 -0.07970090 0.40601608
0.35600933 0.02986700 0.04087035
0.34391776 0.09111492 0.01473980
0.24262911 0.26302204 -0.20754969
0.11929397 0.04889774 0.20338929
0.29605103 0.43772966 -0.18373314
0.22387858 -0.18000591 -0.40136766
0.27442202 0.80170494 -0.13043815
-0.31016165 -0.68764585 0.26969582
-0.23585233 -0.04936433 0.30978337
-0.31553549 0.12395774 -0.04668073
0.02172380 0.02645747 0.15032116
-0.13230155 0.04288839 0.10401265
-0.03568121 -0.44279560 0.30140862
-0.19577253 -0.08422919 0.43968785
0.30151102 0.15985252 -0.12353399
-0.46440804 0.75666428 0.05259235
-0.30536160 -0.16898772 -0.31835234
-0.24931473 -0.00433634 0.23425201
-0.34376511 0.10573447 0.06501497
-0.30567500 0.84819138 -0.01749917
0.27364340 0.12464995 -0.26193309
-0.14753668 0.12512952 0.01686434
0.42328000 -0.21759330 0.19899639
-0.29626939 0.03747502 0.21898571
-0.24707678 0.17119832 -0.11437967
0.45053825 -0.00481617 0.34330440
-0.20183015 -0.42099744 0.31488428
0.35154891 0.10487714 -0.13105492
-0.03409254 -0.09333884 0.41423982
0.19678146 0.16881835 -0.28603679
0.01861944 0.01781375 0.31257704
-0.32858735 0.14537936 -0.10022286
0.35576403 -0.03258832 0.33199289
0.32279190 0.65937328 -0.13334671
-0.35509416 -0.20176199 -0.33104968
-0.04590047 -0.02656437 0.35083672
0.23730052 0.50972831 -0.21239415
-0.26166183 -0.05703522 0.44119316
-0.33189479 -0.44870687 -0.34824145
-0.26402020 0.11000615 0.04135831
0.23086098 0.20194845 -0.18668605
0.16898011 -0.39680576 -0.50087106
0.29208022 -0.32778785 -0.17588839
0.25431231 0.13587710 -0.10207520
0.18873163 -0.38852951 0.23394531
0.24631356 0.17623284 -0.31477880
0.32474640 0.17967074 -0.13163760
-0.27028859 -0.45784810 0.22391516
0.23123458 -0.39700416 -0.53190529
0.09663238 -0.00959585 0.27117220
0.24302247 -0.01229858 0.40017641
0.24688384 0.06981642 0.15828189
0.34922105 0.07903536 0.13298988
-0.19416006 0.45095339 -0.12685388
0.26272923 0.16917773 -0.32207948
-0.22356294 0.09087766 -0.02230046
-0.26262292 0.04095403 0.18016285
0.27243832 0.08909903 0.12430426
0.13636541 -0.40506506 0.26241475
-0.29500285 -0.03060671 -0.19251767
0.44767094 -0.81059891 0.06494080
0.17331117 0.17027894 -0.23529722
-0.38875061 0.20150377 -0.13300723
0.42299458 -0.04874178 0.33421180
0.40488973 -0.41007286 0.07537830
-0.15973954 0.47601268 -0.14886826
-0.26124653 0.14051938 -0.08636653
0.28812695 0.64822578 -0.12523127
0.22051176 0.20003727 -0.31328121
-0.23675832 0.10679246 0.02197824
-0.28469136 -0.16904572 0.46200693
0.47810522 -0.30824596 0.23486134
0.32847455 0.67725325 -0.15063360
-0.28868273 -0.01639385 0.39018282
-0.29465866 -0.77402097 0.23182133
0.24582919 0.12807435 0.01255098
-0.14606126 0.88057524 -0.05675270
-0.35085642 0.50808620 -0.01635282
-0.37840363 0.14590839 -0.17927155
-0.28771305 -0.05617523 0.30946323
0.14515029 0.21279183 -0.25534856
-0.31347433 0.09901141 -0.12215703
0.46949139 -0.82261735 0.01688058
0.15811703 -0.42445359 -0.56821036
-0.28106856 -0.79833615 0.21214417
-0.20716992 -0.24347788 0.42607760
-0.33075076 -0.23951603 -0.33253205
-0.31831402 0.01059950 0.05219671
-0.11889446 -0.44077480 0.28869513
-0.44001719 0.87408584 0.06095280
0.30127457 0.16315302 -0.08337644
0.17501567 0.85406905 -0.13033760
-0.44454756 0.81695145 0.06817403
0.37855363 0.06306121 -0.04974254
0.44087529 -0.66911370 0.09037662
0.46003750 -0.12924020 0.23245648
0.21746850 -0.04755402 0.34322155
0.31148615 -0.00694192 0.24249193
-0.04565303 0.07028353 0.03847173
-0.22207089 -0.66607386 0.29897243
-0.17494541 0.06261092 0.07420990
0.47717842 -0.13083853 0.21416965
-0.15112378 -0.07873503 0.46200967
-0.22301145 -0.00030614 0.22937742
0.29665473 0.51178139 -0.18856883
0.20425138 -0.35562590 -0.56909531
-0.05185514 0.11798774 -0.07119597
0.39082277 0.10116761 -0.01692735
-0.26671186 -0.38214713 0.32296473
0.18878001 0.04446226 -0.35328138
-0.32007542 -0.22241910 -0.33184633
0.29314288 -0.06002861 0.35335231
0.04745525 0.06421357 0.05678941
0.49046665 -0.59615129 0.10952696
0.12928024 0.46669185 -0.17408937
0.21960296 0.28221983 -0.26330954
0.07902275 0.21720774 -0.25388029
-0.23488431 -0.28829741 0.34481120
-0.07192795 0.12894906 0.00101157
-0.18738353 0.88723290 -0.06759278
-0.27372184 0.40521449 -0.10307995
-0.24059322 -0.20085117 -0.31431597
-0.28974080 -0.75108325 0.28896883
0.00877525 0.68080062 -0.13262570
-0.11158675 -0.02901840 0.30151707
0.30296755 0.82583785 -0.08972491
0.25877431 0.63791442 -0.15774977
0.25040537 0.07431148 -0.36078799
0.06329827 0.47848529 -0.20326409
-0.30254075 0.00128572 0.36894408
-0.10382774 0.04793035 0.12845001
0.40564504 -0.04705323 0.23554319
0.19677834 -0.00507007 0.28682637
0.27396464 0.13331872 -0.17724201
-0.15875472 0.07195868 0.04343240
0.34759408 0.02543452 0.17599136
-0.17037542 -0.02401575 0.29461986
0.45462179 -0.10140386 0.23368126
-0.35933506 0.27558190 -0.07551743
-0.40022072 0.85027194 0.02451758
-0.21319249 -0.01099439 0.25561950
0.36981395 -0.04630350 0.38501981
-0.10474162 -0.16077040 -0.31700632
0.08905436 0.00790508 0.21315002
-0.20547958 0.05833685 0.09947966
0.27139264 0.89137352 -0.09813822
0.43660635 -0.54356533 0.15723586
0.28224084 0.80827874 -0.15561435
0.26396573 0.56825888 -0.19430608
0.45700234 -0.79485285 0.03571609
-0.35337800 0.00627008 -0.22720237
-0.35906798 -0.07603205 -0.27190670
0.36596245 0.02497713 0.27922574
-0.07171374 0.16630968 -0.11014830
0.42342907 -0.51857150 0.10396203
-0.36349916 0.07833935 -0.13807085
0.13644971 0.68969709 -0.16174582
-0.17792794 0.85758024 -0.06021488
-0.28841549 -0.40667027 -0.02854693
0.23083879 -0.12654561 -0.37446350
0.18182354 -0.45604393 -0.62938786
-0.13419232 0.02409301 0.29474610
0.21985744 0.01924757 -0.38637519
-0.25432828 0.11589114 -0.09479643
-0.31890494 0.05340216 0.21010032
-0.02383158 0.03086527 0.27754870
-0.25271708 0.16115907 -0.15260398
0.24565807 -0.25068852 -0.47128594
-0.39258632 0.71275932 0.05106290
0.27516145 0.54561722 -0.21992473
-0.17193845 -0.43659347 0.33532444
-0.10678807 -0.09661585 0.44508886
-0.27853382 -0.47670963 0.14988923
-0.29148352 -0.43799019 -0.38865945
0.19506401 -0.11529511 -0.43601334
-0.26011050 -0.01874791 0.27301228
-0.22129780 0.01951155 0.17948076
0.45633587 -0.67596275 0.11093739
0.16140117 -0.00057290 0.34496921
-0.14493120 -0.04902472 0.34707907
0.08208704 0.04911550 0.23049057
-0.35797387 -0.08654312 -0.21238859
-0.33641845 0.66246444 -0.01849598
0.44063717 0.02647055 0.27787325
-0.29493511 -0.46051243 -0.41289517
0.11090584 0.72460777 -0.14768656
0.50591445 -0.62487608 0.10376689
-0.27160233 -0.19366859 -0.29846025
-0.23352456 -0.57513911 0.27803406
0.41168660 0.06604275 0.12353380
0.27723935 0.61165839 -0.13376130
0.44168010 -0.00955463 0.19436550
0.23518732 -0.44299904 -0.56298906
-0.28652477 -0.27843347 0.37517852
0.50233865 -0.39937270 0.18096220
-0.13223037 0.06097959 0.07496502
0.06240548 0.08711880 0.04848123
0.27814075 0.84174186 -0.10656153
0.09456559 0.09472664 0.09364237
0.23069884 -0.20377968 -0.37739658
0.31895745 -0.32206959 -0.24168362
-0.40794253 0.36099413 -0.08670317
-0.25762659 0.03876483 0.13985501
0.21476731 -0.49571633 -0.63393778
-0.35984138 -0.50085980 -0.37832552
-0.39776668 0.44371817 -0.02472691
-0.30635473 -0.27184620 -0.24469195
-0.40610516 0.40276468 -0.07887555
0.12253289 -0.05387821 0.32387403
-0.30546471 -0.59187669 -0.45665735
0.04886037 0.89881021 -0.09418716
0.36024886 0.03958119 0.08775766
-0.26645207 -0.50087935 0.18858826
-0.39233220 0.28062496 -0.10626272
0.22727793 -0.04711576 0.40327755
-0.43097758 0.60738832 -0.02257222
-0.46576959 0.83809739 0.09088524
-0.37260523 0.09759632 0.01255072
-0.02502878 0.14721860 -0.04303834
0.25153774 0.00082417 0.21466148
0.24089585 -0.03263736 -0.38952842
-0.00592201 0.03587672 0.12410837
0.49911720 -0.68943924 0.05679853
0.15320747 -0.37061572 -0.51945364
-0.30951726 -0.41533804 -0.00545802
-0.05219276 0.00188228 0.21940514
0.26896822 0.92255342 -0.11808981
0.27327320 0.03310748 0.16031136
-0.23873590 -0.54106396 0.27305347
-0.11053703 -0.09386475 0.40993688
-0.03087507 0.13438521 -0.00565222
0.38515228 0.00399537 0.29845035
0.25993454 0.04130829 -0.36653271
-0.29030064 -0.07663266 -0.21992251
0.49093768 -0.43526509 0.12061466
0.10362290 0.91513950 -0.11212584
0.26856402 0.88352805 -0.13229726
0.27455750 0.21941754 -0.28466588
0.20545499 0.04967573 -0.37278539
0.08545178 -0.38381395 0.27380121
-0.31828257 -0.31160429 -0.21973751
-0.17540351 0.88693160 -0.05189547
0.23975480 0.38016406 -0.18675427
-0.32323518 -0.01413425 0.15935980
-0.28254506 -0.32183903 -0.34990409
-0.37084711 0.08190122 0.04807922
-0.28209323 0.03453054 0.11522986
-0.20900244 0.05747256 0.18126845
0.10189712 0.06331939 0.16486049
0.10551585 0.04193545 0.12378468
0.19239856 0.13113534 0.00569367
0.31469935 0.03615164 0.18194064
0.25772253 0.05415868 0.08470799
0.13101132 0.20376767 -0.24095891
0.51582623 -0.71895868 0.05876166
0.14778453 -0.38423061 -0.55142170
-0.15306033 0.15276989 -0.14589344
0.17800465 -0.25811526 -0.43465441
0.13971733 0.44420961 -0.20562221
0.47478354 -0.24392825 0.17490533
0.47355318 -0.18276054 0.19401717
0.19933401 -0.20070489 -0.47585505
-0.13454704 -0.13989498 0.45201021
-0.28533447 -0.33073276 0.38768646
0.41483828 -0.27332520 0.23183739
-0.35256261 0.02297875 0.06227711
0.27392900 0.87089813 -0.11341444
-0.37083343 0.48229873 -0.09291802
-0.17990488 -0.02018255 0.42814267
0.00442723 -0.02891482 0.29853058
0.44604132 -0.65347385 0.12290123
-0.26415735 -0.03871610 0.24415359
0.41509160 -0.30414590 0.19557586
0.04207008 -0.03061810 0.30024466
0.21533325 -0.38546097 0.21315131
0.15962566 -0.50767064 -0.59044021
0.18285525 -0.55587715 -0.59545094
-0.08977509 0.08506895 -0.01266410
0.22534347 -0.15763132 -0.43503579
0.19806089 0.14382878 -0.03979412
-0.35198849 -0.33388615 -0.34564057
0.45045429 -0.83771932 0.03909394
-0.27383327 -0.35018367 0.40982240
-0.03514089 -0.39209086 0.27594033
0.06137275 0.05171828 0.21360004
-0.25706446 -0.02020810 0.21802309
-0.26513168 -0.19535325 0.46087861
-0.29843017 -0.31320971 -0.29457009
-0.29050338 -0.47316691 0.35398659
0.30259305 0.12674376 0.01694784
-0.33404353 0.00072323 0.08960369
0.18072604 -0.49457932 -0.64631993
0.00278503 -0.07050475 0.37432256
0.12842089 0.01777130 0.25135672
-0.07430428 -0.04730624 0.39673197
-0.14005166 -0.18232667 -0.31820571
0.22913855 -0.09999213 0.36940497
-0.03168454 0.04869950 0.17947805
-0.20601091 -0.12079512 0.41306505
0.24084871 0.57419807 -0.15759501
0.42529130 -0.54988277 0.09586394
0.40965831 -0.37103760 0.17231044
-0.17428225 0.87148088 -0.04341524
-0.29907849 -0.65385365 0.30743235
-0.36701003 -0.53337663 -0.48001847
0.06974521 -0.40628591 0.26777044
-0.33524075 -0.54839939 -0.40338555
-0.20489323 -0.45777807 0.35672307
-0.15200168 0.15665169 -0.17328165
0.19588153 0.22748639 -0.27868211
0.13414647 -0.07358243 0.41650027
0.04438433 -0.03624228 0.45172650
-0.08291379 -0.03771860 0.38005239
-0.28077134 0.16272852 -0.15771702
-0.35476255 -0.25233996 -0.31769401
0.41702756 -0.41443595 0.16958982
0.29013351 0.68941510 -0.12914474
-0.06060973 -0.01112214 0.35581487
0.12188309 0.00730700 0.22961852
-0.32046017 -0.34428418 -0.39789233
-0.05567395 0.92003280 -0.09483831
0.28542668 0.19919336 -0.17510119
0.35677284 0.06275882 0.18413940
0.04083347 -0.43557134 0.28180751
0.41881719 -0.15038511 0.27110532
0.09049830 -0.17258920 -0.36970070
-0.20483972 0.11194169 0.03232382
-0.34847602 0.50604975 -0.04930343
-0.15908711 -0.45412949 0.32148379
0.22793299 0.70251620 -0.14634256
-0.27342811 0.11904728 0.00520065
0.32290357 0.80782568 -0.09389295
0.31783327 0.59923917 -0.19915786
-0.30003488 -0.40924990 -0.40605009
0.31812891 -0.06523024 0.34868822
0.15482189 0.73541927 -0.14507730
0.45280194 -0.10402673 0.31818977
0.34079370 0.15077598 -0.06789657
0.18351734 -0.09664067 -0.37481338
0.09704272 0.14777839 -0.05677563
-0.11894608 0.10069877 -0.05273248
0.46413442 -0.65524668 0.06655703
0.38586426 0.08167677 -0.04530776
0.20930536 0.24215828 -0.26896575
0.32694909 0.08779760 -0.13618295
-0.19201182 0.69115442 -0.09317904
-0.39819786 0.71031600 -0.02099463
0.38262016 -0.36411932 0.00971993
0.09504590 -0.04565823 0.35677442
-0.25031200 0.10401633 -0.05741938
0.11001667 0.18737802 -0.19625086
-0.05077045 0.87143439 -0.10278068
-0.27893582 0.02406207 0.06358658
0.43344519 -0.39389262 0.07744311
0.30746773 0.88034177 -0.08333792
0.18601933 -0.05967443 -0.38834733
-0.31149685 0.00722974 0.28961813
0.16085380 0.08241241 0.11634490
-0.29460141 -0.33916321 -0.37659428
-0.25446472 -0.43839774 0.38133276
0.20710033 0.17398597 -0.10856990
0.35999358 -0.39916179 0.20892775
0.22397627 0.85844451 -0.11375047
0.28178421 0.12315233 -0.23746118
0.01387984 0.91357976 -0.11918803
-0.33183303 -0.42979476 -0.34439769
0.06892076 0.06354046 0.14961430
0.01379217 0.18590477 -0.15277140
-0.22831365 0.44696301 -0.11258258
0.20310445 0.09540515 -0.33881283
-0.11574541 0.43880817 -0.17533001
0.17244530 -0.22136687 -0.41949919
-0.23815206 -0.82449305 0.24825412
0.41051000 0.00361848 0.09613863
-0.14179260 0.03648710 0.13299105
0.19451526 -0.24556020 -0.50650454
-0.32623625 0.21370970 -0.17629811
0.22970305 -0.34311891 -0.49710748
-0.25161150 0.00036652 0.36980116
-0.35612598 0.36228359 -0.03797335
-0.03525799 -0.02094397 0.38647002
-0.19739124 -0.10115647 0.43317133
0.24297115 0.06921211 -0.27982140
-0.30593657 0.15717734 -0.16204751
-0.00693800 0.01977525 0.31642267
0.28907105 0.74426240 -0.17709526
0.09377760 -0.42026195 0.26869810
-0.12056741 0.01572053 0.26784131
-0.23049921 -0.18146108 0.46205771
-0.06564104 -0.01362631 0.39444143
-0.30797836 -0.66361207 0.28477278
-0.22528335 -0.06855185 0.40992010
0.23636968 -0.04322423 -0.32174531
-0.33328497 0.40778464 -0.05556492
-0.33199993 -0.12044434 -0.28895974
-0.29184228 -0.11704786 -0.27916205
0.44831884 -0.61230314 0.12774070
-0.02888433 0.16202728 -0.12486774
0.20527239 -0.10362311 0.36314967
-0.14581709 -0.15316610 0.42318082
0.41095355 -0.12883405 0.29725656
0.25644070 0.20644200 -0.19210485
-0.28230494 -0.10963862 0.40707463
0.49874571 -0.37530702 0.15687789
0.48848462 -0.84107232 0.00476339
-0.24677560 -0.15204334 0.39246181
-0.24401021 -0.01524658 0.36679062
0.40858832 -0.34512931 0.17382559
0.32259461 0.62676263 -0.17940032
-0.19067819 -0.19247319 -0.32761699
0.22565618 0.36416814 -0.24477392
0.17681566 -0.52624315 -0.64560026
-0.28945854 -0.20845996 0.41146842
0.42494148 -0.06659941 0.26436388
-0.28890920 -0.46137869 0.26211506
-0.03006979 -0.20364581 -0.36645332
0.27906892 0.01675909 0.32320282
-0.00395317 -0.40365508 0.29272759
-0.29214194 -0.15336153 -0.24116273
-0.14673945 -0.07487982 0.42163098
-0.22314876 -0.02922919 0.27372405
-0.27752391 -0.08392697 0.30059278
-0.36229402 0.38718855 -0.10715905
0.06359117 0.07702659 0.10812184
-0.27878523 -0.74474931 0.21876657
-0.07999653 -0.14935167 -0.33587104
-0.29868335 -0.00234298 0.09861214
0.22563565 0.39643091 -0.24303482
0.00292588 -0.05122689 0.33571050
-0.16297792 0.01225690 0.19326282
-0.33969525 0.08115007 -0.09537594
0.30091968 0.84871000 -0.08349006
-0.03941965 0.02035606 0.21596777
0.35993853 0.11485754 0.01458405
-0.14335437 0.09088072 0.09556501
0.15395890 -0.30550957 -0.52760899
-0.28153670 -0.37201500 -0.08917511
0.48650828 -0.46583837 0.14977849
-0.27709505 -0.39373693 -0.01039751
-0.22266240 -0.35174078 0.38962457
0.20502099 0.31277093 -0.25042227
0.14816147 0.04067147 0.11951840
-0.28494632 -0.49042866 0.28689060
0.26513943 0.54774415 -0.18675429
-0.34923810 0.06702320 0.15657885
0.17169374 -0.54237694 -0.65008807
-0.21608914 -0.21783651 -0.31163645
0.27113017 0.76933527 -0.14907241
0.07085571 0.18714480 -0.25535527
-0.33832327 0.06905417 0.10310633
-0.25062898 0.02555239 0.28606331
-0.26091456 -0.90555787 0.20840284
-0.31930616 -0.31526089 -0.25964588
0.16300733 0.07194102 0.02654180
-0.41103148 0.49889508 -0.02258725
0.24206018 0.15498236 -0.22480740
-0.07148346 0.14015742 -0.03075731
-0.38432077 0.52884173 -0.07892401
0.35247791 0.01577941 0.07368295
0.02225398 0.91739762 -0.09677952
-0.31064874 -0.21627472 -0.24543978
0.07573586 0.06056417 0.19780299
0.14762351 0.01486584 0.23577440
0.32117239 0.08925253 0.03129940
0.40405571 -0.01723141 0.27466655
-0.30677754 -0.33751544 -0.08276605
-0.42022529 0.78084064 0.07140321
0.30963361 0.72898579 -0.16640171
0.26887906 0.07947481 -0.32432532
0.26559329 0.73059934 -0.16972709
-0.02061934 0.20308819 -0.18587002
-0.02502830 0.09695227 0.03422367
-0.16080324 -0.09323848 0.40709567
-0.07448190 -0.15530299 0.43078452
-0.28578103 -0.14339674 -0.25623176
-0.30417612 -0.30301917 -0.19162363
-0.25676715 -0.72613049 0.24468967
0.44473240 -0.15195860 0.22182706
0.08676005 0.11439177 -0.07147308
0.00330342 0.11351555 0.02278035
0.46084344 -0.49876010 0.07611868
-0.14974548 0.86352575 -0.05752995
0.18198778 0.02523446 -0.33596015
-0.23483184 0.70328903 -0.09578580
-0.29350960 -0.67798692 0.25339979
0.26106817 0.19173583 -0.15260288
0.10165698 0.05342176 0.10057977
0.17879148 0.03634090 0.26631388
0.18792665 -0.35130396 -0.56468594
0.47481477 -0.34894538 0.21731225
0.48262015 -0.49731046 0.16509613
0.46021342 -0.08286710 0.25210255
-0.37304163 0.35347247 -0.13003001
-0.25294995 -0.07375180 0.50301737
-0.26149938 -0.76382267 0.30006418
0.00113828 -0.43184742 0.27505225
0.05282694 0.18894051 -0.24498893
-0.30578205 -0.43171015 0.06654479
0.22803178 -0.50033051 -0.59018457
0.32076472 0.04847644 0.23601797
0.16812119 -0.14116438 -0.44679800
-0.09705103 0.69761795 -0.12898660
0.17481123 -0.42066306 -0.58022445
-0.34293112 0.11463511 -0.19696486
0.47440618 -0.85543275 0.03961678
-0.01987255 -0.00877043 0.39033225
0.44407469 -0.04143874 0.19450828
0.41804320 -0.00196757 0.22454020
0.16595209 -0.38945559 -0.57265663
-0.24177054 -0.68925011 0.31256920
0.23077810 -0.01972059 0.36668602
-0.29793215 -0.05670349 0.29529205
-0.30179837 0.11031773 -0.08422185
0.38887608 0.02208622 0.25560731
-0.33253959 -0.32246330 -0.28731829
-0.35924459 0.14070491 -0.08352287
-0.42468673 0.64625227 -0.01356270
-0.21123701 0.89661926 -0.04950352
0.04388558 0.73517632 -0.15158617
-0.26903346 -0.48166499 0.18665966
0.05121242 -0.11426232 0.41133320
0.45393527 0.00389339 0.22155565
0.28328702 -0.38379243 0.22539240
-0.37165606 0.09408442 -0.03465937
0.36135274 0.11437956 -0.09955421
0.37816626 0.11517310 -0.05166108
-0.30366150 0.06289965 -0.05397625
-0.26037130 -0.48902142 0.22142699
0.30603275 0.52228135 -0.14786974
-0.37487862 -0.57978976 -0.48626474
-0.05081341 -0.13604140 0.41527921
0.43070331 -0.24650291 0.20740560
0.50532913 -0.53603870 0.13012220
0.48853147 -0.17245242 0.23078644
-0.28904054 -0.71000028 0.26703644
0.19884613 0.10702425 -0.30948657
-0.28701943 -0.29926932 0.37719715
0.19689536 -0.39134195 -0.49649435
-0.03586715 0.05438441 0.21894845
0.22060454 -0.38087210 -0.55527914
-0.25412342 0.05835045 0.16697350
-0.23376034 -0.43870601 0.37475312
-0.13563898 -0.03374308 0.43968594
-0.30021578 -0.31754562 -0.21693216
0.06442805 -0.04705400 0.46145403
-0.32608774 0.66099513 -0.03241155
0.08117373 0.02078803 0.27704701
0.20851864 0.18935187 -0.15058064
0.33677617 0.84375823 -0.15370588
-0.08421479 0.06712501 0.05237609
0.22741686 0.33107221 -0.26165962
0.32742307 0.06473739 0.11687045
-0.29111221 -0.51941109 0.29646620
0.42330623 -0.54308671 0.12842189
0.19948170 0.20670550 -0.28464901
0.30290651 -0.34237921 -0.16376427
0.21591000 0.15574425 -0.25799367
-0.29764834 -0.29563227 -0.34767804
0.32776088 0.76339841 -0.16513005
0.44417658 0.01176438 0.32813832
-0.05110998 0.18367490 -0.17676723
0.42555454 -0.05247778 0.23611203
0.48900291 -0.75140625 0.09668259
0.47700328 -0.18435314 0.27985823
-0.31582472 -0.15984058 -0.23067562
-0.23379593 0.88517141 -0.06432094
-0.07661524 0.07499959 0.08999746
0.37961850 -0.05488910 0.36003935
-0.32312045 -0.33742791 -0.19085565
0.34793508 0.10833295 0.05969267
0.46669751 -0.16484255 0.20173690
-0.35510963 0.02996781 0.03392442
-0.23942989 0.04317927 0.23707467
0.46924692 -0.40934968 0.09015445
0.10908628 0.18152508 -0.22524247
-0.37378848 0.85733277 0.02274138
0.38151124 0.01871032 0.08763540
0.28933868 0.05647301 0.21483335
-0.31875011 0.03733670 0.26076517
-0.22936967 -0.06353697 0.47918761
0.37570453 -0.39371258 0.02948581
0.46619922 -0.08208176 0.23363298
0.39793798 -0.01016127 0.25271517
-0.34148458 -0.29642966 -0.18839225
-0.38033482 0.85078180 -0.00379407
0.01740244 0.73987174 -0.15058368
0.00093986 -0.18391387 -0.37184027
-0.26546457 -0.07129478 0.30258140
0.24234051 -0.20517905 -0.44396722
-0.31297857 0.04601889 0.00116014
-0.24790701 0.02832371 0.17382905
0.44906071 -0.67683178 0.04954357
-0.40480772 0.75906920 0.05420804
-0.37674367 0.59554523 0.02097928
0.22535187 -0.06981260 -0.42015991
-0.32916734 0.15022956 -0.18800911
0.15547216 -0.37125134 -0.50174773
-0.21806644 -0.32141271 0.36132440
0.12491571 0.12413398 -0.09826016
0.07701286 -0.02446421 0.37194061
-0.41663957 0.53226572 -0.02894842
-0.11971924 0.14154980 -0.15552947
-0.29843852 -0.60274237 0.31855595
-0.06725946 0.87400085 -0.09061553
0.21517822 -0.23140951 -0.36777452
-0.15068744 -0.07749548 0.49247742
-0.19883801 0.07454644 0.15364923
-0.11083557 0.19084165 -0.15028876
-0.08321672 0.45310780 -0.16577275
-0.19524829 -0.00453323 0.38483885
-0.25461680 -0.78495347 0.21800655
-0.43334809 0.66999424 0.04662077
0.19403213 0.68408036 -0.16040623
-0.27740270 -0.05241553 0.25744402
-0.18575993 -0.07170771 0.49242347
0.28648645 0.42428210 -0.24898385
0.20902391 -0.15451105 -0.46025917
0.08679327 -0.02108679 0.28743052
-0.29846516 -0.37745601 -0.37262312
-0.28485116 -0.61167997 0.28977078
0.15790738 -0.43489188 -0.54170573
-0.30803239 -0.18855835 -0.23737408
-0.26900634 0.00654823 0.13739879
0.44341022 -0.41207007 0.09740505
0.07151505 -0.13881907 -0.37291887
0.27107409 0.58176267 -0.14817686
0.24952021 0.11330225 -0.01738972
0.08426025 0.13384961 -0.10122306
0.20823076 0.12700087 -0.10757666
-0.02752687 -0.14165035 0.39396480
-0.33033073 -0.57856292 -0.43785888
0.09131337 -0.01823307 0.41714287
-0.24971664 -0.30593285 0.42093468
0.33493850 -0.36989650 -0.08945996
0.18145788 -0.15249713 -0.39166611
-0.37630332 -0.47807953 -0.39843869
-0.13961396 0.67743039 -0.08537558
-0.32736680 0.02532076 0.05228849
0.16824313 0.03852095 0.12410860
0.19350356 0.05964544 -0.32721382
-0.10960153 -0.16026682 0.43949229
-0.31028867 -0.37549099 -0.10817049
-0.18264055 -0.15715438 0.42671776
-0.29714692 -0.07643348 0.45529246
0.00068115 0.04228317 0.21211571
0.46790004 -0.02432267 0.23592272
0.42627576 -0.24741888 0.18242124
-0.22035711 -0.03948399 0.47289193
-0.28578824 -0.02366083 0.15324946
-0.01926599 -0.16139439 -0.34148428
0.25539213 -0.05667112 -0.39020199
0.21791154 0.44412673 -0.19608948
-0.22457580 -0.03311966 0.33406472
0.27192199 0.12389653 -0.12101433
-0.38818666 0.16742180 -0.16320628
-0.04688289 -0.04293480 0.33291528
-0.10925946 0.15733849 -0.11870201
-0.05908427 0.08949437 -0.01575354
-0.24184591 -0.71912122 0.30437642
0.27403119 0.10861271 -0.11225641
0.24007174 0.22784540 -0.29672956
-0.36387053 0.36917138 -0.10132860
0.10401378 0.19096637 -0.14721304
0.29639441 0.56445450 -0.13385537
-0.30124530 0.00677897 0.33551875
0.10791206 -0.01239541 0.33703715
-0.27421030 -0.44302198 0.05475160
-0.35177344 0.03078384 -0.01191536
-0.40843385 0.35228720 -0.10157970
0.28327081 0.18783174 -0.22669326
-0.09213010 0.19283454 -0.18964538
0.25813121 0.10805115 0.06101272
0.43973067 -0.43974152 0.17082185
-0.15734717 -0.05489809 0.44212806
-0.23091409 -0.44620675 0.35900119
-0.28071576 -0.83528560 0.27484334
-0.33738664 0.00026332 -0.16399184
0.42136571 -0.31827134 0.16788548
-0.07295387 0.05082965 0.09827158
0.44975659 -0.38414872 0.21444049
-0.37323520 0.11613289 -0.07293668
-0.24957770 0.43680385 -0.11571656
-0.10347874 -0.04216468 0.34520388
-0.23321594 -0.33245140 0.33977190
-0.15722401 0.88640571 -0.07312285
0.01636285 -0.11342590 0.40432915
0.35748586 0.12760875 -0.11784169
0.31037685 -0.05558655 0.31356859
0.24359079 0.16354030 -0.33291292
-0.10256413 0.12147259 -0.04038766
0.27556100 0.70343620 -0.13313365
0.20076302 -0.09169433 -0.42493978
-0.10583007 0.16120556 -0.20529965
0.39469147 0.11032706 -0.03369121
-0.26992393 -0.46142080 0.29730713
0.29781848 0.09153988 0.03767919
0.24646960 0.84597266 -0.13224050
0.04035243 -0.01666387 0.41957295
-0.01619375 0.07018910 0.15920188
0.30144882 0.50470859 -0.21748970
0.26464024 0.81697851 -0.12943850
-0.44709063 0.63593763 -0.00923794
-0.28653869 0.83517432 -0.02666145
-0.00034202 -0.13753045 0.41258904
0.44610867 0.00650211 0.17866209
-0.35465664 0.09302220 -0.20787969
0.38077116 -0.10302472 0.32568768
0.31689990 -0.28496245 -0.20482713
-0.18043683 0.10922550 0.02519034
0.35014236 0.06890395 0.15762524
0.06641672 -0.09883842 0.41725999
-0.31483954 -0.32243875 -0.24352945
0.22787952 0.04918544 0.22857580
-0.30209693 -0.47463778 -0.45872739
0.00116267 0.13457096 -0.14209311
0.51461494 -0.82234955 0.05136567
0.19111772 -0.58299583 -0.60993642
0.20033263 -0.02491059 -0.34604758
0.18672054 0.48287842 -0.18491052
-0.36215994 0.05872980 0.06990132
0.41574225 -0.39384016 0.08176644
-0.02707893 0.47147161 -0.16144243
0.28427047 0.17059590 -0.22640172
0.43343195 -0.32428995 0.22115809
-0.23512657 -0.01789688 0.28624776
-0.09471911 -0.18469702 -0.32227856
-0.18336914 -0.06930710 0.39196697
-0.23031832 0.41913062 -0.14008497
0.20541689 -0.58945423 -0.63467574
-0.02050770 0.10697837 0.05263430
-0.02467081 0.92119718 -0.10798253
-0.28677216 -0.00276768 -0.18325424
0.20029958 0.02307739 0.24630913
-0.28825155 -0.08783952 -0.26192242
0.20026359 -0.21007669 -0.40272406
-0.13685149 -0.04130676 0.32999477
0.06885079 0.73298913 -0.15001556
0.18857095 0.46624595 -0.21902081
0.44143537 -0.27340165 0.23961401
-0.29392120 -0.24163932 -0.33937323
-0.14568934 0.87309843 -0.08271901
-0.19851457 -0.05106983 0.39198855
0.45210847 -0.44225931 0.09011889
0.14544190 -0.05703678 0.44317496
0.42467538 -0.41814676 0.07566522
-0.45962831 0.75120109 0.00121515
0.21005382 0.34174430 -0.25297731
-0.02035493 0.07680921 0.03191018
0.31838119 0.07985153 0.11754908
-0.25970837 0.70592421 -0.08574689
0.48485726 -0.42311689 0.17254031
-0.41551054 0.70247173 0.05557062
-0.29060644 -0.32996142 -0.17638993
-0.04865480 -0.20035607 -0.33339140
-0.28952700 -0.79767227 0.28032425
-0.37787065 0.57081878 0.01659410
-0.26394388 -0.01933480 0.39028713
-0.11326386 0.12226997 0.01693910
-0.41625491 0.71471244 -0.01857769
0.07480267 0.67878908 -0.14816207
-0.18886647 0.41953880 -0.13127972
0.47289217 -0.45099255 0.18442515
0.15902714 -0.39862791 -0.53385073
-0.07740660 0.06815738 0.17568204
0.00691279 -0.01258921 0.29217210
0.43074572 -0.14190102 0.26112106
0.15116718 -0.06474706 0.41976261
-0.26012945 0.09595978 -0.00287303
-0.28876081 -0.01650585 -0.22054380
0.19738300 -0.02844405 -0.39675102
0.34237584 0.73885673 -0.14012684
0.34493116 0.06875303 -0.09716867
0.35232624 0.03627396 0.00305045
0.02250352 0.13316086 -0.00916308
-0.16155182 0.10632908 0.02265590
0.32547498 -0.02789067 0.39375326
0.27330056 0.75540739 -0.18383136
-0.41429216 0.65981960 -0.04348988
-0.07957943 0.02037186 0.31235951
-0.25333461 -0.46740711 0.23059735
-0.27478409 -0.65796024 0.24366984
-0.31480217 0.45399529 -0.08979932
-0.29738551 0.88367653 -0.04504176
-0.31357762 -0.41665214 0.02519735
0.22564510 0.16262215 -0.21254191
0.19577949 0.19334704 -0.25558233
0.03895190 0.69900423 -0.12409820
-0.20383467 -0.37980872 0.34933296
0.42540377 -0.43294013 0.13976574
-0.37671119 0.51398772 -0.08861241
0.26309904 0.00874248 -0.32589841
-0.37754461 -0.48309925 -0.43476301
0.49094349 -0.06865952 0.26376563
-0.24943191 -0.26842651 0.43258488
-0.03423418 0.00017866 0.23113495
0.30108717 0.39504138 -0.21915308
0.26024336 0.15147978 -0.32369322
0.47626516 -0.79415125 0.08758590
0.13098770 0.06066248 0.18015513
0.30234316 0.05328810 0.07197627
0.21469246 0.32695451 -0.21232474
-0.20722653 0.68525022 -0.08807416
0.28286308 0.80789399 -0.18224734
-0.27015981 0.00094542 0.21197653
-0.24344003 0.05776425 0.06196035
-0.03778823 -0.12378079 0.39661568
0.20988682 0.33054793 -0.26923788
-0.30501309 -0.37568653 -0.33063275
-0.10683187 -0.45816839 0.29841527
-0.18448706 0.17003977 -0.19568801
-0.24177805 -0.49360251 0.26466176
0.03508887 0.72270304 -0.12777041
-0.36543867 -0.34037778 -0.32629943
0.22180210 -0.35049787 -0.55248755
0.11992864 -0.09338108 0.38555962
-0.15296330 0.20273119 -0.19410783
0.03280684 0.14747821 -0.09456051
0.50908202 -0.60162902 0.12506668
0.26354361 -0.25745580 -0.26877588
-0.34679252 0.34403980 -0.05995395
-0.23014420 0.13556491 -0.08090312
-0.15225783 0.01625135 0.20656973
0.06092425 0.00156316 0.27466616
0.22639453 -0.23877552 -0.38243312
-0.22693287 -0.43943590 0.29746053
-0.33448488 -0.32272798 -0.17149663
-0.25159198 -0.16601062 0.41152319
-0.21033685 -0.02409932 0.37294525
0.16405277 -0.24013707 -0.44672769
-0.27778623 -0.00606434 0.16263275
0.30185241 -0.33259895 -0.21568231
-0.11180118 0.85759163 -0.08417085
-0.08130646 -0.07933130 0.44348747
-0.30449688 -0.03036718 0.34689358
-0.26073471 -0.18023714 0.47928298
-0.31810811 0.06158971 -0.12942648
0.18310297 0.11058577 -0.07410601
0.21855068 0.08191409 0.13335226
-0.34572259 -0.02534116 -0.18123800
-0.22541755 -0.46993750 0.29346210
0.16443366 -0.03468297 0.36161831
-0.36257595 -0.60005206 -0.51276886
-0.16057815 0.02411798 0.22771570
0.09122960 0.13519849 -0.03127194
-0.26257372 0.03004806 0.11147425
-0.29035822 0.10039784 -0.04393726
-0.24529451 -0.59602749 0.31888005
-0.08068513 0.01523718 0.18362162
-0.29302290 -0.23635529 0.43041295
-0.25574094 0.41512695 -0.09662621
0.02767542 -0.07648848 0.45033956
0.32565081 -0.10611428 0.31429148
0.16527900 0.01256017 0.19325036
0.41581824 0.01556378 0.33079463
0.07099731 -0.16418479 -0.37608504
-0.35507441 0.28362352 -0.15545189
0.45200592 -0.02679266 0.25258419
-0.16212022 -0.06288916 0.47224754
-0.33188549 0.04313707 -0.22857936
-0.37485510 0.01977364 -0.20559287
0.22816586 0.45655474 -0.17764631
-0.19535542 -0.09478132 0.48178124
-0.27737060 0.07229364 0.08314346
0.27694297 0.42589238 -0.22981246
0.40013325 0.06108277 0.05175573
0.34663785 0.09148308 0.06641652
-0.20864120 -0.34958494 0.35712001
-0.20645082 -0.46880248 0.32453698
-0.13066201 -0.10193372 0.43839186
-0.35365388 -0.28888920 -0.33708942
-0.19353965 -0.21696758 -0.30568784
-0.01090170 0.13142362 -0.00122212
0.29732364 0.73161453 -0.11826507
-0.35849032 -0.00369023 -0.17020071
-0.27793884 -0.08863089 0.37453172
-0.37977728 0.32065156 -0.06159064
0.45705128 0.02342011 0.26925665
-0.03230341 0.68318874 -0.14501515
-0.23542243 -0.23979077 0.36672172
-0.29162693 -0.36472416 -0.06594831
0.43016806 -0.42189500 0.19423378
-0.44039690 0.82942241 0.01072498
-0.37335363 -0.39668626 -0.36284524
-0.30079693 -0.85461038 0.23627424
-0.24310470 -0.01264201 0.40790543
0.22080465 0.30620036 -0.20086414
-0.27829298 -0.49702990 0.36258349
-0.02525726 0.00217538 0.36267942
0.18048622 -0.39780921 -0.58323228
-0.27504209 -0.40535831 0.09563993
0.41595963 -0.04416007 0.26370379
-0.24562651 -0.34156954 0.41853780
-0.44639620 0.71526241 0.00523505
0.29692033 0.48250827 -0.21665628
-0.30190089 0.10101082 0.01454150
-0.24230224 0.08580583 0.03660119
0.18412209 -0.25401649 -0.41317022
0.40242210 -0.11764571 0.28656492
-0.22981259 0.67402363 -0.06203231
-0.31484002 -0.13340206 -0.29647896
-0.35933524 -0.30680946 -0.35192931
-0.33002064 -0.40216336 -0.36623979
-0.18907104 -0.12844101 0.41871369
0.16938396 -0.33022463 -0.46084526
-0.28530020 -0.14368795 0.45632547
-0.06550968 0.00793324 0.35055518
0.28013432 -0.28477141 -0.20703730
-0.28493792 -0.18767476 0.41232029
0.31833851 0.11340404 0.05587250
-0.33985215 -0.00796051 0.13984644
0.29670087 0.77905267 -0.17576210
-0.26979384 0.85001868 -0.02906349
0.46972024 -0.72470558 0.03982830
-0.22527100 -0.76993191 0.26275596
0.36433387 -0.02425049 0.31996784
0.23304607 -0.26696166 -0.42357287
-0.27451825 -0.17110622 0.43727374
-0.12902099 0.69652188 -0.08881904
0.33390719 -0.00287061 0.22093040
-0.18516783 -0.04053531 0.40001097
-0.12608393 0.19233090 -0.17521095
-0.25972524 -0.44145796 0.28862849
-0.28213668 -0.10677571 0.42924887
-0.34826952 0.23778161 -0.14762600
0.18102494 -0.48245594 -0.54585803
-0.21503189 -0.02596673 0.43921942
0.05948483 -0.18108459 -0.36534211
0.22954997 -0.01778338 -0.39208397
-0.35440433 -0.52327383 -0.48776555
-0.35709465 -0.30955261 -0.38130239
-0.29739428 -0.46772042 0.32044971
-0.26031792 -0.46733263 0.17595780
-0.27533701 -0.43253899 0.07409546
0.40639982 -0.44321042 0.07101408
0.18473728 0.15599431 -0.15190297
-0.20347118 0.83978832 -0.05655351
0.35103455 -0.01904607 0.37714741
0.01884560 0.14715037 -0.16208556
-0.20128115 0.02674688 0.28350562
-0.00397451 -0.41715950 0.30528423
0.34712553 0.15709095 -0.08290657
0.38556823 -0.01237540 0.37772557
-0.32973212 0.64136881 -0.01989671
-0.32767305 0.33189034 -0.08846986
-0.32990390 0.04468575 0.00508596
-0.34813991 0.06346129 -0.08792079
-0.30151346 0.06975521 0.16086669
-0.13598341 0.72264957 -0.10203537
0.42846963 -0.46893945 0.17518052
0.05833111 0.15966608 -0.13497739
-0.34593120 0.56703490 -0.02678996
0.44909653 -0.57014889 0.07109842
0.25208753 0.14641868 -0.04587419
-0.15035796 0.11118146 -0.04229655
-0.34882930 0.23558591 -0.08296804
-0.10990249 0.06212730 0.06665473
0.30069539 0.75410134 -0.15962392
0.06478408 -0.04041874 0.38463658
-0.16557434 0.00657271 0.23033032
-0.24873537 0.10181069 0.07929647
-0.31940433 0.12307505 0.00200677
-0.07950209 0.09203258 0.08436781
0.45087546 0.03314301 0.15916122
-0.25514629 -0.49300343 0.23699018
-0.10282217 0.07026268 0.09897776
-0.31065479 0.12727308 0.01939897
0.13565010 -0.44186419 0.24302551
-0.34264973 0.44035602 -0.04202386
-0.28736988 -0.07124448 -0.23695634
-0.00439621 -0.06215683 0.42079413
0.17565162 0.15735382 -0.18967420
0.30460864 0.09568693 -0.03083140
-0.36608753 0.51288551 0.00058416
-0.45100904 0.66598368 0.00568102
-0.09690790 -0.02442514 0.43779081
-0.07731613 -0.03967685 0.35231593
0.28027979 0.35741720 -0.19894531
0.31102589 0.11380842 -0.18570255
0.05998094 -0.03533339 0.32272193
-0.27870166 -0.71739632 0.24067658
0.22733115 -0.37303358 -0.52648622
0.16411203 0.69088721 -0.15048170
-0.17132132 0.13073441 -0.02868845
-0.20014539 0.66764170 -0.06762365
0.39930350 -0.39638016 -0.04111630
0.17844124 0.01078563 0.28577793
-0.42269567 0.73738873 0.06294033
-0.31716469 0.03348628 -0.23342486
0.07677598 -0.04301412 0.34246713
-0.28024378 -0.40012735 0.06240253
0.24560741 -0.23367962 -0.45793310
0.24751973 -0.38727906 0.25142023
0.34752357 -0.07970662 0.35416561
-0.40607136 0.58950597 -0.03841814
0.08976594 0.19253226 -0.18615471
0.04671574 0.04320331 0.24204513
0.48054817 -0.10866112 0.22534433
0.29988912 -0.01880855 0.27075508
-0.31854871 -0.07703568 -0.26768160
-0.05185235 0.73382735 -0.11882733
0.23096073 0.08125798 0.00270757
-0.17358300 0.15720017 -0.08981376
-0.34115446 -0.42273694 -0.43514168
-0.18847340 -0.21310820 -0.33013886
-0.31145504 -0.38750365 -0.09483495
0.29162037 0.67437583 -0.13656250
-0.32533643 -0.01910200 0.28716496
0.17479061 -0.55321324 -0.67168701
-0.26173019 0.14768550 -0.15711695
0.23488535 0.09150049 -0.27296627
0.22063531 0.46995416 -0.21742420
0.41464120 -0.03426023 0.22046071
0.01080884 -0.11868581 0.37837818
0.36944708 0.00364028 0.33380559
-0.15007164 0.17343220 -0.12654221
-0.23802042 -0.47771600 0.23642570
0.26441610 0.01598374 0.17243168
-0.31869602 0.11725228 -0.12863865
-0.29498169 -0.34683833 -0.07146797
-0.29897290 0.14055566 -0.02429456
-0.06133419 -0.39661354 0.30081534
0.48946369 -0.46700582 0.10576816
0.04686433 0.09862790 -0.03290244
-0.27501816 -0.41504481 0.00977365
-0.33310243 0.14349997 -0.03908592
0.30912915 0.13802925 -0.06937888
0.22637077 -0.07026197 0.39284199
-0.09774142 0.87154710 -0.09312067
0.39252996 0.01803077 0.19176158
0.31855091 0.74477196 -0.10817664
-0.37085512 0.03706468 0.08712889
0.47439000 -0.67228413 0.11857735
0.13658999 -0.06076700 0.35968754
0.19233610 0.12508222 -0.10189083
0.24247654 0.70084417 -0.17981181
-0.01679542 -0.40359747 0.26078323
-0.27980125 -0.33522642 0.33109525
0.23607574 -0.20974535 -0.40884668
-0.29760358 0.01658624 -0.21907119
-0.28052053 -0.62493145 0.25215024
-0.27621573 -0.61773145 0.33906922
-0.04470849 0.14400746 -0.16930503
0.15449736 -0.14256926 -0.37654424
0.50153136 -0.65064597 0.10763624
-0.39697117 0.33250710 -0.07181542
0.00616818 0.12971994 -0.10143163
0.39271542 0.02863927 0.06783468
-0.37906840 0.16847377 -0.13915156
0.26405221 0.84248787 -0.15966687
0.16785873 0.91067439 -0.11139578
-0.26932603 0.41419035 -0.11867124
0.32891238 0.03007269 0.27536649
0.28831711 0.11500091 -0.05640483
-0.20756572 0.15882292 -0.08266411
0.08758390 0.14622834 -0.13295817
-0.01771578 -0.20393297 -0.37813270
0.13555560 -0.02953590 0.34300563
0.08579627 -0.01185211 0.39949349
0.05579926 -0.10487501 0.38029000
-0.27078509 -0.50490046 0.24671483
-0.39815390 0.32687491 -0.11167729
0.49341914 -0.09065137 0.24700353
0.24755110 0.14041585 -0.11885732
-0.14242795 0.84844756 -0.05705957
0.28434581 -0.02378524 0.30163491
0.27715644 0.11351877 0.03686544
-0.32907885 0.47404799 -0.07830657
0.23836774 0.29237720 -0.28190726
-0.18883230 -0.44028148 0.32820252
-0.43141454 0.74404544 -0.00332683
0.11493122 -0.15933211 -0.36882275
0.08937358 0.03246025 0.26512462
0.34393582 0.05286515 0.10418499
-0.36014241 0.49477965 -0.02216995
-0.28759894 -0.40971389 -0.38745314
-0.07706405 -0.10725998 0.38954574
-0.28464881 -0.12650029 0.47234493
0.41236237 -0.04040075 0.36280540
-0.08643959 -0.16482648 0.42056805
0.24246827 0.21518975 -0.23274185
-0.07536940 0.00202834 0.21806568
0.24246641 0.18319771 -0.15376772
0.21909021 -0.03519434 0.35619923
0.17196789 -0.05573966 0.37258509
0.43900707 -0.52691036 0.15441847
-0.26069239 -0.84451628 0.20942727
-0.28730828 -0.05212378 0.34424952
-0.11215637 0.71956784 -0.13584726
-0.26317835 -0.87502515 0.21214393
-0.34395918 0.01611845 0.08810306
0.38836312 -0.02386950 0.29945499
0.04068439 0.09231255 -0.01028850
-0.34059167 -0.32171434 -0.37976027
0.13613842 0.00554289 0.22101086
-0.28449300 0.07236402 -0.18667334
-0.36505863 -0.52683753 -0.46462777
-0.43574253 0.71379405 0.05914824
0.43420053 0.02221147 0.23216259
0.27014157 0.54206884 -0.20435485
-0.29764611 -0.36595920 -0.00053456
0.47633287 -0.49338955 0.09649262
-0.24829370 0.16526794 -0.17486116
0.06927735 0.11249256 -0.00891490
-0.30068767 0.65633452 -0.03123659
0.25806361 -0.41470268 0.21459910
-0.08087046 0.13873759 -0.10516986
0.35805055 0.09696737 0.10045260
0.30195418 0.48185337 -0.19926819
-0.36220714 0.15023531 -0.05953960
-0.11967488 -0.01806408 0.34443098
0.16258551 -0.36097071 -0.55819190
-0.33066165 0.01122523 -0.23574124
0.24606214 0.14263566 -0.16544461
0.23405424 -0.26055926 -0.36691868
0.16741255 -0.03525879 0.39773032
0.42241728 -0.08860955 0.32270768
-0.25313962 0.12233041 0.02360906
0.26835448 0.03425395 0.27396789
0.33975509 0.80351967 -0.13982563
-0.21289374 -0.26626647 0.38238874
-0.37232876 0.21582974 -0.15565151
0.46179551 0.01413308 0.18740833
-0.30124572 -0.43198910 -0.40083212
-0.01807698 0.46661282 -0.17651364
-0.09775224 0.68352234 -0.11412543
0.34071380 0.05842404 0.13983481
-0.17492849 -0.09433784 0.47148651
0.19383058 -0.29323369 -0.44333839
0.50228679 -0.56627119 0.11153005
-0.32283771 -0.56677991 -0.50241065
-0.36750102 0.30095088 -0.14965859
0.02964587 0.17405750 -0.21156552
-0.38398337 0.34236246 -0.12183274
-0.01713677 0.05587206 0.18487483
-0.27096486 -0.30502951 0.37038609
0.33545619 -0.41213578 0.21821773
0.20153777 -0.42613885 0.24014515
0.31338772 0.54114330 -0.18382868
-0.04731071 0.05860678 0.07418191
-0.20609228 0.13871153 -0.13967419
-0.25323632 -0.57495952 0.27038175
0.22250515 0.12981819 -0.27289891
-0.31100219 0.08258594 0.12981194
0.43102372 -0.11304092 0.31071898
-0.12390776 0.00323503 0.23286968
0.43784109 -0.18560390 0.27543479
-0.09516670 -0.06557636 0.47877049
0.02272216 0.08418457 0.00799009
0.36259532 -0.05680057 0.33179435
-0.25943464 -0.05360730 0.47278911
-0.25151119 0.12311449 -0.07754038
-0.37910706 0.62600452 -0.04777537
-0.17047198 0.12343335 -0.09734638
-0.34624633 0.11873134 -0.10322584
0.40828875 0.05106225 0.18634909
0.30495292 0.18888611 -0.15806335
-0.29275325 0.05825197 0.05465722
0.22438833 -0.04151042 -0.40854156
-0.06678361 -0.41373664 0.31953466
-0.00933925 0.70356065 -0.13398072
-0.11456069 0.19799568 -0.19070701
0.32910642 0.61344379 -0.16847879
0.41913307 -0.37644330 0.13696006
-0.38232929 0.35179657 -0.05803518
0.21140490 0.06149910 0.11912443
-0.27795103 -0.28701428 0.42476624
-0.45182532 0.65716851 0.02211504
-0.03562018 -0.05292925 0.35545084
0.22460593 0.03853362 -0.38253573
0.30118343 0.04722131 0.13935970
-0.01747042 -0.18293722 -0.38285419
-0.29886860 -0.01476522 -0.23696087
0.01260205 0.18063818 -0.13049728
0.03047609 -0.01449708 0.39920810
-0.16238408 -0.13631025 0.44467354
0.25789726 -0.08713551 0.32397833
-0.03327031 -0.05288082 0.39749911
-0.26388592 -0.62835133 0.25267392
-0.22844315 0.09440573 -0.04060310
-0.30640358 -0.46385688 0.14224485
0.25718421 -0.08123836 0.36485940
0.18721771 -0.00926965 0.38486201
-0.37819541 0.06462112 -0.16474429
0.17394051 0.90653837 -0.14945242
0.25410673 0.19566213 -0.21361107
0.11129184 -0.39643741 0.22939280
-0.40217334 0.38435128 -0.07860336
0.24264246 -0.27540049 -0.45209396
-0.19191229 0.14072382 -0.08320925
-0.36650169 -0.07384310 -0.20168951
0.42485172 0.03534768 0.08516839
-0.28502142 0.03610305 0.05070372
0.43012935 -0.62672102 0.11619517
-0.13563351 0.13698143 -0.05000068
0.28163666 -0.25384036 -0.31708121
-0.28920037 0.14847024 -0.15946570
0.39909497 0.00099455 0.20816836
0.50167912 -0.14161001 0.24206284
-0.31836471 -0.02333023 0.25563011
0.14691006 -0.02105475 0.27450231
0.19881001 -0.07331494 -0.39261365
-0.21052466 -0.01975014 0.31897002
-0.30728647 -0.15965559 -0.30134690
-0.00368763 0.21244179 -0.22783241
0.18899721 0.08072490 0.12263593
0.32753968 0.71310514 -0.12858325
0.12093886 0.06206796 0.05866133
0.28675932 -0.32182822 -0.23252578
0.32426956 0.02093061 0.29030058
0.11422714 0.17501268 -0.13012223
0.22939527 0.67453927 -0.16090654
0.15999450 -0.27389663 -0.47063291
-0.34345046 0.87181842 -0.00956683
0.18291911 0.01986057 -0.35358375
0.30580193 0.54079926 -0.20412903
0.09227634 -0.00794884 0.34250569
-0.22690722 -0.73155695 0.26293215
-0.30018410 -0.28978914 -0.26181233
-0.38996515 0.26017532 -0.14163935
0.24287800 0.09380590 0.02770473
-0.25529900 0.87096459 -0.01724873
-0.37000254 0.23209381 -0.09794980
