0.24369514 0.50674170 -0.11769753
-0.30909216 -0.01427064 -0.11679877
0.43139228 -0.05955263 -0.12203629
-0.37798440 -0.61094445 0.12594908
-0.65430069 -0.29791570 -0.11911865
-0.18278274 0.60808796 0.12764156
0.85908824 -0.35497555 0.08932144
0.24854609 -0.47187549 0.12740773
-0.38585490 -0.85788906 0.08254799
0.11011481 -0.85596281 -0.03846885
-0.08825702 0.67424798 -0.12354244
-0.16852923 0.04006838 -0.11380357
-0.27091694 0.33453700 -0.12357641
-0.38935643 -0.31450018 -0.12535566
-0.34245300 -0.18881686 0.13076851
-0.85027999 -0.08770507 0.04983427
0.30435327 -0.04675234 -0.11649805
0.05529509 -0.85159719 0.08133069
-0.26437247 0.03684006 0.12626621
0.07369564 0.26762336 0.12982753
0.26817688 -0.54625082 -0.12418105
-0.84634119 0.37484747 -0.10117908
0.62845516 0.07461991 0.12572083
-0.16518338 -0.69316030 -0.11921521
-0.47484171 0.66303855 0.13478515
-0.44676161 0.63449961 -0.00778063
0.12782425 0.70595676 -0.12455051
0.51752532 -0.15275167 0.13832560
0.83700299 -0.24932727 -0.11737815
-0.22412109 -0.53445137 -0.12261517
-0.84970576 -0.00911719 -0.03802009
-0.45767856 -0.33531812 0.12935960
-0.39198318 -0.41723910 -0.12013200
-0.23569520 0.30229065 0.13112059
-0.38812605 -0.50422835 0.12544733
0.85747701 0.09970880 0.12364122
-0.84540462 -0.46352300 0.11547321
-0.37960085 0.85704523 0.06352662
-0.34602758 -0.65564579 -0.12152189
-0.55604398 -0.18503685 0.12364457
0.02819366 0.63672626 0.12672532
0.43079415 -0.76250583 -0.05653990
-0.23078220 0.47639337 0.12819615
0.40631485 -0.30482945 0.13165668
0.30525577 -0.20583884 0.13447678
0.58782560 -0.14839907 0.12952590
0.74135172 0.44216388 0.04509027
0.52405840 -0.73845088 -0.04269332
0.59481728 0.29841858 0.13561502
-0.17660965 0.49750262 0.12382150
-0.70111871 -0.34029567 -0.11051468
-0.54935223 0.00871042 0.13083085
-0.18234925 0.85731560 -0.04445782
0.73631734 0.45845604 -0.06854265
0.54043669 0.60858256 -0.01196040
0.86464882 0.26211959 -0.01886346
-0.57595414 0.44118387 0.12677494
-0.63584816 -0.53281665 0.02782972
0.05154340 -0.48044246 0.12652144
-0.21326956 0.59934783 0.13405073
-0.84781718 -0.42227069 -0.07588172
0.28339925 -0.18503192 -0.12318306
0.36748371 0.85661465 -0.11425674
-0.29222998 0.08314481 0.12593618
-0.05433801 0.48393270 -0.12142727
-0.04249152 -0.80465943 -0.11676443
0.85923350 -0.03071861 0.10945088
0.47975129 0.55072445 0.12994298
0.78106970 -0.07004895 -0.12315826
0.65324187 -0.26518503 0.12907821
0.55526942 -0.31297880 -0.12250626
-0.74913216 -0.38721719 -0.01416165
-0.79050344 0.05507354 -0.12333724
0.75852787 -0.20938757 -0.11721993
-0.68236083 -0.14929840 0.12746432
-0.75379491 -0.41784444 -0.10743429
0.53393191 0.65303272 -0.01739553
-0.39720887 -0.60136765 0.12947533
0.75574774 0.34174827 -0.02540067
-0.34591424 0.09197068 0.12734523
-0.82452017 0.17987214 0.12813509
0.02800981 -0.02146675 -0.11955833
0.61576730 0.38335413 0.12879071
-0.71617097 0.45502132 0.12982568
0.66791832 0.32779306 0.04312068
0.44500721 -0.76277161 0.00472299
0.15598509 -0.11874944 -0.11909234
0.53785449 0.20041333 0.13329610
-0.85358077 -0.11641171 -0.10003033
0.36145908 0.58527094 0.12911806
-0.04174035 -0.23407151 0.12858418
0.67623913 -0.53271407 -0.06834042
0.03652060 -0.04926113 -0.12127861
0.31728467 0.01906438 -0.11822429
-0.21350051 0.37916794 -0.12014286
0.48980239 -0.71336997 0.13599414
-0.34885758 0.74969923 0.12165993
0.85167903 -0.28389055 -0.11575776
-0.59738761 0.18423393 -0.11357961
0.47745842 0.24408498 0.12749839
-0.54456270 -0.58946466 0.02326303
0.52767408 0.79891783 0.06492469
0.54550415 -0.01666708 0.12608439
0.52746421 -0.68991101 -0.04219574
0.43137720 -0.85449111 -0.09309707
0.74496663 -0.52552521 -0.10755470
0.25234389 0.60316640 0.12765577
-0.84919119 0.20061633 -0.11181331
0.43994698 -0.65716219 0.12510401
0.21769857 -0.24324362 0.12654859
0.38059440 0.08287066 0.12705112
-0.04753197 0.75868809 -0.11229046
0.00313686 0.43739831 0.13512355
0.77872759 -0.52643907 0.03577619
0.43891326 0.37523377 0.12774351
0.10559019 -0.76839054 -0.11816218
-0.78035700 0.52839643 0.01752357
-0.50317442 -0.15541202 0.13494432
0.23461352 -0.46830487 0.12375686
-0.43160751 0.79345292 -0.11236478
-0.05754864 0.44675112 -0.12019915
-0.40648216 -0.32167670 0.13222614
0.71678209 -0.38283756 0.13071439
-0.07554873 -0.86219656 0.09024737
0.01560414 0.61963248 -0.12364960
-0.50875419 -0.42150959 -0.11583581
0.06325723 -0.35176912 0.12966561
-0.50999177 -0.65818948 -0.12359711
0.25398910 -0.19830680 0.13094488
-0.85086268 -0.42727917 0.00805278
0.70812625 -0.04271301 -0.12289514
-0.63473469 -0.52348918 -0.07574476
-0.06586056 -0.27397054 -0.12287902
0.52466047 -0.83590877 -0.05180130
-0.73500854 -0.44271427 0.01604485
0.40359521 -0.59707600 0.12658823
0.14974591 -0.71366584 -0.11904144
-0.53054059 -0.60592461 -0.03568785
0.85848546 0.27748200 0.00233778
0.27961603 -0.47835439 -0.12178137
-0.34379986 0.73678011 0.00770856
0.12395118 0.71596116 -0.12596554
0.86117482 0.01886496 -0.00514560
0.72731465 0.50791234 -0.03968456
0.37833562 0.68010038 0.12655175
0.49852151 -0.85102558 0.06227024
-0.44351685 0.74477053 0.03890514
-0.45929468 0.28580022 0.13078132
0.33267799 0.19192617 0.13201696
0.86145663 0.38859189 0.02856861
0.25695166 -0.12308164 0.12546209
0.85833579 -0.34643286 0.09668172
-0.76671928 -0.51886785 0.12370341
-0.16899127 -0.21058145 0.12817681
0.44874343 -0.06949957 -0.12351169
-0.67255849 -0.22993919 0.13269132
0.12838605 0.80119759 -0.11998776
-0.44858086 0.32749164 -0.11967597
0.29850453 -0.20686759 -0.12044103
-0.47299963 -0.84623188 0.00288071
-0.64042115 -0.35088095 0.05911187
-0.48353145 0.23129717 -0.12282385
-0.35803249 0.72615033 0.06781925
0.69974536 -0.52023846 0.12012359
0.43213934 -0.76498532 -0.07466156
0.31819978 0.68595791 0.12502271
-0.70436949 0.18203139 -0.11799546
-0.40109983 0.44565809 0.12357501
-0.70108086 0.41721258 -0.12025604
0.70592338 -0.18885885 0.12921345
-0.20252697 -0.80260277 -0.11952544
-0.01025986 0.07761396 -0.12109485
0.47404301 -0.11591428 0.12819216
0.86266935 -0.05040826 0.09466994
-0.33182403 -0.42065367 0.13323951
0.50502193 -0.09172636 0.12539434
0.49877816 0.27668342 -0.12257143
0.74047226 -0.44439322 -0.11839925
0.35269743 0.63343722 -0.12458275
-0.66993701 -0.26012206 -0.11463247
0.49381855 0.19184017 0.13317820
0.45407459 0.54074270 0.13487184
-0.01686423 0.85802841 0.10767928
0.30012816 0.22764236 0.12681478
0.34656894 -0.63046151 0.02590709
0.04692001 -0.12026114 0.12697586
0.52658278 0.78691006 -0.08486471
0.17167123 0.85808671 0.00203936
-0.10212574 0.85384721 0.12059309
0.23228577 0.24637109 0.13244787
0.64155245 -0.53075922 -0.03904121
-0.59943312 -0.45769462 0.12823236
-0.18060413 0.17105880 0.12626940
-0.58671409 0.40504047 0.12827089
0.36291441 -0.84860623 -0.11990097
0.83041978 -0.51731634 0.02703142
0.16206282 -0.02731876 -0.12366551
-0.27285567 -0.85588706 0.01831208
0.38383099 -0.18355222 -0.12149444
0.34278321 -0.63991588 0.12635148
-0.79807878 -0.05290542 0.12785840
0.48910350 0.51300871 0.12708858
0.27956119 -0.11705497 -0.11957663
0.04275872 0.39773107 0.13344383
0.85742855 -0.42619422 -0.06938802
0.67063785 0.53224444 0.03781206
0.60995615 -0.53656214 0.10750127
0.11847398 -0.11658858 -0.11923651
-0.41576079 -0.85984582 0.09133261
0.48097900 -0.71469641 0.03381098
0.21085572 0.85552096 -0.02919953
0.50398183 -0.16391274 0.12700385
0.17542014 0.80361372 -0.11867007
-0.51981193 0.73680776 0.01893352
0.46387139 -0.66656643 0.05190894
-0.34060848 -0.09502024 -0.12617102
0.00577863 -0.81054300 -0.11734565
-0.46598092 -0.61146641 0.12936693
-0.22823568 0.20940414 0.12503231
0.11952236 -0.62949157 -0.12100770
0.31656489 -0.52874005 0.12506047
-0.61801755 -0.53032917 -0.02662952
-0.44129479 0.45900068 -0.11656936
0.24181558 0.13279405 -0.11765522
0.19627441 -0.50016296 -0.12525637
-0.75726336 -0.17846788 -0.11973958
-0.08071095 -0.33612055 -0.11972315
-0.18076049 -0.85184705 0.11297356
-0.49808240 0.26192757 -0.11812916
-0.02645936 -0.79178882 -0.11597175
0.69203264 0.32987231 0.01879944
0.39831728 -0.21622513 -0.11932444
0.22594957 -0.05207475 -0.12806964
0.00947396 -0.35104513 0.12924752
0.63863605 0.48562855 -0.11924752
-0.10696849 -0.25263000 -0.11761522
-0.10912134 0.07480352 0.13096449
0.37269452 -0.74943358 0.00269036
-0.03641695 -0.30552989 0.12727493
0.60564089 0.32942894 0.13059655
0.52715546 -0.69666392 0.11821695
-0.66412157 -0.46068814 0.06407700
-0.83484566 0.08458669 -0.10228220
0.65779305 0.46143162 0.02208701
-0.37525678 0.06976511 -0.11892636
0.75113165 -0.51383334 0.10883258
0.54275668 0.29095986 0.14163607
0.59702528 0.05128508 0.12507343
0.42785662 -0.55277914 -0.11968739
-0.53265947 0.59970832 0.02104274
-0.01995230 -0.61083114 0.12927970
-0.66318339 -0.30016384 0.12881348
0.77905470 -0.12727433 0.13427147
-0.65933681 -0.41231343 0.12234734
0.60565102 0.34116679 0.12865666
0.54268074 -0.21120770 0.12612650
-0.26994479 0.14300038 0.12910238
0.57194901 -0.09138762 -0.11836822
-0.84609056 0.47333533 0.11860080
0.85421139 0.15071408 0.01756384
0.30770501 0.64300483 0.13480663
0.12336677 0.12018304 -0.11876532
0.52169210 0.73272347 0.12570027
-0.63499886 0.50047159 0.13377619
0.70653474 0.45102301 0.03503316
-0.69121832 0.15169345 -0.11319400
0.17580438 0.27060765 0.13030958
-0.78199798 0.21267095 0.12643439
-0.39802545 0.30169728 0.13376185
-0.45656449 0.57573551 -0.12011593
-0.28238675 -0.41651288 0.12878597
-0.20854276 0.12748516 0.12728021
0.20014070 -0.46098635 0.12460955
-0.06222226 -0.85600680 0.05481967
0.45990437 -0.73429936 0.00831984
-0.20320575 -0.12934729 -0.12091183
0.86155331 -0.12031191 0.06377252
0.27911142 -0.46872973 0.12628347
0.22919770 0.79340369 0.13199297
-0.24589640 0.34097844 -0.12161773
0.30427650 -0.76379538 0.13373694
0.65281111 0.44581720 -0.07471729
0.52311927 0.79227751 0.00429765
0.22309002 0.42273089 0.12553325
-0.00546176 0.73626673 0.12287709
0.62567675 -0.48961249 0.12991786
0.62777275 0.40815401 0.01102770
-0.05191993 0.03452123 0.12678942
-0.49566269 -0.69778168 -0.10848843
0.01904425 -0.85127085 0.11614226
0.03498626 -0.28523225 -0.11958312
-0.84718531 0.04409267 -0.08584981
0.50202161 0.08545160 -0.11958553
0.29114583 0.72756577 0.12201381
0.01071399 0.85310251 0.04396444
-0.35075822 -0.85603452 0.09773131
0.07225420 -0.66578257 0.13002655
0.84399003 -0.05324384 -0.12032040
-0.84895122 -0.01507286 -0.02588230
0.72685599 0.30988812 -0.12324489
0.33230880 -0.70160723 0.03332362
-0.08366749 0.31406471 0.12777728
-0.03142304 -0.75564128 0.13024765
0.19151090 0.71636355 -0.12113179
0.84531307 0.32311586 -0.11455721
-0.77529246 0.42595729 -0.12307542
-0.26591268 0.86260098 0.01029610
-0.50033975 -0.65546817 -0.11533062
-0.17461304 -0.32797757 -0.11849680
0.07457466 -0.76476729 0.12692165
0.09601549 -0.72569174 0.12978351
0.36776736 0.86366975 -0.06054587
0.85497242 0.17975034 0.06417608
0.57936317 0.56007898 -0.11061860
0.78319162 -0.09150334 -0.11991162
-0.73802060 0.47152349 0.12522578
-0.52938366 0.61287409 0.00107740
0.18817790 0.69943374 -0.10978534
0.05521931 -0.21209204 0.13112408
0.80950475 0.19981882 0.13344875
0.70436043 0.03689023 -0.11732470
0.21560225 -0.23592032 -0.11964503
-0.36636454 0.61646223 -0.02109322
-0.85124207 0.11106909 -0.07785654
0.03821782 0.18191633 -0.12001396
-0.69210255 -0.27224648 -0.11850362
-0.46718881 -0.57879293 0.12890166
0.53150868 0.68125391 -0.08478475
-0.34754547 0.73897928 -0.03119106
-0.66381693 0.17498842 -0.12127677
0.86558062 -0.26896468 0.03340389
-0.07350121 0.39751306 0.13274625
-0.84770370 0.06330377 0.01532507
-0.11772035 -0.59693587 0.12635136
0.76487356 -0.34251496 0.12772241
0.80684996 -0.32929096 -0.11111303
0.57773989 0.56579238 0.05721575
0.63408232 0.52837706 0.08886546
-0.51689106 -0.60120136 -0.10424188
0.12693596 -0.70722830 -0.12034675
-0.38431862 0.70585513 0.13503048
-0.16434135 -0.12193388 -0.12360960
0.01613568 -0.43616843 0.12925997
-0.42779505 0.36902532 0.12652636
0.71351838 -0.53000093 -0.10558756
0.51499277 0.18942021 -0.12265749
0.65498078 0.53198808 0.07033899
-0.83035070 0.51967692 0.08350887
-0.61465329 -0.47397080 -0.10918373
-0.42604080 -0.04143376 -0.12088151
-0.47407934 0.38153306 0.13026765
0.36661464 -0.47926426 0.13158444
0.01403166 -0.29563081 -0.11727931
-0.44007117 -0.85428286 -0.11142603
0.27391320 0.83341795 -0.11340844
0.33659858 -0.64882082 -0.11775683
-0.32666609 -0.41015342 -0.12343581
-0.37016505 -0.23351882 -0.12140181
0.44884995 -0.84854668 0.12655470
-0.83254790 0.09709661 -0.11484745
-0.59068567 0.09932546 0.13122514
-0.62080109 -0.43934891 -0.05575169
0.33403006 -0.66854638 -0.02375246
0.86240894 0.22083052 0.06522898
-0.28735483 0.32406360 0.12893876
-0.79339612 0.52480578 -0.07128238
0.49813014 -0.70468867 -0.10435551
0.83170438 -0.41372147 -0.12148725
0.12136863 0.19452837 -0.12103499
-0.00483559 -0.54775059 0.12719369
0.43140280 -0.32418901 -0.12257157
0.35266662 -0.63017708 -0.10932189
-0.80681592 -0.51667058 -0.02255845
0.41045001 -0.77260619 -0.11079063
-0.80307740 -0.52838898 0.08054769
-0.36455223 -0.68905079 0.12566608
-0.84663212 0.32644698 -0.08952378
-0.04139088 0.52516037 0.12022519
0.54834837 0.52546078 -0.11802702
0.23798385 0.72737247 -0.11753777
-0.07208163 0.52352756 0.12765843
-0.25688258 -0.85571504 -0.04331737
-0.84839642 0.40117282 0.09287867
-0.52669555 -0.14566593 -0.12238927
0.08729645 -0.07981145 0.13204926
-0.49338356 0.64302325 0.12856489
0.05577333 -0.29400200 -0.12393474
-0.44071597 -0.00429772 -0.12122096
0.58767676 0.55559117 -0.01012968
0.52100849 -0.83028889 -0.09085666
-0.32315946 0.24308054 0.13463876
-0.65885997 0.37771419 -0.12374438
-0.20604432 -0.57519668 0.12837532
-0.51360488 0.75155514 0.06145110
0.40396115 0.02845370 -0.12127174
0.76214737 -0.07909735 -0.12104921
0.17700151 -0.85349047 -0.09489308
-0.73639649 -0.35450345 -0.01440512
-0.20360141 -0.70813239 0.12500548
0.86004174 -0.44743177 0.11139684
-0.08362918 -0.86425120 0.09522785
-0.02197943 -0.48315591 -0.12210457
0.85921270 -0.44961220 -0.02541634
0.14147858 0.86097986 -0.07238716
0.15691586 0.59546483 0.13063571
0.23106767 -0.42966133 0.13393494
-0.61441243 -0.39961946 -0.07803991
-0.49808884 -0.02095241 0.12586406
0.84887385 0.27133769 0.10853771
-0.66437167 -0.10090893 -0.11494812
0.40077761 0.80261403 -0.11666799
-0.68709356 -0.47429007 -0.04146690
0.07112176 0.13315180 0.13423589
0.54488558 -0.44544402 0.13327658
0.77652133 0.40676308 -0.11033563
0.22162692 -0.43358588 0.13194254
-0.36526150 0.82307458 0.12408689
-0.03588334 0.55885977 -0.11568325
0.11188767 0.30941239 -0.12538365
-0.57357091 0.55087090 -0.01353750
-0.46819767 -0.66803592 -0.12203751
-0.70214784 -0.05886238 0.13798416
-0.58712357 0.52741909 0.12976310
-0.77592379 0.52450085 0.05141623
-0.63740140 0.53377140 0.10999341
-0.62091100 -0.12557490 0.12468920
-0.37783056 0.72293425 0.06515040
-0.43608698 -0.81423068 -0.12299551
-0.74381989 -0.17518564 0.12754017
-0.38270107 -0.84552538 -0.12039914
0.45277402 0.85607129 -0.01828423
-0.28113264 0.77021658 -0.11811109
-0.24781123 0.76790136 -0.11572641
-0.30632037 0.85677898 -0.06775666
0.48716366 -0.47048804 -0.11665744
0.65937144 0.50102192 -0.11729079
-0.84386486 -0.25969210 -0.09672182
0.28905967 -0.42009467 0.12512392
0.71895677 -0.16446637 -0.12372948
-0.02146232 0.85213417 0.10592848
-0.19573180 0.26145151 0.13430497
-0.67874891 -0.52440995 -0.10930291
-0.83853823 -0.31586415 0.12473378
-0.43945599 0.41727176 -0.11824281
-0.77729851 -0.37781000 0.13432327
0.26619756 -0.35486916 0.13066328
-0.84129274 0.27647054 0.12120032
-0.27537456 -0.31884497 -0.11579970
0.47743088 0.67133176 -0.11328331
0.54716486 0.12761283 0.12937593
0.51533437 0.55044717 0.13026619
0.38325837 -0.85421723 -0.04202771
0.47766760 0.31780156 0.13534343
0.85981899 0.10318049 0.02425861
0.72675890 -0.52716982 -0.01399409
-0.09353009 0.00572032 0.13182148
-0.40225306 -0.85282594 0.01624138
0.34154361 -0.64940709 0.03290032
0.27031144 0.85982305 -0.10972898
0.22474970 0.75995100 -0.11834531
-0.84844226 0.41618171 -0.01387228
0.51849180 0.40025982 0.12794030
-0.36631823 0.39381915 -0.12176812
-0.43651116 0.74513787 0.06809904
-0.84776092 0.03659706 -0.09136568
0.16266601 -0.48776880 -0.12119217
-0.73951894 -0.43396130 0.03265608
0.84588647 -0.14341728 -0.11998142
0.20069923 -0.12913375 0.12496310
-0.49787208 0.21519341 -0.11856735
0.79169017 0.08638732 0.13014334
-0.33529443 0.63795507 -0.07973485
0.66288906 0.41304684 0.05980757
0.26735821 -0.71881181 -0.11998177
-0.37744451 0.76206136 -0.01113138
-0.09099706 -0.47938043 -0.12339470
0.05710673 0.28952339 0.12891197
0.39098573 0.24014817 0.13319904
0.28819051 0.31904984 0.13355911
0.03974988 -0.81897229 0.12769905
-0.26724488 -0.48088229 -0.11898626
0.79639667 -0.35733166 0.12688586
0.58574635 -0.04292020 0.12676522
-0.77235001 -0.44116110 -0.12392408
-0.44695789 -0.70180458 -0.11477643
-0.43699673 0.76357549 0.04540015
-0.28422448 -0.64745760 0.13212141
-0.64273614 0.52421576 -0.05169141
-0.51149571 0.73402309 0.13455141
0.59189701 -0.03916870 -0.11503553
-0.28866798 0.85788625 0.03368247
-0.04596275 0.47092065 -0.12262009
-0.32245430 0.43971986 0.12863204
0.86579335 0.34137595 0.05362186
0.35510182 -0.83987850 0.12998268
0.37189069 -0.42473996 -0.12051214
0.03094514 -0.36165211 -0.12208193
-0.15411125 0.64350384 -0.11574404
0.32885143 -0.60528791 0.12808973
-0.33814958 0.85823590 -0.04943779
0.65245837 -0.35594377 -0.11792867
0.42656013 -0.76438200 -0.06429978
-0.18055484 0.68774444 0.12827748
0.80804616 0.26730430 0.12651169
0.86547828 -0.43059295 0.02585911
0.81982720 -0.44177553 0.13246581
-0.49473771 -0.85370773 -0.09084155
-0.52233285 0.13528383 -0.11581898
0.79276884 -0.36648059 -0.11498521
0.86503482 -0.09299394 0.11792213
-0.02686344 0.25501916 0.13608357
-0.06921440 -0.34969085 -0.11188014
-0.54790205 -0.24930489 0.12897980
-0.85003322 -0.20870800 -0.04830988
0.16950364 0.51665479 -0.12209649
0.64465159 -0.46268073 0.12455199
-0.28659898 -0.25082439 -0.12344706
0.76162708 -0.41917568 0.13055205
0.40666947 -0.26146030 -0.12011044
0.09002868 0.16547960 -0.11787438
0.68008173 0.32213852 -0.04464586
0.18359797 0.85633475 -0.04628516
-0.39599651 0.76687509 0.00654153
-0.37736222 -0.53163010 0.13274574
-0.51665592 0.65401560 -0.10935286
0.82514942 0.04841011 -0.11758671
0.57193297 0.54262859 0.12636602
-0.66515774 0.00051609 -0.11701861
-0.84425426 0.17321731 0.12267529
0.35390952 0.15503801 0.12403121
0.56695938 0.35927969 -0.12044048
0.71271801 -0.29947007 0.12679562
-0.72175223 0.20709209 0.13462469
-0.45013171 0.75158554 0.02459402
-0.44366241 -0.27795926 0.12893006
0.38215965 -0.72901422 0.06616656
-0.36398271 0.73407882 0.06877317
0.19995958 0.28867856 -0.11964165
0.60687697 -0.42604482 -0.12398782
0.81487697 -0.52013963 0.04141839
0.20644708 -0.65476441 0.13433921
-0.67761517 -0.41749197 0.07131973
-0.17027369 0.23829065 0.12624425
0.83002758 -0.44608024 -0.12117612
-0.29091594 -0.47110945 -0.11984430
0.27936301 -0.82801789 -0.11392016
0.63941932 0.36592421 0.04416664
-0.84693271 -0.48961228 -0.10349577
0.18313187 0.37342495 -0.12010665
0.51889938 0.48176527 -0.11881310
-0.36891899 0.76384270 -0.11068036
0.17093125 -0.14779855 -0.12563887
0.48550525 0.59726125 -0.11778414
0.59987944 -0.34916428 -0.12231051
-0.07295958 0.46273118 0.13106492
-0.61029041 0.32125571 0.12427818
-0.78820294 -0.45140305 0.13116264
0.61907303 0.53357941 -0.05665176
-0.72788244 0.32792866 0.13175130
-0.70831591 0.14375342 0.13270956
0.29894188 0.58941585 -0.12424273
0.02705792 -0.85191578 -0.03477830
-0.02281482 0.46105444 -0.11575811
-0.13716418 0.81718302 0.13054496
0.07540504 -0.32487872 0.13572833
0.24445176 -0.15532233 0.12468549
-0.42031756 0.24702236 -0.12088288
-0.13137199 -0.53255594 0.13046122
0.05422604 -0.84717041 -0.10232128
-0.01038367 -0.41402656 0.12636352
0.22563413 0.71086317 -0.11338413
0.41213369 0.04140538 -0.11987381
0.86053205 -0.05878259 -0.04142490
-0.29795870 0.66822308 -0.11778784
-0.10733863 0.17949247 -0.12092946
0.47764450 -0.71275604 -0.01890544
0.84203768 -0.08761515 -0.12137678
0.05420930 0.46504334 0.12681586
0.55924600 0.31828806 0.13943437
0.76634961 -0.26117665 0.12522307
0.02956500 0.67449147 0.13397840
0.50076336 -0.71913254 0.13124886
-0.21739216 0.13109143 0.12514052
-0.35592443 -0.00545368 0.12823030
0.44278470 0.48676014 -0.12330602
0.47829899 0.46040487 0.12408736
0.84419167 0.25805488 -0.11642952
0.53973293 -0.19336903 0.12842965
0.46306807 0.17542852 -0.12182683
0.32459012 -0.85632783 0.07232379
-0.36556891 0.34148347 0.12570992
-0.58298677 0.13620710 0.12595692
0.73245436 -0.52859801 0.10065679
0.32958388 -0.70550889 -0.07629150
-0.00962213 -0.65229011 -0.12326568
-0.84355229 0.44707146 -0.10499524
-0.84928387 0.13476236 0.00959666
-0.02752111 0.34283420 0.12861148
0.31855115 -0.66580623 -0.10790123
0.30098477 0.33316484 0.13015237
-0.04790635 0.85145068 0.02257117
-0.52750701 -0.42644182 0.12614912
-0.66780287 0.04881626 -0.11331414
0.28977954 0.76289719 0.12628901
0.11510155 0.85548741 -0.09710960
-0.46332279 -0.18122746 -0.12361103
0.06730545 0.39160275 0.13210741
-0.51561350 0.82520008 0.04559193
0.60214883 0.25816232 -0.11727540
0.61262369 0.39043221 0.13031784
-0.84092557 -0.44553563 0.01684009
0.52778554 -0.45019805 0.13023537
0.36516944 0.30929679 -0.11835933
0.84217989 0.50730079 0.07281376
0.56565875 -0.51117241 0.12319895
-0.50649399 -0.47555941 -0.11870764
-0.69924879 -0.48041034 -0.06670191
-0.40930554 -0.07007369 -0.11997176
-0.83670896 -0.13771379 -0.09325548
-0.66224414 -0.52802461 0.09415796
0.09242050 -0.05815102 -0.11486553
-0.36238158 0.56413114 0.12269054
0.58012408 -0.10172212 -0.11777979
-0.27920353 0.85820329 0.00264579
-0.42094630 0.70224100 0.13704643
-0.67274946 0.48777369 0.12909690
0.14251019 0.61291504 0.12698334
0.22370493 0.85472029 -0.10421305
0.51145518 0.81672788 0.12656659
-0.19500345 0.33126485 0.13027999
0.36448827 0.05452698 0.12631726
-0.51883203 -0.62523252 0.13093007
-0.16274041 0.02990786 -0.12760505
0.79762274 -0.12810808 0.13448673
0.09008076 0.42086038 0.12315638
-0.75758618 -0.42378071 0.13054818
0.63207251 -0.31907257 -0.12428211
-0.46553138 0.45207563 0.13098368
0.09391823 0.86218929 -0.05505508
0.53214997 0.12924916 0.12934768
-0.00810836 0.17385887 -0.12487361
0.01762840 0.67239600 0.12868538
-0.09985801 -0.85332423 -0.01609194
-0.69845349 -0.10159002 -0.12019664
-0.46104696 -0.10415220 -0.11909693
0.36278468 -0.31723893 -0.11930037
0.39867809 -0.76060575 0.02055803
0.53590220 0.64998066 0.07052273
0.77098411 0.40708190 -0.08649539
0.06526001 0.32805634 0.12869892
0.51054078 -0.85505682 0.04029319
-0.07217328 -0.38508791 0.12768751
-0.45576590 -0.85946363 0.11322566
0.45719260 0.86241710 -0.08404930
0.03187507 0.22478372 0.12820116
0.63799548 -0.18259957 -0.12464752
0.84227312 0.51092768 0.04975958
0.02434740 0.01064596 0.12873843
-0.51210886 -0.64944005 -0.06578615
-0.71423483 -0.45097896 -0.00450592
-0.24253699 -0.79152083 -0.11774423
0.01435993 -0.20705360 -0.11936510
0.54446638 0.28843522 0.13444358
-0.11535481 0.09228789 -0.12040032
-0.14106363 -0.85172731 0.07839428
0.32138523 0.31033722 -0.12690461
0.15113311 0.12055183 -0.11646868
-0.61874467 -0.43316597 -0.06699901
-0.42753220 -0.79950768 -0.12289234
0.07514121 0.85338962 0.05601479
0.74799877 -0.21222214 -0.11760866
0.08382226 -0.15351851 -0.12495205
0.06073585 -0.14839171 -0.12479380
-0.33882210 0.00534363 -0.11809769
0.45066011 -0.61933607 0.14053670
-0.65083402 0.42389965 0.12775812
-0.14789167 0.21619263 -0.12572463
-0.07192635 -0.28869742 -0.11989372
-0.17003812 0.48428607 0.12826759
-0.21378773 0.02030681 -0.12156990
0.85981953 -0.14027576 -0.06866352
-0.73402077 -0.29531580 -0.11562347
-0.81063080 -0.31499031 -0.11533474
0.63065559 0.53090900 0.05852151
-0.73759425 -0.31777132 -0.12062635
-0.50832438 -0.66703296 -0.11759067
-0.12882878 -0.85678583 -0.05094925
-0.00089719 -0.53091192 0.12995374
-0.67200452 -0.32507673 -0.10703526
-0.37336946 -0.18629567 0.12947980
0.43257400 0.85705709 0.10276703
-0.70851862 -0.46400303 -0.00112397
-0.24921966 -0.02740124 0.12768188
-0.06725600 0.86276001 0.02600536
-0.69203258 -0.47503451 0.04545914
0.52241707 -0.74837810 -0.10767017
0.46288389 -0.23752256 0.12873751
-0.51606762 0.82113898 0.05152908
0.44210419 -0.14387390 -0.11876401
0.05994891 -0.78755486 -0.12132265
0.50766188 -0.84603268 0.03310067
-0.66107649 -0.37904811 0.06262472
0.55531478 -0.42238331 0.13578662
0.46156988 -0.84784007 -0.11892565
-0.40302956 0.73654127 0.06392105
0.22806895 -0.71867740 0.13156068
-0.84753859 0.21943314 -0.03366228
0.24327511 -0.53987098 -0.12126060
0.25140643 0.44882974 -0.11979478
0.86421740 -0.01150999 -0.05105444
-0.62269187 -0.38890642 0.06009929
0.00430744 0.12062585 -0.12304654
0.86265379 0.27852008 -0.09179290
0.82899195 0.31059897 0.12824872
0.36355025 0.01213604 0.12972623
0.84801161 0.50951809 -0.01823045
-0.50875366 -0.72571796 -0.12211668
0.45280659 -0.34584963 -0.12520242
0.70299679 0.34935483 0.13829190
-0.11976026 -0.63500303 -0.12090816
0.35776258 -0.54326129 -0.11753450
-0.26600292 -0.41723090 0.13139060
-0.53704691 -0.19242816 -0.11591636
-0.10139150 0.58736122 -0.12490296
-0.49104697 -0.17505434 0.13378379
-0.83012730 0.33132741 -0.11862217
-0.76456219 -0.53200310 -0.06731682
0.22270387 0.85275638 -0.11603298
0.08170848 -0.57412553 -0.12356424
0.61944354 -0.40174416 0.12919226
0.52812016 0.74184602 0.08531662
-0.34461078 0.53545499 -0.12494416
-0.51038641 -0.78156298 0.01268346
0.54200315 0.05773220 0.12700388
-0.84603190 0.13145365 -0.00319979
0.30909511 -0.61417788 0.12634903
0.68947184 0.23526755 -0.11961312
-0.11280869 -0.10069214 0.12808120
0.29207560 -0.79072404 0.13058686
-0.06596383 -0.38758507 -0.11720792
0.60412329 -0.41032082 -0.12504646
0.41066274 -0.84104776 -0.12146404
0.12558891 -0.85890740 0.12115028
-0.56471395 -0.05480634 0.12851119
0.82225698 -0.18693250 -0.11536436
-0.45109284 -0.57327050 0.12928730
-0.10613983 0.54562044 0.13015085
0.39411971 -0.61862797 -0.05080428
0.45262536 -0.81089556 -0.11608369
0.34091762 -0.66871047 -0.04775044
-0.46265802 -0.80092895 -0.11387829
0.52385539 0.69522625 0.01614520
0.56826299 0.47260717 0.13067305
-0.10695066 -0.68976957 -0.12252610
-0.37226230 0.73975867 0.05606832
-0.26457044 0.18201472 0.12625539
-0.69593775 -0.40024108 0.12132788
0.42840591 -0.68743032 0.12599814
-0.49596131 0.84577072 0.12207524
-0.34500262 0.37075636 0.12561804
-0.71683383 -0.09729210 0.13078892
-0.38027897 0.63171178 0.12986493
-0.51866823 -0.62937582 -0.09017718
0.43717191 -0.63430649 0.12988305
0.12767059 -0.61630994 -0.11746167
0.68001407 0.21447198 -0.11998226
-0.10524277 -0.76643670 0.12306242
0.20741770 -0.84073699 0.12743002
0.06854436 0.09332944 0.13055235
0.16091694 -0.57599610 0.12598336
0.84845364 -0.08871976 -0.10720835
-0.29348934 -0.06469811 0.13318828
0.19486710 0.07902130 0.13438362
-0.31948388 -0.33022571 0.13343748
0.41514096 0.53264987 -0.11649290
0.05987144 0.61362588 0.12709373
0.85660952 0.16406700 -0.03411690
-0.12273257 0.61400491 0.12976640
0.58634055 -0.55590427 -0.06826375
0.32414201 -0.75351971 0.13337627
-0.33967808 0.32328588 0.12651139
0.45609114 -0.11486606 0.12704244
0.33412343 0.47594887 -0.12215490
-0.58221251 0.51102990 0.13041458
-0.33246303 -0.49858883 0.12646148
0.47310176 -0.67193967 0.03154242
-0.35565054 0.36450076 0.12347584
0.86314356 -0.16845356 -0.04466354
-0.25384355 -0.50071621 0.12342204
0.85912138 0.30640844 0.10852139
-0.78476810 0.47593629 0.13034779
0.35825801 -0.12477518 0.12384414
-0.22443908 0.02755895 0.12915128
0.55364615 -0.32131720 -0.12543678
-0.07474274 -0.52130651 0.12600896
0.46760610 -0.49531984 0.13059810
-0.82517540 -0.25045812 0.13128418
-0.53971303 0.18363507 -0.11951242
0.33710998 -0.76969600 -0.12347493
0.13364372 -0.18241084 -0.11918911
0.06178606 -0.11020198 -0.11792515
-0.75625867 -0.32190478 0.13133001
0.69113439 0.21631953 0.13042143
0.77918696 -0.27120900 0.12935820
0.11365761 0.58575517 0.12728393
-0.67507392 -0.32187581 -0.04434565
0.43723768 0.85951060 -0.06336610
-0.45559725 0.65730697 -0.01090037
-0.74732935 -0.41861835 -0.04821534
0.53701270 -0.62077719 0.12606362
0.53533363 0.52295423 -0.12085184
-0.51191908 0.31440032 -0.11613434
0.15368390 -0.32593250 -0.11626880
-0.01136243 -0.43178061 -0.12331323
-0.03080049 0.43043706 0.13339788
0.44281808 -0.75749630 0.01351085
0.82258505 -0.05882172 -0.12399416
0.48388308 -0.68295532 -0.10325502
-0.40030727 0.28829119 -0.12059679
0.45549706 0.56819534 -0.12140578
-0.12312234 -0.47716159 -0.11872080
-0.53531367 0.59698504 -0.09245972
-0.01867456 0.85992426 0.09253642
-0.41867223 -0.15054625 -0.11613613
-0.11248666 0.07525818 -0.12016606
0.84381306 -0.47098336 -0.12183277
-0.84311157 -0.30791745 0.10711958
-0.40658146 0.72934997 0.13024652
0.23140903 0.68391502 -0.12293275
0.15341768 -0.60970354 0.12815273
-0.20467904 -0.30656314 0.13596141
-0.81803471 0.51553953 0.00150926
-0.03926088 -0.64323497 0.12969998
-0.38395581 -0.61465150 0.12577546
0.36048901 0.03470858 0.12713715
0.07914630 -0.20367877 0.13088268
0.80006409 -0.48496813 -0.11906980
-0.44795683 0.04971338 0.12870237
0.20901243 -0.85892797 -0.01322921
-0.57876182 0.37147325 0.13019866
-0.48283279 0.70992959 -0.11739196
-0.30517471 -0.73590147 0.12935242
-0.51000851 -0.68151546 0.03281282
0.61094201 0.10160910 -0.11980356
0.66915125 0.48671862 -0.10807912
0.85241014 -0.46657291 -0.10813434
-0.19329718 0.84953022 0.05124155
-0.02239084 -0.00151635 -0.12258881
-0.51042724 0.80942184 -0.11454202
-0.68887401 -0.53147954 0.01382600
0.64693856 -0.13829592 0.13423330
-0.22105165 -0.02446920 0.12555388
0.70710689 -0.39886108 -0.12076095
-0.16036996 0.23325604 0.13081050
-0.47294539 -0.85666096 -0.03228978
-0.29500401 -0.40353322 0.12897131
-0.50414634 0.20388715 -0.12144151
-0.17146927 0.63156939 0.12942681
0.69827837 0.30727509 0.12457097
0.31860775 0.71603554 -0.12189677
0.57291842 -0.12723526 -0.12026871
-0.15083499 -0.43143639 0.12627849
-0.60325485 0.38120893 -0.11685094
-0.48017108 -0.52332783 -0.12221830
0.74070054 -0.05275564 0.12495356
-0.16967794 0.75176138 -0.11604712
-0.63484448 -0.12654427 -0.11924184
0.05742162 0.19730641 0.13083243
-0.46121335 -0.49525267 -0.11824186
-0.40040535 0.63064539 0.05473610
0.26365432 -0.86058480 -0.11335506
0.57990587 0.00745686 0.12573117
-0.37380046 0.77732050 -0.13048106
0.68018568 -0.32887265 -0.12108896
0.32940042 -0.71970630 -0.11328981
-0.44646755 -0.60159695 0.12838566
-0.49495840 0.17978939 -0.11947786
0.03328697 0.35482430 -0.12138803
-0.45146456 0.38524187 0.12569383
-0.59926617 -0.39794195 0.12848753
0.10841372 0.47096747 -0.11772098
-0.46131277 0.03037944 0.13050926
0.42150369 -0.02159199 -0.12019048
-0.09988678 -0.45086858 -0.11606868
-0.52858490 0.60329694 0.12488375
0.86173880 -0.35497501 0.00630426
0.31546107 -0.72287571 -0.12122032
0.51580393 0.17027554 0.13088030
-0.47195107 0.23872359 -0.12484596
0.58642751 0.43235919 0.13456130
0.53392339 -0.10968492 -0.11684943
-0.49042821 0.21850200 -0.12402213
0.32682225 -0.12464438 0.13061866
-0.10160900 0.86270761 -0.07548916
-0.74154770 -0.34592423 0.13038886
0.66361463 0.45624569 -0.10286983
0.76580369 0.43345040 0.13205546
0.52149415 -0.71123838 -0.01175670
0.60667551 0.53537279 0.12137309
-0.45854756 0.03373228 -0.11474518
0.85722500 0.32744157 0.06105611
-0.11657324 0.76327407 -0.11608228
0.02567806 -0.80183345 0.12604368
0.59160781 -0.48523545 -0.12281721
-0.30227271 0.28071883 0.12444323
-0.43071458 0.86067438 -0.02608269
0.20783530 0.85736680 -0.07714668
0.20606829 -0.22696283 -0.12273396
-0.02592669 -0.34239045 -0.11575895
-0.84768283 0.31150714 -0.04811938
-0.49323085 -0.54762000 -0.12355047
-0.81857520 -0.51597571 -0.06471881
0.22543201 0.20704034 -0.11668091
-0.47997236 -0.13141961 -0.12070108
0.53435355 0.71367335 0.04466683
-0.31276968 -0.35293725 0.13016972
-0.09908988 0.04184864 0.12794477
-0.17031774 -0.85456508 0.09423903
0.37104234 0.85509098 0.03380049
0.08364882 -0.30882961 -0.12180006
-0.61680627 -0.52152091 0.03994926
-0.53385162 0.26944676 -0.12006678
-0.68806702 0.48588240 0.13207874
-0.71546304 0.04005184 0.12954539
-0.51779044 0.64507473 0.01276836
-0.65601712 -0.47840345 0.03122984
-0.75236982 -0.52939832 0.05279845
-0.24896127 0.26701471 -0.12862220
-0.50667459 -0.28499499 0.12503061
-0.23307820 0.00000749 0.12734962
0.00787941 0.26190546 -0.12260536
-0.57762277 0.22391526 0.13032749
-0.40145048 -0.05719786 -0.11745933
0.23151177 -0.29596213 -0.12017889
-0.85140288 0.12645398 0.11500092
0.01806493 -0.40238795 -0.11947267
-0.07895426 -0.10638150 -0.11964529
-0.61752057 -0.38370937 0.12167841
0.65278870 0.04643865 -0.12478077
0.13289124 0.55119151 0.12966284
0.37791076 -0.15054458 -0.12343284
0.09268497 0.85578239 0.09703387
-0.06803598 0.50071931 0.12893251
-0.04014635 -0.77328527 -0.11752004
-0.84849471 -0.02131959 -0.03117318
0.79628921 0.37543496 -0.11348993
-0.27818900 0.19393879 0.13027638
0.31317163 -0.83847374 -0.11094055
-0.81076849 -0.13981928 0.12059205
-0.52054089 0.72914916 -0.02543454
0.74237639 0.17212744 -0.12007859
0.38668591 0.82488316 0.12969655
-0.51325399 -0.80471909 0.04216699
0.02769157 0.77213162 -0.11992158
-0.11603135 0.85758364 0.08978328
-0.84132999 -0.49926814 0.00059682
-0.38791522 0.61115468 0.03482178
-0.75447428 -0.19980533 -0.12523621
-0.84751213 -0.07909516 0.00798988
-0.12992422 -0.82973039 -0.11431745
-0.10348844 0.60328215 -0.12163567
-0.73631346 -0.44463217 -0.03509158
0.38757151 0.34694067 -0.12037521
-0.68013805 -0.46644634 0.13047346
-0.65503043 -0.33376345 0.00553415
-0.84756511 0.04279375 -0.03120622
-0.36287770 -0.43594557 -0.11731037
0.05649314 0.84870476 0.13332832
0.46238059 -0.20964092 -0.11803858
-0.58036757 0.21814097 0.12786055
0.31215855 -0.64618987 0.13114262
-0.46077883 0.70102835 0.01503918
-0.20816754 0.39184457 -0.12032995
0.29250273 0.78658116 -0.11646311
-0.73234129 -0.35271388 0.02065315
0.05983415 0.17289679 -0.11410860
0.35802659 -0.66871983 0.13582939
-0.03265913 0.50875688 0.13027245
0.20292132 0.32149318 -0.11680254
0.10003184 -0.29262713 -0.12255917
0.09792970 -0.75251448 0.13090709
0.81754208 -0.52195841 0.02482872
0.16517830 -0.86283392 0.00698492
-0.84929550 0.40350252 0.00115870
0.47625604 0.05523042 0.13244167
0.75425994 0.23205426 0.12296685
-0.13898043 0.58920574 -0.11711697
-0.46119505 0.67482555 -0.04925836
0.57343656 0.56798083 0.03635768
0.53197294 0.73797232 0.11595457
0.31867611 -0.57885659 0.13711357
-0.07575572 -0.57717478 0.12768489
-0.20521218 -0.58748806 0.13024738
-0.12888415 0.62366998 0.12960044
-0.20666306 0.59773022 0.12863776
-0.31044409 -0.59177834 -0.11862030
-0.39092773 0.75721753 0.05855773
0.75537139 -0.38188097 -0.12067821
0.71755105 0.45968598 0.12930402
-0.27828300 0.52340031 -0.12083849
-0.38040456 0.40148538 0.12271410
0.85376161 -0.49184391 0.03400325
0.67605031 -0.21762200 -0.12133815
-0.50511646 0.26819569 0.12646705
-0.77140403 0.23127247 0.12604895
-0.83623457 -0.08582386 -0.11523300
0.65410894 0.45081982 0.02301954
-0.41687059 0.56539673 0.12835839
-0.21755224 -0.85327947 -0.00219799
-0.27260983 0.34485111 -0.11968422
0.32163292 -0.85065746 -0.11553472
0.33830005 -0.72078997 -0.06896301
0.10590363 -0.48906186 -0.11978032
-0.07133429 -0.58959526 0.12467786
0.37581003 -0.66391438 0.13094565
0.25618571 0.19277601 0.12579706
-0.84419519 -0.03301665 0.03715371
0.52805942 -0.71019596 -0.08276396
0.66622281 -0.52565670 -0.08433703
0.85829753 -0.33527100 -0.10848518
0.77026236 -0.12740114 0.12724403
-0.24144620 0.08418901 0.12763777
-0.74785995 -0.52650523 -0.05787707
-0.02764794 -0.47701496 0.12701881
0.46543029 0.85323727 -0.01611478
0.28335050 -0.80772531 -0.12418712
-0.34900188 -0.20703892 -0.12255659
-0.50338840 -0.00618191 -0.12074526
0.22831814 0.24167472 -0.11869071
-0.46770039 -0.81878293 0.12759143
0.51035380 0.82782501 -0.09799121
0.01484931 0.51702946 -0.11242165
-0.21755254 -0.76298547 -0.11605890
-0.41956365 -0.84297663 0.12100103
-0.47003087 -0.13558169 0.12368522
-0.15371633 0.85615551 0.08882704
-0.43594119 -0.18998295 0.12874073
0.37479445 -0.75013101 0.03245931
0.55320644 -0.30801427 0.13136777
-0.21455893 -0.81130046 -0.11874574
0.18872982 0.03070600 0.12891826
0.80884427 -0.09249804 0.13371658
-0.27026045 0.63548481 -0.12044857
0.45552188 -0.63577485 -0.11510244
0.28725451 0.85301375 0.03517916
0.58357489 -0.34726822 0.12966204
0.24822524 -0.14096321 -0.11833379
-0.33993015 0.11440844 0.13118410
0.20922618 -0.85231036 0.04313800
-0.00327750 0.55480254 -0.12126322
-0.33017132 0.51888633 -0.11978849
-0.00323206 -0.12607141 0.12946567
-0.61212957 -0.48407722 -0.11493573
-0.31218576 -0.54082441 -0.11805536
0.12727302 0.30523092 -0.12245356
-0.69365269 0.52797312 0.09401657
0.31346813 0.31749696 -0.11456895
0.84819686 0.07978345 -0.11188472
-0.57135433 -0.52534252 -0.11994471
-0.74895126 -0.37726232 -0.04049947
-0.23988979 -0.31179249 -0.12655729
0.42084417 0.22176261 0.13208875
0.18905596 -0.09009674 0.12808862
0.86006886 0.12327370 0.01690937
-0.12247998 0.54821193 -0.11799423
0.86470890 -0.09724469 -0.03350906
0.22052211 -0.10525960 0.12951899
0.74379766 0.34561777 0.05995746
0.86354679 0.41926318 0.04783402
0.60203308 -0.55060530 -0.03204965
0.62027562 -0.12185320 -0.11528853
-0.59610879 0.12111914 -0.11860365
0.24738237 -0.59116757 0.13184080
-0.51025230 0.16174667 0.13017049
0.29378641 -0.85092217 -0.05457157
0.85455781 0.12765896 0.08815235
-0.55683202 0.02053070 0.12835526
-0.68796694 -0.25538045 0.12302241
0.24816030 0.04773213 -0.12184897
0.51559371 -0.06016593 0.13294187
0.70629662 -0.22844391 -0.12393668
0.24989489 -0.86293972 -0.09854437
-0.72586495 -0.44471633 0.12814495
0.86220670 0.04156862 -0.04440166
0.85013872 -0.51451463 0.09606933
0.78414750 -0.07416373 0.12395435
-0.34828615 0.57650197 0.12471936
0.74796110 -0.07669413 -0.12117743
0.82755733 0.37579593 -0.11662485
0.76197636 0.35910821 -0.00919410
0.79851913 0.33866984 -0.11935379
0.72410536 0.09095546 -0.12135629
-0.35923207 -0.46861625 -0.11890212
-0.51532573 -0.77093661 0.08815144
0.85729104 -0.27677673 -0.02554487
0.54223901 0.13132675 0.12619492
0.52684635 0.78628153 0.07344521
-0.07092576 0.00771711 -0.12152953
-0.84844697 0.12467301 0.06807820
0.32955289 0.04680032 -0.11973610
-0.09009107 0.05893194 0.12574124
-0.18930720 -0.56386691 0.12859517
0.11239902 0.63238865 0.13124695
-0.18610133 -0.22897735 -0.11871193
0.27415493 0.27076584 -0.12296738
-0.33859694 0.19472688 -0.12325860
0.43747342 0.45047274 0.12820065
0.65506530 0.53419894 -0.06690110
0.23723310 0.82727700 -0.11397862
-0.24712074 -0.77005202 0.12543955
0.38724566 0.74923438 -0.11697818
0.63308322 -0.28142938 -0.11612436
-0.73722607 -0.40034267 0.12223949
-0.24904442 0.20572282 -0.12647375
-0.05205856 0.07569709 -0.12322243
0.00472186 -0.31902340 -0.12027820
-0.15068507 -0.85565841 0.08586268
0.31782797 0.12719117 -0.11509939
-0.68128288 0.52049702 -0.07221796
-0.49079919 -0.83202636 -0.10681668
-0.54852456 0.56556505 -0.05299928
0.39062014 -0.61415690 -0.05649137
0.72680283 -0.25012895 -0.12233222
-0.62569392 -0.52526695 0.05200683
0.28026384 -0.85475576 0.05224949
0.43478173 0.46479344 -0.11982116
-0.33357531 0.85092837 0.02964475
0.64636528 0.17371541 -0.12016431
-0.16425799 -0.24995892 0.13132906
0.44233966 -0.63728857 0.04752988
-0.45696309 0.64956892 -0.09123822
-0.85407299 -0.24924761 0.11660725
0.76699418 0.30071780 -0.12456992
-0.60596824 -0.10445902 0.12345377
-0.31514162 0.85803896 -0.08824093
-0.12423285 -0.48237857 0.12482639
0.02849607 -0.76586342 -0.11769425
-0.35140878 0.00393326 -0.12007207
-0.62527829 0.09782726 -0.11940157
-0.45309713 -0.16249135 0.12900820
0.16207820 0.86422539 0.01711396
-0.06044738 0.63037217 -0.12326483
0.07472523 0.47926417 -0.12356211
0.82853615 0.52285558 0.09611051
0.40693742 -0.01350001 0.13087764
0.86392528 0.25242794 0.11000509
-0.26770926 0.47534519 0.12738198
0.80878294 0.42875162 -0.11717817
-0.38289207 -0.84727621 -0.09674960
0.82681668 0.25888649 -0.12146030
-0.52992260 -0.18574281 -0.11414358
0.85723096 -0.19719593 -0.10522813
-0.75196457 0.23343886 -0.11362734
0.21432793 -0.52982920 0.12607205
-0.10197703 0.37256446 0.12324374
0.04038811 -0.84559649 -0.10011218
-0.34300417 -0.19215749 -0.12394096
0.32915539 -0.22403325 0.12859571
0.27254188 -0.52931148 0.12713292
0.51816767 0.74783611 0.12498442
0.66560590 0.01796678 0.12970123
0.73834699 -0.42788234 0.13074607
0.85279340 0.24858746 0.06101874
0.64245307 0.38504770 0.06936444
0.44019261 0.85333276 -0.08777548
-0.64157742 -0.33951357 -0.00077817
-0.70702231 -0.45594791 -0.00660860
0.33827853 -0.13374317 0.12512121
0.69065517 0.45011291 -0.05897186
0.83520353 0.10984818 0.12493747
-0.85103285 0.37181619 0.05849967
0.34296507 0.85204172 0.07390143
0.44668809 -0.65252000 0.12629861
-0.45229000 0.72529948 0.13034138
0.75555444 0.09381998 0.12805796
-0.64163285 -0.31619737 -0.11787118
0.07469047 -0.85015553 -0.07625298
-0.62197226 -0.41413426 0.05340174
-0.17945011 -0.63829982 0.12763441
-0.14187589 -0.23891281 0.12555686
-0.66065753 -0.46939474 0.03178939
-0.32406467 0.66620773 -0.10768994
-0.54415435 -0.41117948 0.12598488
-0.81618261 -0.15877491 -0.12010325
0.86256135 0.30599734 0.00060367
0.81351274 -0.17418440 0.12789312
0.56751424 -0.56986451 0.03889740
0.09075638 -0.86214370 0.05093929
0.77774727 0.52984792 0.05436363
0.52907550 0.79906195 0.09895046
-0.25313669 0.26383060 0.13252804
0.47314781 0.40784833 0.12919587
0.73360473 -0.06909432 -0.11954047
-0.25351286 -0.39361918 0.12744078
-0.32638299 0.70873129 0.04837838
-0.70342249 0.37008172 0.13157368
0.43667382 -0.76021945 -0.01043212
-0.05647917 -0.82504809 -0.11608802
-0.69881356 -0.42207819 0.13154256
-0.22192106 -0.61473203 0.12588501
-0.33926108 -0.65729296 -0.11927792
0.59933829 -0.38113087 0.12662330
0.28933918 0.37228826 -0.12095308
0.44788170 -0.63774645 0.02198226
0.52303863 0.03283583 -0.11841263
0.27631515 0.03725610 -0.11877246
0.60579056 0.07057332 -0.12222467
0.20957382 0.54569376 0.12870473
0.05639822 -0.43681061 0.12800825
-0.02107209 0.86001194 -0.03255261
-0.00892015 0.56707400 0.12418955
0.20554130 -0.77474809 -0.11934308
-0.42864245 0.75898391 0.00187111
-0.43308228 0.76714355 0.13033822
-0.10192671 -0.64312816 -0.12269542
-0.29046938 -0.85434681 0.03373181
0.52489030 0.77255344 0.12843955
-0.17387545 -0.51942450 -0.11818349
-0.84824991 0.40206718 -0.00688639
-0.84427172 -0.43623808 0.12094080
0.17181784 -0.85977787 -0.01939585
0.14074126 -0.42346671 0.12174326
0.85775751 0.21542408 0.03150577
-0.17744660 0.29970872 0.13233101
-0.84769404 0.40611053 -0.05517717
0.67037392 0.10837053 -0.12111647
0.75910485 -0.44571367 -0.12131711
0.28615287 0.60412401 0.13171780
0.69352299 -0.14345595 0.12443512
-0.51466423 -0.74547935 0.09675331
-0.19352423 0.52782083 0.12697455
0.82768583 -0.11427872 -0.11801429
0.10181720 0.28682920 0.12651315
-0.67795956 -0.40532610 0.12174588
0.04117614 0.45427197 -0.12712279
-0.25626245 -0.65767658 -0.12062043
-0.78989434 -0.51508987 0.13365686
-0.45562389 -0.85162205 0.05815008
0.31844085 -0.41884691 0.13067001
-0.54671693 -0.58114475 0.12539142
0.39545569 -0.85605371 -0.11791006
-0.25625101 -0.01711843 0.13065434
0.03738686 0.30423656 -0.12033846
0.19984792 0.26488081 0.13093567
-0.03870970 0.66658032 0.12751153
0.67149287 -0.52284873 -0.01647530
-0.65958446 -0.13732919 0.12727144
0.48428613 0.34168020 0.13156477
-0.38148123 0.39036107 -0.11992539
-0.49178153 0.76470721 -0.11040841
0.37221220 -0.77871841 0.12518078
-0.41126648 -0.81966549 -0.12278647
0.86589223 0.34456766 0.02726522
0.52601355 -0.70335734 -0.09281103
0.36325702 0.47048053 -0.12044746
-0.59018517 0.55119014 0.11429050
0.86095512 -0.37326512 -0.07136194
0.77427644 0.52621180 0.03788769
-0.48520219 -0.02090451 0.13116178
0.31825587 0.12274002 -0.12255227
0.01538840 -0.56265748 0.12960675
0.18682401 -0.73819500 -0.11742797
-0.48364282 -0.36231813 -0.11693142
-0.52347869 0.62336403 0.11812818
-0.65377653 -0.51337653 0.04509046
-0.78173488 0.06883080 -0.12003534
-0.27932730 0.14760274 0.12506583
-0.71083540 -0.32178387 -0.06800065
0.85477644 -0.32308987 0.11512350
-0.65833610 0.01320336 0.13125011
-0.28647390 -0.42772296 -0.11844134
0.03816368 0.70806575 0.12898418
0.83891559 0.39888149 -0.12531811
-0.14097893 -0.84942740 0.03615761
-0.57085079 0.41531414 0.13063234
0.16427161 -0.26731306 0.12918970
0.30755195 -0.75421113 -0.11736740
-0.07041858 0.75319821 0.12403601
0.15887618 -0.67650336 -0.12216233
0.57549649 -0.23093033 -0.12214580
-0.62721109 -0.48596433 0.12674230
0.83827543 -0.25572953 0.12833261
-0.21452697 -0.32609347 0.12986231
0.10373189 0.46282172 -0.12254635
-0.06100763 -0.40051356 0.11817921
-0.46288171 0.33987737 0.12047449
0.36133131 -0.60984492 0.12782428
0.49914575 0.14297076 0.12895888
-0.50832862 -0.78193128 -0.10648167
-0.07553831 0.05674998 0.13576043
0.32638592 -0.85960859 -0.09065909
-0.03855526 -0.33644155 0.12072814
0.57921660 -0.10650115 0.12860245
-0.08895443 -0.77923870 -0.12192070
-0.28101471 0.36698234 -0.11940271
0.06694168 0.28174564 -0.11920771
0.51141590 0.50079530 -0.12517041
-0.26149380 -0.17909513 0.13039833
-0.74669874 0.01808482 -0.11936015
-0.14091796 0.82949293 0.13386211
0.23631786 -0.40003574 -0.11860096
0.85933447 -0.17065361 0.08174957
-0.08314101 0.71288323 0.13347423
-0.21779427 0.03980397 -0.11866225
0.51428819 -0.71595198 0.10847513
0.43762109 -0.18546948 -0.11508225
0.02643985 -0.10477746 0.12735751
-0.29080445 0.59834450 -0.11193211
0.01337865 -0.69256443 0.12765220
0.53025311 -0.53734130 -0.11657725
0.34900957 -0.31293741 -0.12373924
0.68197918 0.45531687 -0.10675727
-0.26230884 -0.12290508 -0.11615691
0.71864605 0.45487300 0.03739775
-0.85083610 -0.22526015 0.01819838
0.86087441 -0.47241345 -0.08571644
-0.40833741 -0.79417109 -0.12348904
0.46891952 -0.85951167 -0.05141103
0.04599547 0.31550044 -0.12122008
-0.32801181 -0.19176126 0.13135818
-0.79104352 0.29608086 0.12820008
0.49664658 -0.13090722 0.12761632
-0.27406299 0.85486811 -0.10227943
-0.17373003 -0.24144217 -0.12097616
0.70448434 -0.52437222 0.01949363
-0.37473637 0.44749036 0.13077393
-0.71868634 -0.09696473 -0.10891285
0.50873172 0.66436970 0.12523127
0.78779215 -0.48006979 -0.11776821
-0.37239456 0.74504894 0.06516755
0.72846234 0.46242768 0.00285445
0.80114073 -0.44920814 0.12557691
-0.81190228 0.52154911 0.08828335
-0.73605204 0.01092251 -0.11012317
0.38052440 -0.56087118 0.12791914
0.53354585 0.45741823 0.13366115
-0.12241112 -0.17053431 0.12591439
-0.16407341 -0.41196951 0.12678424
0.73180276 0.15325488 0.12765688
0.83277065 0.25339842 0.12728220
0.53334570 -0.68451202 0.08090739
0.72865832 0.33269596 0.03681580
0.64607334 0.43719262 0.03411060
-0.37160572 0.51395911 0.12658226
-0.32615042 -0.27973777 -0.11348052
-0.10744411 0.85382670 -0.05231823
-0.45501232 0.30072162 0.12713856
-0.36413652 0.78607512 -0.11776439
0.10545918 -0.73961025 0.13309556
-0.26880878 0.78967535 0.12721279
-0.06207490 -0.16912037 0.12725291
0.33195272 0.85557789 0.06186809
-0.06333954 0.58755153 -0.11756051
-0.51125592 0.66666061 0.00479219
-0.32161051 -0.26439449 -0.12296257
-0.42882517 -0.08360717 -0.11934680
0.04772855 -0.52191585 0.13174817
0.73175496 0.32557878 -0.00760909
-0.54204100 0.32637599 0.12931302
0.56723225 -0.57217944 -0.03386962
0.29003596 0.33616146 -0.12520742
-0.14578596 0.73820072 -0.11935277
-0.66002786 0.09108044 0.12996775
0.20242736 -0.11436722 -0.12087788
0.69451886 -0.27850831 0.12661925
0.12667412 0.01839621 -0.11417952
0.55707091 0.52277070 0.13190860
-0.39292267 -0.62181866 -0.11718937
-0.16276063 0.16475956 0.12610283
-0.52913487 0.56970173 -0.11358035
-0.84536797 0.28733286 0.13259456
-0.34887552 -0.72854120 0.13265994
0.46272844 -0.73094165 0.05026156
-0.35294813 -0.85455948 -0.11177819
0.45448926 -0.74982864 -0.00747673
-0.61133528 0.09071328 0.12988690
-0.53472924 0.06032211 -0.12193968
0.76799715 0.40399587 -0.07067558
0.81634390 -0.37011307 -0.11510250
0.86073995 0.12282710 -0.06851956
-0.72483957 -0.26614410 0.12697676
0.57850486 0.31482363 -0.11295328
0.79309767 0.21354519 0.12472216
-0.33774334 0.56859905 -0.11633310
0.22326824 0.51532894 -0.12184057
-0.63687021 -0.46520963 0.04907997
-0.21891958 0.85280871 -0.03121925
0.36629295 -0.61893153 -0.11278041
0.70019895 -0.36632320 0.12655470
-0.73807085 0.52002740 0.05632862
0.41412216 -0.75941545 -0.04363311
0.23803574 -0.47616914 -0.12938312
