-0.07196510 0.25574127 0.72198778
0.07356065 0.10626161 0.50892901
0.16703622 0.05971901 -0.71184546
0.08743996 0.31140915 0.66457748
-0.14258859 0.33406132 -0.71608597
-0.13792135 -0.53585970 -0.76169574
0.06027693 -0.20197010 -0.75640589
0.09440712 0.08689155 0.57753104
0.16519585 0.06533149 0.28901640
-0.13661101 -0.50867856 -0.78417295
0.01178305 0.16676426 0.78276056
0.07097854 -0.51061404 -0.74811071
0.07164645 0.09766752 0.41116554
0.13157521 -0.08093420 -0.61838150
-0.15249391 0.31007886 -0.22777581
0.08145696 -0.35608846 -0.76621819
0.18936507 0.03544348 -0.50300205
0.00265754 -0.12051326 -0.48399353
0.20173928 0.14386705 -0.04942828
-0.09243704 -0.21002223 -0.69273275
-0.13219723 -0.27876502 -0.75047988
0.10333300 0.10145000 0.72666144
0.21299665 0.12961762 -0.09839204
-0.13007581 0.29961845 -0.01828910
-0.01020584 0.25465888 0.73161018
0.08433837 0.26412746 0.51060724
0.17971356 -0.54014337 -0.72636396
0.07507964 -0.02528726 -0.79978418
0.09136271 0.29405284 0.29742825
0.05909753 -0.34982151 0.13532551
-0.11342501 -0.51203024 0.15321352
-0.17223065 0.01339780 0.24462563
-0.03763198 0.19619462 -0.84548378
-0.09897190 0.26767880 0.31220558
-0.17196178 0.27010268 -0.11832933
-0.11967789 -0.06864919 -0.03059437
-0.03424078 -0.16768757 0.11951616
-0.06649190 0.39278534 -0.73425233
-0.14304544 0.10546494 0.32278296
0.12095536 -0.17504881 0.05916270
0.00033044 -0.20921123 -0.27177840
-0.15503149 0.33927700 -0.49105522
0.12869225 -0.15368703 -0.81589860
0.13962658 -0.12437022 -0.76825172
-0.12489323 -0.06734672 -0.38964084
-0.11663347 -0.44082218 0.05922183
-0.06620049 -0.14214359 -0.14064173
0.19323048 0.15204640 -0.33924818
-0.08884066 0.08995000 0.36640912
-0.11562974 0.36385614 -0.70720315
0.08179156 -0.42540506 0.12666500
0.14796600 -0.51747245 0.14498337
-0.11554229 -0.47717279 0.04067331
-0.09590479 0.37027526 -0.25713444
-0.18131103 0.03953480 -0.52140629
-0.06508338 0.11155497 0.48423892
0.09629508 -0.11800158 0.22672559
0.02593643 0.23590377 -0.82413131
-0.15756285 0.34463394 -0.48915464
-0.16255680 -0.04858817 0.06273684
-0.05704287 -0.13048710 -0.36997181
-0.18183690 0.02834575 -0.54017711
-0.17685997 0.01952243 -0.40759236
0.06341254 0.01510409 0.80807567
-0.16763599 0.28821981 0.59599054
0.04378218 -0.21937008 0.10995683
-0.12406973 -0.43100029 -0.80415303
0.04449986 -0.15932390 -0.10362460
-0.07791873 -0.48268604 0.13476540
-0.02541775 0.18049324 -0.84033978
-0.07196607 -0.06437531 -0.79765695
0.17188202 -0.01124488 -0.30531764
-0.02208284 -0.17351432 -0.14984541
0.04964349 0.08611807 0.46085948
-0.02016983 0.33569577 0.68535227
0.07103609 -0.29262203 -0.78073317
0.09689485 -0.42368796 -0.83801162
-0.08739310 0.32787043 -0.79197812
0.01693213 0.02828650 0.71019310
0.20182671 0.07459790 -0.50006270
0.11989820 -0.53688002 -0.80205137
0.18328932 0.00383104 -0.56966686
0.05728630 -0.04757480 0.31982622
-0.18721184 0.27614206 -0.42560306
0.11373282 0.34331498 -0.17073943
0.16482505 0.19954056 -0.71553445
-0.13387442 -0.18858901 -0.70053804
0.20493379 0.16259205 -0.15924087
-0.04767389 -0.17587981 0.06761138
0.13294299 -0.05813967 -0.39378047
-0.02195336 -0.17301378 0.09022221
0.05883775 0.34213519 0.46797624
-0.16927131 -0.08932403 0.07316545
0.02957701 0.03032819 0.38530371
-0.12224464 -0.56186175 0.14328711
0.09337419 -0.47905624 -0.80452305
-0.14128645 -0.09792452 -0.75814021
-0.13101183 -0.23523550 -0.80964929
-0.14095038 -0.02673174 -0.01770059
0.11779167 0.08580950 0.35334796
-0.17905672 0.03817539 0.13350402
0.04000165 -0.37339020 0.09610359
0.10671417 0.13884433 -0.79120797
0.14231166 -0.08493549 -0.77925885
-0.04524429 0.37694475 -0.18307403
0.02603033 -0.11108482 -0.44244611
0.04597945 0.35349366 0.42690289
-0.13512965 -0.23642696 -0.76661038
-0.07752701 -0.08408459 0.26193926
-0.11705950 -0.48278502 -0.73772424
0.02370241 -0.19911245 0.20378587
0.16608866 0.13199976 0.20913254
0.18174939 -0.02884544 -0.68776053
-0.07374864 -0.30426490 0.04281519
0.18211676 0.10078605 0.05386155
0.06902512 0.06078705 0.56813103
-0.12789312 -0.28181827 -0.81209421
-0.12475119 -0.42124373 -0.80357903
-0.18960409 0.04524467 -0.36940038
0.10349598 -0.30455369 0.14395157
0.16406095 -0.43662658 -0.78195041
-0.21039614 0.16252063 -0.29678941
-0.03616888 -0.01620156 -0.73451084
-0.17639385 0.02194545 0.21099320
0.15288880 0.25390768 -0.74143314
-0.08246166 -0.36507908 -0.75934649
-0.11837786 0.37709612 -0.56032664
-0.03731056 0.37900114 -0.16903716
-0.07841673 -0.26579016 -0.84524482
0.06415182 -0.13181227 -0.77001244
0.10190545 0.26928827 0.63304180
-0.02727148 -0.15408897 -0.11568924
0.14784035 0.29281196 -0.10415363
0.12923414 0.01645730 0.31529373
0.02600921 0.40326512 0.25032005
-0.06825376 0.28938392 0.52063638
0.16254187 -0.00725944 -0.53604394
0.01274161 -0.16077536 -0.38253987
-0.04856968 0.35092992 0.61751151
-0.03445286 0.39533037 -0.77843875
0.19581002 0.31269518 0.52864796
-0.07325222 -0.21526007 0.15615994
0.00612437 0.40350148 -0.17361851
0.12354703 0.33746123 -0.72608638
0.19867566 0.20621625 -0.24590701
-0.09474574 0.25946969 0.39355183
-0.12478616 0.24135733 0.27900887
0.21510491 0.11246768 -0.17141853
-0.04901957 -0.13623148 -0.71157002
-0.20321092 0.17418480 -0.34601510
-0.12014055 0.18619627 0.33089417
-0.17322889 0.04270076 0.02454340
-0.20113485 0.09491126 -0.59327209
-0.11899059 -0.04359639 -0.47215682
-0.16061553 0.30348721 0.60152316
0.09152675 -0.08751453 -0.82410479
-0.04464456 0.08415219 0.54398596
0.08443805 0.39493743 -0.47474214
0.04602762 -0.03405803 -0.75964844
-0.12205624 -0.48632255 -0.82167667
0.06553850 0.30913633 0.44420204
0.09130765 0.02439382 0.71224570
-0.01126936 -0.17613864 -0.38161570
0.02437450 0.37260327 0.41463023
0.04968036 -0.48364669 0.09061116
0.07457625 -0.09016321 -0.80630636
0.17127226 0.02513852 -0.41931966
-0.10656650 0.34604314 -0.16846626
0.09271003 -0.40459386 -0.74723858
-0.07170029 -0.14316347 -0.67135292
-0.18852846 0.20586678 -0.11431359
0.17956325 0.01922761 -0.02870810
-0.06101732 0.35782558 0.34325597
0.05116428 -0.06424886 -0.75024277
-0.00754454 -0.18773845 0.21040039
0.18411180 0.16126554 -0.66143924
-0.08772043 0.12558617 0.39902031
-0.02981031 0.40592206 -0.38530791
-0.09731705 0.28426930 -0.80476439
-0.07960773 0.40622920 -0.42737919
-0.07734361 0.39905536 -0.39357296
0.15233263 -0.53964442 0.15981194
0.15519367 -0.12475952 -0.73344451
-0.17977782 0.25742745 -0.10242899
0.04593102 0.15127510 0.80719382
-0.04687865 0.35093287 0.60731643
0.01712462 0.36320066 -0.79879367
0.12497589 0.31090498 -0.01880901
-0.03979828 0.10712270 -0.81445557
0.17148000 0.01119997 -0.69266951
0.17320421 0.34630406 0.55960166
-0.14277919 -0.19746660 -0.74314052
-0.07681058 -0.02892095 0.30137500
-0.12003488 -0.30434680 0.12656629
0.16091555 -0.01713486 0.22598948
-0.00717404 0.24557337 -0.82714367
-0.20497255 0.15499143 -0.14680384
-0.13602939 0.22630283 -0.78056198
-0.04225215 -0.09533193 -0.47732520
0.00078139 -0.05652398 -0.62182450
-0.02671701 -0.16023415 -0.16641746
-0.25060850 0.30976087 0.62484169
0.05612452 -0.54524368 0.16709194
0.10889079 0.10131805 0.75718510
-0.05002891 0.35642827 0.60848230
0.08626442 0.26731405 0.45744029
0.10596650 -0.09346979 -0.01290328
0.15344089 -0.09657022 -0.73473388
0.11250936 -0.07734598 -0.62806898
0.05679014 0.16413249 0.77270043
-0.06905273 0.40935010 -0.42677277
0.04926158 0.30736002 0.69977272
0.11052945 0.19243810 0.59455341
0.07536487 -0.06465736 -0.53894043
0.03076562 0.42421296 0.05302077
-0.17304599 0.15144704 0.06783162
-0.10059462 -0.48416847 -0.71494401
-0.08980634 -0.16779757 -0.84435391
-0.06353366 -0.14600071 0.04959825
0.01613515 0.06342445 0.49687183
-0.06777532 -0.17365293 -0.69768769
0.15626045 0.35805511 -0.52101499
-0.21649949 0.08999240 -0.24231647
0.02179519 -0.18193901 0.24498767
-0.07354336 0.16361997 0.47788444
0.17370944 -0.50416857 -0.74859303
0.17356239 0.13874449 0.18017815
0.09328263 -0.11270057 -0.01741059
-0.16008076 -0.00864668 -0.72298819
-0.20903230 0.15705158 -0.16993661
-0.11947455 0.24397114 0.31334004
-0.18257551 0.31427291 0.60620457
-0.19524176 0.20439723 -0.63525963
-0.04944471 0.06353211 0.41234067
-0.17713436 0.17995161 -0.00047409
0.13919093 -0.03906971 -0.47182602
-0.18901828 0.13545932 -0.46216199
0.19826503 0.10039371 -0.00538818
-0.04153509 0.06931949 -0.79217923
0.03265759 0.10362655 -0.81348825
-0.17266895 0.03086483 0.07722735
-0.07708765 -0.25484973 -0.73012120
0.16082251 0.28411230 -0.38618410
-0.15982251 0.19388556 0.14397475
0.08071379 0.27783436 0.48086089
0.05604569 -0.14796725 -0.05000290
-0.13151939 -0.18357386 0.17454033
-0.13951994 -0.06964113 -0.78164667
-0.16148603 -0.13669538 0.14070724
0.16922709 0.29224300 -0.56361425
-0.10422458 -0.20710222 0.04296754
-0.11860255 -0.05239534 0.01298681
0.06235557 0.01734038 0.36283347
0.10177052 0.21686929 0.39661163
-0.02123690 0.07884645 0.75353920
-0.12906939 -0.54446745 0.15093707
-0.19866419 0.14486723 -0.61854559
0.14437377 -0.06333768 0.23344028
-0.19362323 0.18450165 -0.48833305
-0.18868448 0.25992295 -0.60335368
0.00390643 0.15022205 -0.83104873
0.17098680 0.25619709 -0.35855544
-0.19808254 0.17052487 -0.07718973
-0.15164872 -0.07404114 -0.72300762
-0.08485801 -0.13726562 -0.27251723
-0.03643516 0.22389051 0.72820288
0.13982187 0.26806304 0.54431784
0.21106122 0.14720248 -0.24730149
-0.07462718 -0.22173999 -0.84223747
0.18213807 0.23561290 -0.29170632
-0.06238731 -0.25277680 0.14558324
-0.19699299 0.15950608 -0.40123257
-0.12633663 -0.28324139 0.12587890
-0.17307971 0.08582538 0.07570073
-0.06244500 -0.25057840 0.15200572
0.09541471 0.35299823 0.08924814
-0.16112772 0.01429094 -0.50906521
-0.02037081 -0.10761984 0.31681523
0.04044373 0.17358561 -0.82488704
0.17521606 -0.53499174 -0.73484731
0.01106562 0.39833987 -0.28247556
-0.05016617 -0.47281289 0.07336032
0.19140413 0.22738224 -0.20332532
-0.18656985 0.24099016 -0.33612770
-0.10934114 0.34620205 -0.27193820
-0.03386679 -0.03606999 0.34863088
0.08577930 -0.26485002 -0.74118739
0.08897759 0.26220426 0.57577759
0.12638438 0.33471328 -0.34486598
0.16902691 -0.01461988 0.16600507
0.04045570 -0.13997835 -0.34191912
0.05998892 -0.50711107 0.05882478
0.06651515 0.37948024 -0.06618016
-0.17506510 0.28157240 -0.25727284
-0.05648036 -0.13196686 0.06193198
-0.04044451 -0.18812168 -0.74833435
-0.04799114 -0.29263356 -0.79213494
-0.00782324 0.05502036 -0.79471904
0.11239092 0.29426885 0.51238948
-0.05901066 0.37331015 -0.19208562
-0.12104838 -0.27936742 0.12424949
0.17032687 0.22929367 -0.03232468
0.16936271 0.27688006 -0.25009739
0.19569360 0.20601380 -0.52560627
-0.15799169 0.18741664 0.18993616
-0.06915496 0.30127737 0.56628054
0.09959259 0.13729796 0.55032539
-0.11777908 -0.31976175 -0.82837886
0.13101228 -0.13927427 -0.80154955
-0.08379439 -0.41701964 -0.83987641
-0.11504553 -0.21820383 -0.82730263
-0.04860402 -0.38419658 -0.80265188
0.07284707 0.31573138 0.44502062
-0.12691814 -0.26103401 -0.81542599
-0.09762646 0.38290212 -0.56762022
-0.17482910 -0.08014132 0.11114982
-0.02238560 -0.19190116 -0.26705441
-0.09153131 -0.43767428 0.03149519
0.16998103 0.22686738 -0.01853761
-0.13064748 -0.03033860 -0.47546792
0.11325487 -0.11523823 -0.26312739
0.05044658 -0.30128586 0.06065974
-0.09125204 -0.26829514 -0.73140466
-0.21669035 0.16766837 -0.26612327
0.04602376 0.04848796 0.57911766
-0.11354953 0.33269003 -0.04450830
-0.11162771 0.12423980 -0.80242372
-0.03484472 -0.49100363 -0.77451456
-0.20080525 0.20270661 -0.31010526
-0.04622454 -0.14426255 -0.05740561
0.10435483 -0.56102312 0.14777930
-0.05362753 -0.56201720 -0.76588863
0.19573794 -0.00067191 -0.19634476
-0.06687831 0.38203204 -0.35547233
-0.07354140 0.26310164 -0.81311971
-0.06660152 -0.04247618 -0.77912122
-0.06310064 0.34477907 0.37948611
0.05850490 0.08868615 0.41168684
-0.18928401 0.24682385 -0.34424335
-0.19718780 0.22041318 -0.59743232
0.21876664 0.08363628 -0.53492987
0.18091197 0.03924570 -0.01647132
0.07731932 -0.51711261 0.04350676
-0.19113243 0.15578802 -0.48056486
0.08316918 0.32035577 0.61332321
0.19540654 0.17423314 -0.49298051
-0.12706141 0.31410757 -0.03338807
-0.12770802 0.37463045 -0.51739293
0.14931923 -0.05909581 -0.10319996
0.10932801 -0.08525881 0.23707122
0.17357107 0.10539819 -0.71483004
-0.08531913 -0.10935877 0.00004596
0.05168816 0.35043517 0.63362694
0.11897303 -0.19247973 0.18020579
-0.08661655 -0.06480232 -0.48330933
0.10991016 0.32890865 -0.00684158
-0.15626113 0.29305094 -0.70741820
0.10764746 -0.08717321 -0.01888730
0.11385756 -0.10419531 0.21387237
0.05721430 0.17734578 0.76288122
-0.11479952 -0.33136818 -0.82266343
0.15666336 -0.28348905 -0.78868693
0.02954845 0.01955831 0.73834974
0.18141928 0.04875068 -0.67359686
0.05415983 -0.15008511 -0.00857126
0.09756659 0.30693799 0.59720618
0.14452602 -0.21307327 -0.71764261
-0.16078533 -0.01892099 0.05142815
0.04226040 -0.39183289 0.08907378
0.08720291 0.36071944 -0.12207181
-0.17184202 0.05491349 0.26489580
0.03943713 0.39270353 -0.70380402
0.03741253 0.34277970 0.66178387
0.17719063 0.22071081 -0.37212452
0.10784458 0.12023096 0.60527432
0.03277192 -0.31538135 0.07826003
0.11901833 -0.46777770 0.12781191
0.16407277 -0.03459783 -0.09988908
-0.19850089 0.19765195 -0.51398665
-0.06322177 -0.47127193 -0.83485734
-0.07620185 -0.12585184 -0.05229100
0.01987589 0.02691923 0.82018292
-0.07907399 0.25730285 0.68048286
-0.10404547 0.29257596 0.26773086
0.10999472 -0.20509940 0.06110394
0.09376512 -0.16349046 -0.67713755
-0.19355156 0.13377663 -0.63525850
-0.08381549 0.25078756 0.66974473
-0.00022470 0.23696098 -0.82325852
0.00831586 -0.10326925 -0.53469849
0.15093608 -0.17590997 -0.77722514
0.17222570 0.26232728 -0.19193189
-0.14962541 0.23589200 0.06308104
-0.19862626 0.09980215 -0.05944571
-0.10245389 -0.56571698 -0.76794708
-0.19153698 0.06660113 -0.05067603
-0.12284386 -0.55794257 -0.77178347
-0.11866813 -0.05062466 -0.45168757
-0.16820261 0.30456555 -0.66069889
-0.00282874 0.03061259 0.73596227
0.10884663 0.29192179 -0.79718357
-0.16452169 0.18531170 0.18421923
0.15015949 -0.07327402 -0.17293581
-0.10849183 -0.04878912 -0.48874554
0.14866403 -0.13747451 0.06903344
-0.08678176 -0.09583002 -0.63523316
-0.13672808 -0.17467840 -0.74598491
-0.04854337 -0.19146058 -0.80979294
-0.19714971 0.17372744 -0.58856452
-0.18119860 0.29537049 -0.46193352
0.03909718 0.41483748 0.01755982
0.15391463 -0.53009713 -0.79077607
-0.05051725 -0.20096190 0.10078026
0.11380482 0.34883872 -0.28825891
-0.10362869 -0.24783830 -0.83782649
0.19016951 0.05130245 -0.32046926
0.11393103 0.34217504 -0.04831941
-0.18203370 0.28723201 -0.48130584
0.00734688 -0.20856427 -0.29903713
0.06554236 0.20582330 0.74348199
0.05253909 -0.24965182 0.15120855
0.01463853 0.36038506 0.64741123
0.08076145 -0.06622025 -0.45292687
-0.06706271 0.28727993 0.70467025
0.11308752 0.25384307 0.65989488
-0.05333948 -0.03865705 0.32633379
-0.16821793 0.16928546 0.22822364
0.16729698 0.16748796 0.13347568
-0.10816727 -0.03681351 -0.58273077
-0.11523639 -0.00645500 -0.79848540
0.09235160 0.35493225 0.12315673
-0.11281466 -0.12212534 -0.16762568
-0.18608625 0.12028094 -0.42779884
0.08687109 0.28904122 0.49291521
0.13835338 0.36899981 -0.53650731
-0.01909571 -0.15141761 -0.06478347
0.14396462 -0.02928364 -0.78903651
-0.05631107 -0.23786907 -0.81396908
0.15722460 0.29201636 -0.23222552
-0.15861708 0.22173458 0.14013804
0.08830526 -0.39011639 0.05864631
0.15061399 -0.33682942 -0.76993775
0.05297184 -0.27917299 0.05870049
-0.01828440 -0.11845416 -0.46563640
0.10917086 -0.13467029 0.21172060
-0.05349254 -0.08670171 -0.76973760
-0.10658057 -0.04481994 0.26114494
0.04875033 -0.15545490 0.06346067
0.19117166 0.22678500 -0.52621704
0.18431561 0.31334719 0.55242693
-0.06766353 -0.43215513 0.04128284
0.09772953 -0.27445006 0.15898949
-0.17979631 0.01568235 -0.66098940
0.01329359 0.03055400 0.71683210
-0.02964516 0.37269327 0.50660741
0.04735656 -0.33148995 0.05660755
0.10015421 0.31547001 0.56358522
0.16299069 0.33784109 -0.53559500
-0.06561992 -0.55897331 0.14405316
0.01712668 -0.12238450 -0.44516608
-0.17308307 0.26980129 -0.15169697
-0.09282794 -0.15120150 -0.83865774
-0.05501661 0.39371818 -0.18664825
0.14002912 0.26192820 0.17129688
-0.20344602 0.07033272 -0.57235885
0.10937890 0.07629594 -0.79317522
-0.17110768 0.00247734 0.23448876
-0.05654439 0.38941965 0.21893731
-0.01121344 -0.09180290 -0.56440657
-0.09661519 0.35090581 -0.09111138
0.14234960 0.26821429 0.05818257
0.10007393 0.19935381 0.56646991
-0.07639369 0.29387313 0.66034174
-0.03706030 -0.30856806 0.09648981
0.17047997 0.02917133 -0.38124862
0.10170773 0.34070519 -0.76207709
-0.11805270 -0.43268445 -0.75066090
0.14460495 0.31172282 -0.24894352
-0.03291967 -0.16066962 0.18273020
0.08465079 0.36843333 -0.15417920
0.17117868 0.11597326 0.16098824
-0.07389607 -0.24277337 -0.72204578
0.18450253 0.11640547 0.01959254
0.19660155 0.22678688 -0.62732202
-0.08559629 0.20449990 0.58802974
-0.13439748 0.35615832 -0.70691407
0.06925190 0.09935592 0.51824647
0.12877238 -0.40437168 -0.73924994
0.00316785 -0.20015118 0.22611624
-0.12831983 0.32845342 -0.26776153
-0.11330548 -0.02744779 -0.53124791
0.06310114 -0.11813737 -0.72720212
-0.03186985 0.39044407 0.37963176
0.01952839 0.08106484 0.45666921
-0.11819878 -0.08112803 -0.35742667
-0.08820583 -0.11823609 -0.82690865
0.01811031 -0.07178064 -0.59665775
-0.06076300 0.31003174 -0.81559664
-0.01144063 0.04913930 0.76334929
-0.01678590 0.28695327 0.72222203
0.14633711 -0.02586403 -0.00290034
-0.07854335 -0.12221331 0.19979590
0.12107584 0.38991803 -0.50242198
-0.10384918 -0.34198028 0.04560880
0.12366866 -0.26466390 0.10947445
0.08144335 0.22726834 0.71806073
0.17537606 0.02563058 0.00218411
0.17101523 -0.54091740 -0.77051812
0.09596435 -0.51644337 -0.68604416
0.19116826 0.23228440 -0.18442741
-0.00323461 -0.17134994 -0.02388076
0.02511125 0.17402297 0.78394496
0.08002866 -0.14287740 -0.21494517
-0.02509466 0.22202563 -0.85360092
0.02192669 0.31631353 -0.81283808
-0.01146499 0.39253512 -0.27441815
-0.14753556 -0.00193831 0.00325889
-0.04961207 -0.41503313 -0.79410690
0.07313067 0.10489839 0.83312440
-0.16634125 0.32885742 -0.51351517
0.04093763 0.35016516 -0.79019439
-0.04844412 -0.06297101 -0.57203436
-0.08770829 -0.13228364 -0.66188604
0.12318210 -0.41517514 -0.74233240
0.06173885 0.08175701 -0.81331813
-0.08049022 0.23988226 0.54726255
0.15754291 -0.11982715 0.16737698
0.20045671 0.21863249 -0.16412178
0.06036872 0.38283771 -0.21905562
0.07900088 0.12636502 -0.80762684
0.03232510 -0.27781695 0.09733328
0.08941963 0.36135045 -0.10714835
-0.09140310 -0.40509450 0.10752863
0.12348722 0.36891681 -0.58692485
-0.15423010 0.06662154 -0.74121839
-0.07629902 0.25977892 0.49848664
0.15955241 -0.21908233 -0.75701737
-0.18986325 0.23214477 -0.13935491
0.02482429 0.40931109 -0.41187719
0.08358280 -0.12221163 0.01474034
-0.16009893 0.15925145 -0.75153250
-0.11789063 -0.02214321 -0.56660521
-0.13545176 0.21429589 -0.78206587
-0.05461974 -0.49448049 0.11961716
0.02283396 -0.07162529 -0.61739725
0.02932652 -0.16643192 -0.11695307
-0.06715931 0.16728419 0.67097229
-0.18466042 0.00582254 -0.61287010
-0.11920536 -0.27706817 -0.74926645
0.09387410 0.07876313 0.67536426
-0.09573572 0.34515011 0.17655694
0.04291893 0.41113710 -0.43718594
0.08739587 -0.53848839 -0.77729720
-0.10414382 -0.56240857 -0.75528556
0.00190144 0.37698317 0.60724145
-0.12372053 -0.30677971 -0.81688863
0.21547346 0.14272965 -0.55194014
-0.13015226 0.33433661 -0.74734664
0.07183900 0.36719966 0.19998708
-0.07013983 0.37909427 -0.29402924
0.03575479 -0.13543779 -0.34973544
-0.10685541 -0.36601534 -0.84163868
0.07767273 -0.27620143 -0.79544854
0.07064655 -0.08509532 -0.76338053
-0.19575766 0.23102924 -0.22606196
0.14542332 -0.03946320 -0.43793455
-0.14074673 -0.17744401 -0.74017006
0.01545283 0.41459125 -0.63419539
-0.01861959 0.06137967 0.71087062
0.21105455 0.09054226 -0.24621448
0.06363525 -0.54472363 0.17933588
0.05733703 -0.54622877 0.13606283
0.06754366 0.03331550 0.67128420
0.09104582 0.31380877 0.56236255
0.15779386 0.32243893 -0.58463538
-0.03864890 0.41258290 -0.40291023
-0.10237046 0.17230122 -0.80640918
0.08958407 -0.26562029 0.16263531
-0.19666103 -0.02107261 -0.28880942
0.12680623 -0.10358735 -0.63467330
0.20188470 0.20830360 -0.56593275
-0.14349583 -0.18944368 0.07430742
-0.09302553 -0.03745356 -0.59640294
-0.12983684 -0.17752725 -0.76087439
0.08165547 -0.19010815 -0.69544315
0.07981471 -0.06024646 -0.79484415
0.17574108 0.29102972 0.54348105
-0.06384678 -0.34389147 -0.77114016
-0.18884771 0.24835053 -0.58687419
-0.01838136 -0.07528314 -0.57036942
-0.11536095 -0.12635379 -0.64047748
0.09782884 -0.46947297 -0.82839155
0.02805419 -0.11113541 -0.47284535
0.05557914 -0.01758733 0.33835921
0.08358590 -0.47142640 -0.80194825
-0.17165335 0.31674412 -0.44010219
0.15421201 -0.11633082 0.18666527
-0.20041707 0.21449161 -0.34724742
-0.05897939 0.21088421 0.70363003
-0.10897583 -0.03355059 -0.52334243
-0.11440144 -0.42851618 0.05451292
0.05307381 0.39782155 0.17367594
0.07075287 -0.49505973 -0.78940105
-0.21265933 0.16844817 -0.21918921
-0.16036429 0.21844137 -0.75500256
-0.10477118 -0.23904060 -0.83776325
0.04934698 -0.02868043 -0.76488137
-0.17162015 0.28825921 -0.25456136
0.03295197 -0.08164461 -0.56389159
-0.18296348 0.01531304 -0.60271060
0.20984598 0.12641878 -0.51274896
0.05496971 -0.43858382 0.07595619
-0.07980865 -0.08049389 -0.44227991
0.15254566 0.19481739 0.21873318
0.15375006 -0.44534180 -0.74652207
-0.00649344 -0.16084316 -0.13251364
0.10540487 -0.22749875 0.16728160
0.15590765 -0.21416582 -0.74282485
-0.18299936 -0.02794015 -0.30104402
-0.06566978 -0.13587973 -0.32700947
-0.09262507 -0.14043263 -0.84271932
0.07439953 0.04368104 0.66032362
-0.03988882 0.02672555 0.38547492
-0.16602327 -0.13925219 0.14547122
-0.07009397 -0.09860338 -0.41622642
0.18331134 0.22993624 -0.35502079
0.03900286 0.39440149 -0.25645238
-0.16940425 0.22257105 -0.00784143
-0.11986742 0.31855065 0.13178350
-0.10211705 0.34487197 0.04373562
0.05446159 0.34307873 0.43706000
0.18835992 0.20809326 -0.30311024
-0.08719120 -0.35492676 0.11532512
0.15952612 0.14185587 -0.73234236
0.18915610 0.02283729 -0.05577654
-0.08148216 0.38199443 -0.26153514
-0.21809818 0.07810345 -0.15687652
0.07761777 0.27544865 0.51575935
-0.04238477 -0.09339879 -0.70935804
-0.06575897 0.37017506 -0.78181386
0.05248347 -0.22748698 0.07713170
-0.03819040 -0.13871321 0.26530260
-0.12329718 0.21285504 0.29056421
-0.14902718 0.22489554 0.08230419
0.01747761 0.15460211 0.79073364
0.01164993 -0.18464562 -0.36839116
0.19873458 0.21772552 -0.23310356
-0.20177241 0.18370610 -0.58592016
-0.20537041 0.15332051 -0.10270817
0.02682446 0.30996269 0.69392323
0.07434285 -0.04070332 0.31285900
0.19349821 0.04021890 -0.52234423
-0.06516375 0.22228378 0.69973809
-0.17591190 0.28185099 -0.36445272
-0.00138472 -0.02690231 -0.66656286
-0.21140063 0.09379394 -0.16665293
-0.02131935 0.36960569 0.58605719
0.08078363 -0.48750338 -0.73410094
0.10319489 0.39220583 -0.50118196
0.17044705 0.18231469 0.07890087
-0.09808320 -0.38801777 0.03945178
-0.10314788 -0.17380375 -0.84238046
-0.13220537 0.30743426 0.06073067
-0.01730647 0.22157171 -0.85373414
0.08200993 0.27102321 0.47762528
-0.01415493 0.40121412 -0.05903140
0.02367637 0.40445077 -0.63376653
-0.12550442 0.36689323 -0.59574032
-0.10956673 0.04549725 0.33839774
-0.10632096 -0.52627200 0.04124679
0.09465580 0.14566363 0.73406285
-0.20553084 0.04944622 -0.11656611
0.02287103 0.41285855 -0.55391222
-0.05682076 -0.40393844 -0.78095269
-0.04668730 0.41113636 0.23635361
-0.16207427 0.21015018 0.11694123
0.09511949 0.21669188 -0.80520022
0.11247019 0.21307740 0.32819098
-0.17921914 0.19015753 0.00738382
0.17989559 0.09459153 0.07074619
-0.01687100 0.22834143 0.73731428
-0.12650642 0.30810714 -0.03568531
0.09797890 0.19390285 -0.79869747
-0.07488155 0.06671530 -0.80581784
-0.14199810 0.28655943 -0.02644862
-0.07648122 -0.32469964 0.03853460
-0.05496230 -0.18225470 0.10698840
0.20592861 0.17302550 -0.24580693
-0.07922849 -0.55963069 0.16021097
-0.09969337 -0.12034813 0.04639076
-0.12536623 0.29514658 0.18080245
0.00598861 -0.06519126 -0.62641114
-0.16337800 -0.15555444 0.10701688
-0.09882767 0.39149195 -0.48397779
-0.06764781 -0.14360468 -0.81535405
-0.17331012 0.13301910 0.21881296
-0.09003135 -0.13925853 -0.14725684
-0.17223538 0.06441046 0.24876100
-0.19367370 0.07515205 -0.61924094
0.05014390 -0.46893260 0.10637690
-0.03657470 -0.04507460 -0.64398342
0.00420893 0.23408943 0.74212348
-0.08553182 0.35128418 -0.09172056
-0.08200498 0.18638635 0.55639660
0.15033035 -0.53400630 0.14414982
0.00614090 -0.16777563 -0.09687551
-0.07762239 0.29958212 0.64547092
0.09682640 -0.31468737 0.14039634
-0.04579875 -0.40070698 -0.81124258
0.16752197 -0.47981498 -0.78528231
-0.02507747 0.38158038 0.45363086
-0.17725088 0.16310108 -0.71655697
-0.07537783 0.01612822 -0.80051464
0.19935748 0.05995645 -0.04715588
0.13194552 -0.24216045 0.10045733
0.08942124 0.30193612 0.61174488
-0.11876648 0.37394914 -0.64551193
0.04713213 0.38222682 0.31345698
0.08906291 -0.24017727 -0.83475149
0.12839538 -0.53952765 -0.79266191
0.11766507 -0.32571551 -0.82462358
-0.04694496 -0.26151955 0.07082376
-0.15355508 0.22743440 0.14172985
-0.12854227 -0.18876781 0.17412531
-0.14733216 -0.00831989 -0.74735582
0.02595740 -0.11588153 -0.45107889
-0.00785180 0.04372744 0.69840485
0.20539737 0.17807418 -0.21776100
0.17199554 0.01729820 -0.69555092
0.15500581 -0.40266529 -0.77416450
0.04526172 -0.08704520 -0.44158322
0.13133505 0.01218145 -0.78096128
0.02305027 0.39785993 -0.77231437
-0.11174903 -0.21720493 -0.81437433
0.01398671 0.06325841 -0.80321556
0.07913283 -0.45956901 -0.74330181
0.09534755 -0.12599736 0.04171012
0.15756236 -0.11845826 -0.71718013
0.05907165 -0.15691987 0.20399719
-0.05382015 0.10378328 0.66867089
0.14630756 -0.04238052 -0.40059942
0.06751960 -0.39411986 0.12305957
0.20536309 0.17893922 -0.24685866
-0.06423412 0.35747179 0.36113393
0.16107094 0.25409979 -0.70315385
-0.17258023 0.10116707 0.17339045
0.14760223 -0.05434833 -0.08931307
0.14453679 0.00429198 -0.75161618
-0.08866071 -0.14850101 -0.17709263
0.10524833 -0.12231852 -0.23680164
-0.04878331 0.34215805 -0.80890894
0.16583143 -0.44660163 -0.77917540
0.15720668 -0.49526423 -0.80347985
-0.14565890 0.33070618 -0.73403656
-0.11681749 -0.26301497 0.04612335
-0.06284290 -0.04618445 -0.77177089
0.15416664 0.35694173 -0.46212697
-0.11059295 -0.07788897 0.21835782
0.09726220 0.36328879 -0.32336667
0.18846425 0.11274873 -0.37653694
-0.16439500 0.14919890 0.14026242
-0.09094537 -0.24362728 0.14145394
-0.11900355 -0.38889357 0.10495563
-0.05613992 -0.37172607 0.08699679
0.10697546 -0.12745266 -0.25117776
0.14309675 -0.43381765 -0.73548257
0.12619042 -0.54671872 0.17397659
0.05145325 -0.52160811 0.08033813
0.15126187 -0.38014531 -0.79068846
-0.04982382 -0.14437848 0.17231911
-0.03077522 0.06873055 0.64645213
-0.15007196 0.27581486 -0.75224292
-0.01918014 0.06105728 -0.76827085
-0.14164348 -0.13022977 -0.65524536
-0.03254878 -0.00151563 -0.74178851
0.02663839 0.40694633 -0.08301117
-0.06324936 0.40642112 -0.40204084
0.10570871 -0.45372671 -0.83155370
0.19407351 0.06711821 -0.63426185
0.11920226 -0.30537498 0.08638076
0.07160989 0.36063814 0.23796952
0.09991729 0.22826302 0.39654920
0.07367817 -0.07047456 -0.79438496
-0.17379557 0.05767620 0.05111828
0.11916088 -0.33441412 0.08854880
-0.07020128 0.38734204 -0.72058862
0.04558965 0.40325704 -0.39690918
0.14722157 -0.03035812 -0.51779628
-0.18675059 0.20432049 -0.03466760
-0.03840342 0.07665543 0.43101442
0.08828096 -0.47416398 -0.82272458
-0.10957194 -0.39221549 -0.76185215
0.16445248 -0.11332859 0.12298565
-0.15818375 -0.02081767 0.23343384
0.17380784 0.04191646 0.23627466
-0.17403288 0.32385164 -0.52961951
0.03561691 -0.19906396 0.11541240
-0.17946644 0.02870300 -0.40409732
0.17084368 0.02501320 -0.47485882
-0.04719795 -0.08014835 -0.66895211
-0.07243110 -0.55735999 0.16596386
0.16523150 0.34054947 0.54604590
0.05758179 0.32789397 0.50614160
0.16302080 0.20578188 0.07501549
0.09897622 -0.34825265 -0.83474785
-0.16273385 -0.08820364 0.16111873
-0.15358730 0.36806902 -0.46818289
0.07323645 0.28383437 0.70967638
-0.06026277 0.31035373 0.55551606
0.05668562 0.35141268 0.57897925
0.17752555 0.19998169 -0.41599032
-0.18604681 0.27817413 -0.48279384
0.08894304 -0.40271077 -0.78093398
0.09421480 -0.35527381 -0.83254772
-0.14265510 -0.15746665 -0.72348160
0.17153877 -0.53240395 -0.72259629
0.12447940 0.30170944 0.00631461
-0.03861105 0.40958714 -0.76124066
-0.13518511 0.29203627 0.60275984
0.07917490 -0.12910485 -0.81692284
-0.15147024 0.31123209 -0.73968554
0.05498244 -0.54729050 0.10892074
-0.01768810 0.41963813 -0.57743126
0.10240581 -0.30719095 -0.82556593
0.10701479 0.17049485 0.61293292
0.07521854 -0.12213205 0.21311451
0.15992512 -0.13621858 0.13876225
0.06037139 -0.11334857 -0.73219270
0.10280856 -0.40526971 -0.74312836
0.08368532 -0.14610097 -0.27400103
0.16429111 -0.49404675 -0.73071337
0.03304781 0.38896611 -0.18788303
0.16557877 0.29281408 -0.58176130
0.11934218 -0.26585346 -0.83299750
0.15093078 -0.25009525 -0.79379416
0.12643114 -0.26024473 -0.82906294
0.14571831 -0.16309974 -0.69703096
0.10813051 -0.12588905 0.04848159
-0.16079904 0.28780904 -0.12506823
0.08437554 0.37825540 0.08911415
-0.11038280 0.14432226 -0.80805844
-0.03821953 0.07154000 0.62202865
-0.04259016 0.41169629 0.21762313
-0.17322905 0.29198846 -0.65234351
0.18621285 0.28118896 0.53909975
0.00978320 0.01965766 0.75154531
0.15936241 -0.07135661 -0.16603558
0.05821744 -0.14629900 0.00129841
-0.04429705 -0.17759481 -0.70991743
0.16179751 -0.00335424 -0.01396525
-0.10502989 -0.55061269 -0.68103498
0.08864193 0.21029255 0.51469547
0.15773399 0.10046089 0.30975494
-0.07159458 -0.15039888 0.18426052
-0.05665421 -0.10164960 0.27461314
0.12123638 0.31046960 0.08913931
-0.10894756 0.38584045 -0.53781039
-0.06418657 -0.41305280 0.09130493
0.17346817 0.02301662 0.04080162
-0.12707961 -0.11714030 -0.76720554
0.14479566 0.11014289 -0.75675565
0.16444799 0.10395049 0.28103277
-0.10494671 0.14904954 0.38251433
0.17787690 0.00896322 0.20031807
0.11935061 -0.08170488 -0.37868986
0.14589281 -0.12995066 0.18978797
-0.02689004 -0.29021251 0.09488893
-0.00805201 0.15945819 0.77440464
-0.08019932 -0.05449949 -0.51415372
0.07737549 0.33826569 0.63628912
-0.03679176 0.00151780 -0.74651843
-0.05325473 -0.14376689 -0.00307308
-0.03948099 -0.51302564 -0.76085770
0.15659383 0.21989694 0.06366794
0.09142146 0.37150052 -0.34905684
0.09368832 0.29960367 0.52108169
0.07043152 0.40107837 -0.52667069
0.16076875 0.08552742 0.29703662
-0.02394447 0.26621974 -0.85236156
-0.00725804 -0.16429739 0.28488296
0.09970692 0.07017799 -0.79089397
0.01197370 -0.16994995 -0.00387082
0.13890965 -0.22885838 -0.80527812
-0.19007276 0.16717562 -0.47590557
-0.00453412 0.05329055 0.66556215
-0.05537179 0.38116530 -0.08058777
0.09576073 0.23618484 0.69478261
0.07443596 -0.04644307 0.31219926
0.00465917 0.34212914 0.65752494
-0.12749818 0.34513021 -0.35855317
-0.04014259 0.29766589 -0.82517809
0.11976007 0.33737367 -0.71568608
-0.08405063 -0.32529536 0.04062610
0.11137457 0.25973195 0.67986631
-0.19683418 0.03965700 -0.07804490
0.06793357 0.29054889 0.70095432
-0.12425245 0.30790219 -0.78150272
-0.00246395 0.07152511 -0.80950391
0.13648237 -0.12045524 -0.63887680
-0.07940435 0.39127240 -0.59444958
0.09868353 0.36236075 -0.71713746
0.04128358 -0.18569759 0.11378857
-0.11218181 0.37651619 -0.59108275
-0.12026720 -0.09582528 0.04267545
-0.07187404 0.14818916 0.51240820
-0.16667597 0.24103564 -0.73937982
0.07195666 0.38542938 -0.27197126
-0.08121412 0.04667477 -0.81480426
0.02755114 0.40400150 -0.68396324
0.12846991 0.19489628 0.31189129
0.10035249 0.07692997 0.70413244
-0.06995337 -0.37822619 0.03706469
0.12457590 -0.20550177 -0.82032275
-0.04118460 -0.22308455 -0.75510401
0.08860760 0.16804022 0.44319135
0.09560920 0.09226951 0.62384033
-0.20069616 0.10798064 -0.60567707
-0.06246541 -0.15832108 -0.82168400
0.00842185 0.03559827 0.70864511
0.14368849 -0.07151134 0.22384137
0.10053778 -0.48464027 -0.70684826
0.10037825 -0.55171621 0.14500161
0.09006182 -0.52166152 -0.78657258
0.09999009 -0.27674466 -0.81810802
0.17937876 0.09719904 0.09923526
0.00758316 0.41775930 -0.03459011
-0.10731500 -0.47358146 -0.84353495
0.10217596 -0.33316457 0.07069127
0.21412857 0.11566147 -0.54457146
-0.05869269 0.39353043 -0.62428635
0.07341872 0.36556342 -0.14655168
0.03933915 -0.10164741 -0.46064156
0.18438666 0.03003649 -0.66580540
-0.00579152 0.42045698 -0.72368842
0.02130370 -0.02219585 0.36580175
0.09958787 0.11070447 0.70614147
0.03188423 0.40546358 -0.40793678
0.17453006 0.05630773 0.26561287
-0.11279315 0.31944376 0.13169162
-0.04595296 0.38495424 0.31064194
-0.09816163 0.37787735 -0.62186456
0.10610250 -0.04162106 -0.81835568
-0.19830544 0.21506986 -0.55987579
-0.04511974 0.42621848 0.12520467
-0.10151222 0.35067400 -0.19697171
-0.10264608 -0.13278586 -0.82639134
-0.03727528 -0.16609341 0.15963502
-0.06418025 0.34037480 0.62454289
-0.04410929 -0.14271814 -0.75688291
-0.05729938 -0.53892446 -0.72296792
-0.05814180 0.40007403 -0.31399885
-0.14562765 0.04179684 0.30818287
-0.11708594 0.33652389 -0.17372219
0.11486176 -0.41492534 0.07631960
0.06432360 -0.54935491 0.09411178
-0.01785048 0.43103728 0.06779657
-0.05470387 0.39135975 -0.34832212
-0.09838640 -0.04104255 -0.50795567
0.18828171 0.23569477 -0.50954932
0.01165874 -0.18315674 -0.22371717
-0.06839094 0.33859786 -0.79303074
0.04078707 -0.18048802 0.16167256
0.11849394 -0.09503020 -0.10860554
0.07724454 -0.49648482 0.16986589
0.17302567 0.30889410 -0.53964990
-0.13521259 -0.09557536 -0.15990563
0.10396174 0.23775977 0.68561047
0.00551448 0.41058427 -0.72880387
-0.09082244 -0.18612853 0.04290569
-0.14621207 -0.07161967 0.20813476
0.12790914 0.31404901 -0.01365104
0.09153432 -0.11972010 0.04411174
-0.21124561 0.12079364 -0.14405984
0.17835650 0.05592947 -0.37717032
-0.09696375 0.36476228 -0.74922681
0.16025162 -0.54790729 -0.77122909
-0.07800629 0.12516150 0.60684270
0.03196174 0.02535567 0.67674243
0.10271722 -0.28841376 0.15182860
-0.06781843 -0.06438115 -0.62605184
0.17002860 0.33480760 -0.50872183
-0.02260474 0.40173805 0.24396613
-0.10018842 -0.22442792 -0.82363445
0.11037000 0.37010902 -0.62629324
0.06755089 0.11377899 0.44664302
-0.03506243 -0.26979524 0.08479247
0.06693621 0.40180975 -0.44186422
-0.15566437 -0.06938383 -0.24639072
0.14426136 -0.07568195 -0.77557230
-0.00570684 -0.19326837 0.09307207
0.12769662 -0.11156633 -0.63738048
-0.12208228 0.30674589 -0.01764967
-0.15119863 -0.06520751 -0.25642771
-0.14869319 -0.16711771 0.04909701
-0.14787568 0.30593991 -0.14037749
0.00509320 -0.00984745 -0.70249617
0.08821842 0.13082471 0.40669546
-0.07492018 0.19851515 0.66116542
0.13786760 0.33753055 0.52671665
-0.18139131 0.26712871 -0.37791169
-0.12221400 0.34836170 -0.35974860
0.14858359 -0.54059601 -0.79191536
0.00960116 -0.17072588 -0.39035895
0.12764135 0.09649153 -0.76863223
0.09583782 0.32091153 0.57130909
0.10714471 0.18180341 0.62027150
0.02659013 0.05031281 0.63487375
-0.06889071 -0.07536149 -0.49517137
-0.14236152 0.33828184 -0.67879552
0.14515370 0.25648177 0.11451909
0.16797729 0.26556605 -0.38898823
-0.06151339 -0.46894106 -0.84019965
-0.05432427 -0.29053479 -0.80995643
-0.13125801 0.18833917 0.31005052
0.02245853 0.37418985 0.48432881
0.06197497 0.31798139 0.51449066
0.07494627 -0.04773760 -0.79447049
0.18821461 0.12024245 -0.37567419
-0.16647552 0.10210949 0.28795579
-0.11861497 -0.43239108 -0.83077246
-0.05017937 -0.23207505 0.08131177
-0.02704421 -0.05430899 -0.70044512
-0.19916973 0.20962361 -0.53796208
0.17902510 0.00024870 -0.34753299
-0.04668454 0.33160749 -0.82271373
-0.19430234 0.11782877 -0.04915225
0.16329734 0.27593964 -0.67115271
0.08734696 0.16047180 0.43826124
-0.20491289 0.09586731 -0.53017950
-0.17786907 0.04210667 0.20708206
0.13280953 -0.53371763 0.07508293
-0.18394822 0.07172039 0.15694341
-0.17830065 0.24983755 -0.09362911
0.21091786 0.13336280 -0.15605584
0.05870775 -0.17085177 -0.75512964
0.12619130 0.33734268 -0.26369166
0.02729570 -0.00469227 0.76934516
0.09845047 -0.11910422 -0.24880199
-0.18403241 0.11691664 -0.48032367
-0.02767418 0.06514907 0.66845405
0.11189280 0.24547753 0.64133543
0.04299463 -0.45994604 0.08794545
0.05535414 0.40740702 -0.50123990
-0.06050584 -0.15376422 -0.17226067
-0.13760602 0.28254673 0.07070542
0.20903422 0.04064596 -0.19764216
0.12087251 -0.09353568 -0.30474201
0.04972309 -0.40924615 0.06661753
-0.17045163 0.31386262 0.56602263
0.07350544 0.30282247 0.48814327
-0.10458194 -0.47057003 0.03901261
-0.17168702 0.06118408 0.27570590
-0.07118038 -0.07393273 -0.47822732
0.17336230 0.24195024 -0.43515113
0.14510922 -0.06523290 -0.31117776
-0.12555775 0.20310023 0.29657862
0.19925973 0.20688355 -0.13459021
0.15907422 0.31280747 -0.58377516
-0.05272773 -0.47551659 0.06520414
-0.12635759 0.29301211 0.59719718
-0.01445916 0.39933199 -0.78729206
0.04666637 -0.16023441 0.08227410
0.03146407 -0.15149391 0.04116836
0.16017176 -0.00663402 -0.49849215
-0.17898068 0.26761931 -0.19753616
-0.12686421 -0.46188954 -0.80058360
0.11905660 0.33700100 -0.15180407
0.17005742 -0.00995157 0.12836957
-0.10578708 0.09428874 -0.80631775
-0.21419936 0.04487576 -0.28910869
-0.08188835 0.31649539 0.65550530
0.15449649 0.24934497 -0.01111133
-0.05179803 -0.24924354 -0.75192136
0.12455261 -0.47961748 0.12741545
0.08974853 -0.41333732 -0.79219276
-0.13700745 -0.50858605 0.13255221
-0.14380506 -0.03063240 -0.57502514
-0.17573933 -0.00819042 -0.67056328
0.10846906 0.15946034 0.63632721
0.21425375 0.11331256 -0.21762992
0.20606570 0.05054237 -0.22408363
0.11323275 0.04510202 0.79635596
0.12928195 -0.16815907 0.06888566
-0.08845528 0.27106142 0.55699652
0.17140988 -0.55225831 -0.72337371
0.14814632 -0.12268369 -0.74964851
0.13275093 -0.19347516 0.09075700
0.10440109 -0.55506575 -0.75906795
0.06993650 0.33833569 0.57343578
0.04398293 -0.49530491 0.06171784
0.15460622 0.29230875 -0.40776438
-0.17732970 0.11150056 -0.71874696
-0.08562919 -0.08580547 -0.41501600
0.17407070 -0.04291789 0.13228947
0.04348681 -0.26203105 0.11833133
0.06148110 -0.52572674 0.05681168
0.08186296 -0.16475603 -0.82141429
-0.08868074 0.29552123 0.59121609
0.16850302 -0.10587803 0.12388371
0.13756990 0.23693657 0.24069571
0.02553828 0.25017074 0.74618345
0.07694873 0.33467230 0.25512400
0.20435081 0.09491326 -0.04197776
-0.17484905 0.03876224 0.01557103
0.10918455 0.26350996 0.64675689
-0.04148502 0.08320221 0.65559721
0.00792182 -0.15647504 -0.09292802
-0.09503208 -0.08862480 -0.38891545
0.02001695 0.39656308 0.34738991
0.05150376 -0.14733070 -0.07044606
-0.07715517 -0.09050146 -0.64579934
-0.15182079 -0.00497362 -0.54065400
0.16476387 0.01155588 -0.45002392
0.13470764 -0.08564042 -0.79800534
-0.16915381 -0.05913739 -0.62089217
-0.05524867 -0.15790337 -0.29164103
-0.03246472 -0.16597970 0.10685232
0.14470194 -0.51640844 0.11729594
0.09735077 -0.09760961 0.02837849
0.17397159 0.01873825 -0.34805623
-0.18359797 0.14547378 0.01206430
-0.02278749 -0.07679134 -0.56044096
-0.17464745 -0.08727671 0.09417815
-0.09241297 0.28259116 0.38890475
0.11765364 -0.50362253 0.06321981
-0.05913853 -0.54076576 0.07996508
0.14093088 -0.06322545 -0.37831858
-0.01356004 0.13648914 -0.82749265
-0.05940719 -0.17424364 -0.81536233
0.16952570 -0.06329227 0.11901253
0.03194892 0.40298542 -0.31230873
-0.10020705 -0.56307524 -0.74638414
-0.01359259 -0.14470102 -0.42026797
0.04750324 -0.47507849 0.07248443
0.01743333 -0.09127088 -0.56382525
0.14727426 -0.56292105 -0.69780552
-0.03296078 0.38306701 -0.24842769
-0.06828217 0.01215113 -0.79933894
-0.09110695 0.28584617 0.57603383
-0.15117346 -0.12710351 -0.68765455
-0.14558540 0.32881987 0.60136747
-0.14903733 -0.10060731 -0.73935938
-0.18797259 0.27929968 -0.49135235
-0.09752817 0.36898783 -0.37110898
0.05368681 -0.29644549 0.05426754
-0.12141532 -0.06383385 -0.02627983
-0.11715524 -0.23178206 -0.72510248
-0.14020467 0.26725951 0.14778072
0.10119180 0.03605358 0.34553865
0.16834879 0.15375952 0.17731020
-0.12086609 -0.43976548 -0.81338102
0.12065148 -0.23157704 0.07713358
0.06972122 0.04717605 0.65612555
-0.09172367 -0.19585949 0.16107623
-0.11257003 -0.02503368 -0.56877673
-0.21202703 0.06387612 -0.18574305
-0.07160919 0.24014524 0.69325608
-0.04211215 0.34577972 0.51419586
0.10085773 -0.19978726 -0.84094161
-0.11425783 -0.36468208 -0.81259501
-0.17206265 0.05804227 -0.44939187
0.07145470 -0.04530169 -0.77678949
0.13862661 0.32431677 -0.16976431
0.13415614 -0.51664662 -0.67806482
0.17096563 0.23485631 -0.02995026
-0.06806204 -0.54449415 0.16465586
-0.06680901 -0.15446103 -0.22259012
-0.05592785 -0.46339443 -0.81920242
-0.17348565 -0.03662684 -0.63675082
-0.17122042 0.11408634 0.21780570
0.01487952 -0.19226101 0.13245246
0.14462855 -0.04897780 -0.06503391
0.18802989 0.08683032 0.02272110
-0.11638272 -0.09348381 -0.35581511
-0.04909674 0.09009601 0.43897960
-0.13757396 0.29790407 -0.07094304
-0.18380269 0.19599736 -0.01816437
-0.18806152 0.26576003 -0.32944405
-0.06055561 -0.16130999 -0.18397924
-0.03423793 -0.15207784 -0.01206917
0.09850127 0.35632002 -0.29443866
-0.07794330 -0.09659903 -0.81420285
-0.07344123 -0.34707716 -0.76195288
0.16996558 0.28144583 -0.28785998
-0.22035797 0.11078303 -0.23168831
-0.17088859 -0.02493535 0.09576709
-0.21755932 0.13293782 -0.28287035
0.01475649 0.06642182 0.50533456
0.15109882 -0.39964759 -0.80134237
-0.13867317 0.23661712 0.23468745
-0.13665596 -0.06132149 -0.40198040
-0.17521372 0.31034458 -0.46165237
-0.05858847 0.17924860 0.69490850
0.17151909 0.04636709 0.26884827
0.08361895 -0.27817690 -0.75149560
0.04688942 0.08084215 -0.81377149
-0.10800303 -0.56299806 -0.77316254
0.12802133 0.17866817 0.32306242
-0.15336154 -0.00879630 -0.45468763
-0.11064216 0.16051027 0.35654777
-0.13714688 -0.03967867 -0.02539205
0.15105584 -0.44923887 -0.81796241
-0.14606151 0.19757271 -0.77357680
-0.13456228 -0.55369711 0.09852400
0.08857282 -0.55068105 -0.73101735
-0.07299950 0.13470437 0.53562725
0.07086644 0.11936103 0.44382650
-0.04061554 0.11872809 0.70939595
0.18184789 0.19461337 -0.65459251
-0.18308549 0.24511629 -0.13528645
0.10595834 -0.41581526 -0.74101782
0.07724753 0.37798777 0.07087193
0.02210745 -0.20750889 0.16805618
0.04894781 -0.37304348 0.05370529
-0.11198132 -0.04792047 -0.48165348
-0.19675227 0.11079080 -0.38665965
0.08074110 -0.45730734 -0.82369840
0.06854123 0.40263408 -0.59145504
-0.00352962 0.39539218 0.34276938
-0.04328074 -0.09903324 -0.74372512
0.11598491 -0.31827426 0.09372783
-0.19701570 0.15731643 -0.08041488
0.14199688 -0.04618885 -0.39079472
-0.08649305 -0.49765837 0.03736766
0.14774619 0.36275002 0.55204433
0.06972414 -0.30469292 -0.76442587
-0.19094031 0.23244578 -0.13306116
0.12165475 0.33943936 -0.27931279
0.16122055 -0.00450200 0.26700559
0.05245965 0.38673344 -0.17529841
-0.17729475 0.25965759 -0.15126142
-0.04252777 0.41581309 -0.46865696
0.09097601 -0.07876858 -0.82601660
-0.11035613 -0.32971999 0.05982178
0.13246253 -0.04321276 -0.53778327
0.14424750 0.35523880 -0.55659604
-0.07711997 -0.39706862 -0.84056324
-0.01375033 0.42542675 0.00368829
-0.09231164 0.02536312 0.32493216
-0.04083475 0.22888944 0.73027343
-0.00677411 0.19884509 0.75019872
0.19312729 0.07449095 -0.34658238
0.04996025 -0.33967054 0.05919172
0.05645209 -0.13260669 0.25347292
0.02325601 0.41404307 -0.45741126
-0.12971029 -0.04823817 -0.78730083
-0.05649874 -0.07858940 -0.48807532
-0.04620118 0.39470962 -0.23632219
-0.19872016 0.13468310 -0.38507545
0.03058447 0.37132034 0.47259814
0.09652110 -0.24219787 -0.84154367
-0.18438038 0.03965144 -0.04369890
0.15161528 -0.39040250 -0.77816355
-0.17576629 0.03916284 -0.41337472
0.13105728 0.22017589 0.26941764
0.10628536 0.09713528 0.77657634
-0.12928304 -0.22359198 0.06119069
0.12740919 0.33381641 -0.28728384
0.05727399 -0.40024602 0.05386117
0.06250942 0.34842646 0.34458736
0.19824976 0.12337533 -0.31494811
-0.06411424 -0.38282412 -0.83854377
0.14537780 -0.28347558 -0.81347203
0.18154630 0.25726974 -0.27345443
-0.11747104 0.31405404 0.59777880
0.11367184 0.34870580 -0.69041461
0.14182782 0.22032908 0.23901111
0.02707758 0.36617282 0.42769685
-0.20070520 0.20446846 -0.60489726
0.04423782 -0.05558516 -0.71359748
0.10602145 0.14445691 0.64090383
-0.19075449 0.18391648 -0.45710850
0.04139307 -0.50687790 0.09826958
-0.05417114 -0.24291782 0.07113089
0.03878774 0.39367417 -0.21630627
0.09161110 -0.54541665 -0.75240380
0.15935299 -0.06078768 -0.13613245
-0.09060113 -0.33874813 -0.75764018
-0.13754670 -0.07926653 -0.11803158
0.06463934 0.38112921 -0.23541033
-0.12604067 0.37073401 -0.51313323
0.12228110 0.01175957 0.31651571
0.07957430 0.11534916 0.40829998
-0.05064386 -0.25413853 -0.76579076
0.09563202 -0.22687212 0.17130558
0.12130076 -0.49214503 -0.82803833
0.14553466 0.30408946 -0.71658844
-0.02825063 0.06174174 0.63542944
-0.16552125 0.15699270 0.09702082
-0.10549007 -0.03152125 -0.58890551
-0.07777431 0.37316719 0.00144744
-0.16573119 -0.00213297 -0.06292266
0.06763208 -0.04060243 0.32238939
0.00422217 0.42221612 -0.65929908
0.13916638 0.06342047 0.33101442
0.05231040 -0.46684030 0.04894872
0.04387598 -0.22777358 0.09929280
-0.15343715 0.30785045 -0.18732314
-0.14229913 -0.18375781 0.16439131
-0.17047755 0.05380864 0.28307354
0.06075777 -0.17092606 0.06458746
0.18782885 0.23082480 -0.28798139
0.06809766 -0.11987355 -0.76655132
0.05524064 -0.08190644 -0.44667423
-0.15012449 0.29739639 -0.07594787
-0.13499270 0.28418007 0.11261053
0.17250869 -0.00521880 -0.68724120
-0.01290289 0.42852828 0.06516715
-0.02120849 0.39774722 -0.27145350
-0.05012104 0.15094668 -0.82514018
0.00361199 0.23322970 -0.83277643
-0.13154760 0.32891303 -0.20415469
0.10865461 0.12550382 0.36502165
-0.12709296 -0.50146234 -0.80261046
0.10542498 0.37100261 -0.62380958
0.10226864 -0.06093766 -0.60620368
-0.11582506 -0.52813280 0.16234457
-0.04092775 -0.23445942 0.08625102
-0.04996425 -0.17125329 -0.79518133
0.15627289 -0.18140554 -0.74286771
-0.07572430 0.17477447 0.61527938
0.17600916 -0.02255186 -0.29515254
0.09033123 -0.21377866 -0.70158774
0.16656442 -0.00528572 -0.00396497
0.03718290 -0.25752002 0.14291386
0.13390385 -0.11293609 0.21393098
-0.00655535 -0.21896744 -0.29342493
0.00424931 0.41221809 -0.37046528
-0.18059444 0.02386825 0.18248069
0.20277883 0.02030705 -0.15872878
0.08405048 -0.10433978 -0.38952133
0.08085395 -0.12581515 0.00614779
-0.20123005 0.20128885 -0.29398525
-0.20759216 0.19555926 -0.27151066
0.03781428 -0.17118905 -0.21053401
0.16139153 0.20391065 0.09056088
-0.21194521 0.09030999 -0.33035344
0.07765857 0.29204494 0.47276679
0.02902038 0.39024770 -0.75770438
0.04856371 0.20905006 0.74740088
0.17366795 -0.00504293 0.12085690
0.05751364 0.38879916 -0.69521904
-0.10304098 0.38323364 -0.54239744
-0.19428803 0.23459443 -0.21282226
0.09138482 0.29679722 0.30643615
-0.04419060 0.36140785 0.45165628
0.07359232 -0.13069433 -0.04434045
-0.06173035 0.37042186 -0.06872845
0.14144699 -0.08197923 -0.61036551
0.09442963 0.10949194 0.74341828
0.00656855 0.03106567 -0.82236439
-0.15757914 -0.14728314 0.06728707
-0.04958878 0.39768371 -0.60596055
0.08878402 0.28765294 0.60905492
0.02299499 0.21613148 -0.82946235
0.09623785 0.33109722 0.19699980
0.15000679 0.30315867 -0.34748450
-0.13924447 -0.17447723 0.17912909
-0.14009146 -0.50125730 0.09131700
0.11715529 -0.29472217 -0.73739254
-0.18518105 0.25599980 -0.33735311
0.12442726 0.15820423 0.32777229
-0.06974517 -0.12742287 0.21899465
0.14159475 0.31418970 -0.20733315
-0.04606117 -0.32638863 0.11062135
0.10547596 -0.11141528 -0.30903068
-0.00849984 -0.15975057 -0.09647360
-0.00343360 0.40896517 -0.45597896
0.09522184 0.37952322 -0.39605367
0.10794649 0.29718506 0.55743295
-0.13544123 -0.06676407 -0.06688055
-0.03941696 -0.53913337 -0.71916890
0.06314942 -0.09841020 -0.76228410
0.14911331 0.29914570 -0.63517916
0.02885202 0.07089950 0.48835999
-0.14654210 0.28056875 0.60106593
-0.08904178 0.36268771 0.00548349
0.18762600 0.00229309 -0.28218704
-0.21854560 0.07599497 -0.27105498
-0.05097888 0.38903752 -0.08849016
0.14432487 -0.19195113 -0.70165658
0.07281888 0.03466057 0.68602693
-0.12742662 0.25704280 0.24080458
-0.19525364 0.23023501 -0.53694820
-0.18060775 -0.02297768 -0.63656485
0.21353482 0.06258750 -0.53592730
-0.17380996 0.05337889 0.07444652
-0.16778004 0.01907016 0.00416573
-0.00860119 -0.11983395 0.31358469
