0.13835315 0.65155149 -0.20954892
0.37187961 -0.44353878 -0.13381006
-0.31251013 -0.41317004 -0.07483467
0.10052744 -0.56457871 0.41307101
-0.07867232 0.65246344 0.51243269
-0.07421036 -0.36864460 -0.31310081
0.07121561 0.16462879 -0.12416480
-0.47240788 -0.51584005 0.25793475
-0.09363192 0.65285397 0.53100848
-0.39521483 -0.41647393 0.56204206
0.08734443 0.53035480 -0.26581904
0.08627964 0.86978906 -0.09382726
0.20063250 0.08610389 0.38216200
-0.48357195 0.03287934 -0.19669233
0.12737498 -0.45349449 0.03207739
-0.14008009 0.38829720 -0.22096258
0.12183458 -0.60480106 0.53041548
0.60637856 -0.33068335 0.26881686
0.62152457 -0.08294272 -0.10489185
-0.32465839 0.34982580 -0.00373509
0.28399065 0.19517069 -0.68487078
0.16508983 0.06312419 -0.85266435
0.04998118 0.67393035 0.46897608
0.03952210 0.66786504 -0.22378114
0.00613815 0.36856174 -0.75324023
0.28623229 0.45948994 0.45980507
-0.11804659 -0.26678145 0.72369671
-0.24710749 0.18648721 -0.56601620
-0.65954876 -0.21183842 -0.25589758
-0.17667156 -0.32477266 0.72425693
0.19273038 0.82217574 -0.05044594
0.29182041 0.22372845 0.29798380
0.01274520 -0.36719203 -0.65325820
0.35740376 -0.17148510 0.54783255
0.25141186 0.56110913 -0.15285942
-0.46992975 -0.02753118 0.19765565
0.00659432 0.12348410 -0.40712053
-0.33900434 0.08552797 -0.40847808
0.08997044 0.51649988 0.56865221
0.22897318 0.63254285 0.34050608
-0.58213651 -0.19091123 -0.43546185
-0.37250009 0.01613270 0.28184965
-0.51147401 0.03302811 -0.24418443
-0.67813742 -0.25599352 -0.17407311
-0.21754678 0.65031779 -0.08076309
-0.65525270 -0.18417314 -0.25485533
-0.18784192 -0.52222484 0.64195174
-0.36183158 0.03280684 0.04650644
-0.38472775 -0.09240517 -0.71655452
0.16814214 -0.00841072 -0.85678875
-0.32774583 -0.53656393 0.34672773
-0.36671072 -0.31746468 -0.66780198
0.19046034 -0.39879966 0.70632225
-0.23892400 0.12407697 -0.77762288
-0.28002796 -0.37946010 -0.26280373
0.29702547 -0.33695084 -0.71327162
-0.14527275 0.10632001 -0.13814396
-0.34523490 0.42472380 0.18671975
0.28559104 0.46965232 -0.13699141
0.46861339 -0.24050778 0.47026920
-0.35403323 0.38424137 0.09461471
0.12222368 0.19059668 -0.83928543
0.33597326 -0.48762542 0.05414260
-0.30693302 -0.19631961 -0.76352865
0.42031482 -0.06376562 0.33672529
0.36366194 -0.52497011 0.18720040
-0.17900681 0.73133820 0.28699619
0.32959649 -0.48896116 0.57860953
0.16792816 0.10466021 -0.21083008
0.19773294 0.10126056 -0.20810804
0.08585305 -0.52957457 0.27885911
-0.28304723 0.14576799 -0.53508353
0.28036043 0.38074672 -0.15349403
0.19963057 0.59359670 0.39915052
0.12320846 -0.58111584 0.46643013
-0.16049698 -0.50828022 0.27043197
0.08634734 -0.39773828 -0.13829368
0.34762451 -0.17501357 0.56039804
0.20169105 0.20805836 -0.11259349
-0.15132822 -0.46954048 0.13152075
0.37428150 -0.13034704 -0.74251717
0.36149216 0.30527538 0.24928495
0.26119810 0.07318541 0.32826346
0.39411739 0.37489057 0.07870549
-0.28832588 0.58670890 0.10668558
0.36772656 0.48520622 0.02869467
-0.53407300 -0.45450515 -0.06215575
0.39260286 -0.15609089 0.50455898
-0.60321474 -0.04437324 -0.30361217
0.19195832 0.36697239 -0.21512565
0.47869086 -0.55082339 0.24413091
-0.52526629 0.00963420 -0.03421145
-0.11391183 0.87613147 0.15638436
0.15872231 -0.32775766 -0.77793390
-0.19647740 0.10570273 0.34982777
0.04879717 0.36540246 -0.75404054
0.48652792 -0.53543901 0.31543130
0.57709885 -0.05814607 -0.39160398
-0.17785305 0.58538008 0.55299002
-0.59108329 -0.42648196 0.21009672
0.20733877 0.71947205 0.30506638
0.33515090 0.27279225 0.27377349
0.23365858 -0.29675221 0.67570072
0.09232818 -0.56871170 0.63616443
-0.11311163 0.16980532 -0.52048993
0.33925357 -0.48497510 0.02791264
-0.08652132 0.29418561 -0.76252252
-0.67994356 -0.18809143 0.03957438
-0.20970374 -0.06845380 0.59829497
0.57720804 -0.45067501 0.22303787
0.16991381 -0.37394941 -0.62613302
-0.64545465 -0.28852636 -0.25569609
-0.34770751 -0.38709033 -0.51715034
0.01319770 -0.58180028 0.47867614
0.27749947 0.61681885 0.30422908
-0.11064074 0.65235019 0.56617695
-0.25781417 0.20067163 -0.63378000
-0.19800308 0.10675595 -0.31814697
-0.24660310 0.55871689 -0.10975824
0.48769721 -0.16554865 0.38357022
-0.01452218 -0.01528342 0.59624338
0.52217567 -0.15064698 -0.56036812
0.36670092 -0.41122341 -0.29414129
-0.01999194 0.86865318 0.23068199
-0.20387344 0.72542441 0.25398785
0.15149578 0.67575181 0.36782110
-0.17139538 0.83193970 0.18259257
0.49451193 -0.49212891 -0.04754982
-0.53163671 -0.48184490 0.02558008
0.06218863 0.13882446 -0.86683518
0.16493842 -0.03404467 0.56596875
-0.17641628 0.19882771 -0.77848780
0.51269817 -0.52491868 0.07844527
0.35244498 0.40235013 -0.05017630
0.35931352 -0.59154415 0.37775016
-0.34988359 0.06573332 -0.28888711
0.48192847 -0.45462984 -0.29293212
0.11143768 -0.04331632 0.60260910
-0.03817850 0.12913269 -0.25977722
-0.21785180 -0.56162876 0.45253241
-0.26889187 0.61484790 0.21880522
-0.17513713 0.55592644 0.44362593
-0.32105136 0.27330706 0.07054760
-0.12113687 0.76735538 0.30875385
0.41136053 0.04733745 -0.34937784
0.09788601 0.33329087 -0.24155982
-0.09057136 -0.41951406 -0.05342162
-0.20267391 0.21731320 -0.75061113
-0.32293582 0.15027593 -0.59134281
-0.50090188 -0.41910875 -0.18810460
-0.35733816 -0.37310410 -0.59860975
0.47790173 -0.11387908 -0.62447554
0.33035612 0.05271828 0.20753226
-0.23720290 -0.34431893 0.69129050
-0.46893466 0.02095172 -0.07994226
0.24078941 -0.40889806 -0.18159376
-0.30613956 -0.16113675 -0.77138740
0.16842115 0.86398363 0.19029048
0.06484976 0.40844944 -0.26804018
-0.42884868 -0.00684927 0.24805003
-0.39204580 -0.45845753 0.54657739
-0.11615693 -0.49578553 0.68012905
0.22816680 -0.11370096 -0.83001930
0.45294866 -0.00654154 0.01102015
-0.49868995 -0.42865986 -0.15130571
-0.52636945 0.04118703 -0.31799048
0.15502909 0.30204588 -0.19103053
0.37600482 0.29814583 0.05983590
0.16462152 0.29602298 0.48083693
0.65073574 -0.24774554 -0.29171810
-0.20776436 0.67458498 0.29909053
0.35843918 0.25900114 0.14996354
-0.15054715 0.11687194 -0.32776341
-0.18635596 0.55740041 0.52629739
-0.12903543 0.11994240 -0.83553642
0.09304895 -0.39358401 -0.16791567
-0.34779418 -0.37699175 -0.62594348
0.53087831 -0.02941601 -0.01797235
-0.02756382 0.91635740 -0.05051469
0.01807324 0.19126754 -0.55534947
-0.23992078 -0.30948853 -0.74986750
-0.47829181 0.01761553 -0.05203262
-0.69099069 -0.26807889 -0.03842111
0.23309092 0.40461236 0.53266805
-0.34944782 -0.25179958 0.60384983
-0.26551381 0.65364599 0.06295240
0.12874568 -0.37201911 -0.60276181
-0.14851125 -0.24598587 -0.81544179
-0.38484514 -0.47993702 0.11602072
0.17709655 -0.37235075 0.72038186
0.52906287 -0.40446430 -0.38363367
0.54997730 -0.17666042 0.29929262
-0.10963548 -0.38728881 -0.18671060
-0.10969470 0.31122997 -0.67914522
0.40616694 -0.47118783 -0.06978344
0.51419032 -0.51406610 0.26159450
0.28973809 0.63237023 -0.05851588
0.29283184 0.54917216 0.32496896
-0.16274522 -0.21779573 0.71482158
0.22406329 0.82474589 0.17184184
0.19578467 0.23983224 -0.62756944
0.17942488 0.46442917 0.63342261
-0.11705360 0.42335579 0.66644126
-0.27551076 0.16348407 -0.71307534
0.33451682 0.10348970 -0.51280725
0.33658016 -0.55389369 0.26412055
0.38191271 0.37153399 0.01634140
0.54198778 -0.51423532 0.03965365
0.08283816 0.49240062 0.57789290
0.25214344 0.32838586 -0.16578761
-0.22030954 -0.36694193 -0.52817303
-0.23653939 -0.51448256 0.62929934
0.12080017 -0.42762387 0.70889193
0.14423682 0.43516251 0.66512471
-0.58624995 -0.11129165 -0.40501222
0.19377571 0.59704113 -0.19279131
0.02104232 0.69039321 0.50329185
-0.50634003 -0.39480120 -0.40219370
-0.50854075 -0.44928569 0.37908104
-0.50246519 -0.45209157 0.39173678
-0.25169855 0.69929409 0.11549948
-0.04012305 0.94116521 0.09248088
-0.20523182 0.46697158 0.52267432
-0.33291253 -0.44666272 0.04422085
0.20060864 -0.08551672 0.61312884
-0.18377608 0.17351598 -0.04970421
-0.24694845 -0.15745988 0.63743311
-0.20287457 -0.00945480 -0.82826728
0.14435583 -0.37621528 -0.72321647
-0.27225262 -0.25480700 -0.77367973
0.29606950 0.18817616 0.03093989
0.32614413 -0.42878836 -0.16549736
0.04174931 -0.53501201 0.32617062
0.30711988 0.38398910 -0.12357970
0.16022614 0.10968313 -0.26757789
-0.12679194 0.65583897 0.39038554
0.29760769 0.58808357 -0.09144412
0.37700433 -0.40710741 -0.35993400
0.43254504 -0.00857791 0.09524466
0.11409970 -0.20569909 -0.84254670
0.17947526 -0.04079460 0.56430119
-0.69392323 -0.25072300 -0.07753201
0.28731987 -0.55909944 0.55819058
-0.63079917 -0.08516479 -0.24733028
0.05104777 -0.45117164 0.04555091
-0.00377770 -0.47152382 0.10794666
0.28498712 -0.52639371 0.58130246
0.20683777 0.35175627 0.51584148
-0.26126647 0.39039314 0.41568866
0.31161055 -0.53324008 0.55700463
-0.03175649 -0.57767379 0.46333271
-0.09958916 -0.50812316 0.25793990
0.19942364 -0.37843716 -0.41929966
-0.26450196 0.63454896 -0.02645500
0.04623924 -0.38513213 -0.15903097
0.18066277 0.09798571 0.38624629
0.48103920 0.04856744 -0.45106819
0.36766908 0.36338151 0.00130980
-0.26049480 0.58199257 -0.06113791
0.17529859 0.28697562 -0.69868815
0.46081120 0.01136942 -0.59028924
-0.51999581 -0.29499242 -0.51082689
-0.00760307 -0.39601153 -0.04478646
-0.63136888 -0.36177629 -0.16332251
-0.24988806 0.39680755 -0.12196723
0.38971066 -0.25445449 -0.69686371
0.29033786 0.56455463 -0.09170548
-0.10310621 0.43616450 -0.24594328
0.17062078 0.21793726 -0.14842108
-0.45520654 0.02555488 -0.08729514
0.09915647 0.75178450 -0.17333430
0.26519474 0.21855313 -0.06349222
-0.12473103 0.60951364 0.45073378
-0.41588396 0.01158227 0.15291142
0.61830878 -0.43359226 0.02586169
-0.30924121 -0.42190719 0.63017488
-0.28876305 0.57437015 0.15747827
-0.47654459 -0.42729235 0.45837754
0.15430427 0.40978664 0.66849965
0.45080644 -0.00202616 -0.62288612
-0.25239587 -0.01418699 0.51092076
0.33742815 0.57340598 0.18604624
0.48315886 0.01905389 -0.25629860
-0.59956026 -0.04970340 -0.32708836
0.42423412 -0.22858712 -0.68195844
-0.09394851 0.90208334 0.00397942
0.02248707 -0.13524905 -0.86759037
0.58302855 -0.46310282 0.20163718
-0.19648089 -0.57025468 0.59030402
-0.60353768 -0.33133855 -0.33103868
0.22127764 0.07557739 0.37150002
-0.29083440 -0.44588804 0.03526723
-0.33358678 0.46328348 0.22399768
-0.44334993 -0.14930928 -0.65243649
-0.25471765 0.06601300 0.33591956
0.39785254 0.06664734 -0.44143957
-0.15087876 0.12830061 -0.46153036
0.25425076 -0.14239746 -0.81617135
-0.08818284 0.31916821 -0.66847217
0.38028190 0.39899373 0.01291417
0.57993865 -0.23360512 0.29171562
-0.26719010 -0.45990741 0.64141524
0.34914464 0.24426113 0.17587000
0.61238909 -0.39963424 0.20544729
0.10853376 0.13866343 -0.49130005
0.67235994 -0.36123502 -0.01977878
0.45207492 0.02338061 -0.25310677
0.30106616 -0.47712475 0.01919611
-0.02659493 0.68680817 0.41185889
-0.01754685 0.56959474 0.61099756
-0.27735698 -0.37635428 0.66283810
-0.33435160 0.02839172 -0.73956370
0.22438128 0.13770951 -0.52145404
-0.12874852 0.12329538 -0.32235578
0.01174528 0.89256579 -0.08692871
0.44295993 -0.29190791 0.51011819
0.30933604 -0.40404534 -0.25109005
-0.57066298 -0.45753545 0.21008086
0.36611339 -0.23010591 0.56566626
0.03738227 0.68452489 0.50128394
0.12586109 0.02107432 -0.86208099
0.11233029 0.07224178 0.46959537
-0.13775526 0.63062561 0.54727542
0.32009691 0.28849608 -0.07158851
-0.51757717 -0.09288698 -0.52733171
0.55061042 -0.37947172 -0.37595567
0.55207002 -0.01617940 -0.17828111
0.16680375 -0.51214242 0.18493760
0.58046436 -0.34005642 -0.36680955
-0.33409265 0.06046472 -0.10885946
-0.25663793 0.15267994 -0.74876297
0.02375178 -0.58980113 0.52342850
0.10039179 0.27783543 -0.20601964
0.16085488 -0.30261481 0.72170883
-0.39510489 0.04951609 -0.11389337
0.16756666 0.76942432 0.28984246
-0.01904119 0.29152721 -0.22001521
0.46335256 -0.09364051 0.32226539
0.24395138 0.43531722 -0.19481103
-0.49245542 -0.15656593 -0.56981546
-0.31629986 -0.36999750 -0.42971975
0.24394050 0.09143676 -0.10089241
-0.23029576 -0.01885842 0.53702950
0.07877468 -0.10128462 -0.87154019
-0.27420941 0.61041284 0.19949490
0.07475818 -0.52618271 0.28731763
-0.49455729 -0.42555106 0.43159819
-0.32949379 0.43034092 0.27524906
0.02976023 0.62893128 -0.24005790
-0.07376657 0.10770439 -0.38437355
-0.23775081 0.08082733 0.30936012
-0.03804627 0.81363523 -0.13752185
0.13993888 0.18316709 -0.56428641
-0.13106233 0.32482696 -0.19416398
-0.16104007 0.30194622 0.46373200
0.12935254 0.18194605 0.41146469
-0.55252767 -0.02555913 0.11537817
-0.14114836 -0.55313998 0.41973776
0.35850537 -0.55749810 0.29737577
-0.28211990 -0.02166434 0.49758929
-0.06978205 0.25894740 0.47529900
-0.14819761 0.85767877 0.14207532
-0.66793561 -0.22835618 0.12458779
-0.08533902 0.26017302 -0.61154419
0.15534630 0.77113003 0.30298293
-0.67803359 -0.33171400 -0.03032523
0.25874132 0.04450887 0.38721219
0.16100307 -0.46546257 0.68533814
0.30700248 -0.28719994 -0.73192978
-0.06874108 -0.46470147 0.12505525
0.07110327 0.50106668 0.57152647
0.29599488 0.03335370 0.36267328
-0.49162900 -0.09531838 -0.56649905
-0.24133609 -0.53129524 0.34479204
-0.59257627 -0.01350181 -0.14804676
-0.27720150 0.48553315 -0.10562038
0.12392703 0.11034906 -0.35195985
0.15363675 0.61332023 0.42566475
-0.33238339 -0.11246768 -0.75918376
0.05980784 0.91073030 0.18567058
-0.28286198 0.62218380 0.09818247
0.09162963 0.30079436 0.53181589
0.39830464 -0.41365033 -0.50646007
-0.31612229 0.06163262 0.15972662
0.30374742 0.42469478 -0.11984152
-0.33094111 -0.12624127 0.55296618
0.13827045 0.71118915 0.36105847
0.29673406 -0.37761050 -0.65877873
-0.07080690 0.45215648 0.66104394
0.56081200 -0.48755687 -0.04298071
0.03402933 -0.35602945 -0.77876812
0.04680016 -0.13862953 -0.87212360
-0.22322214 0.09840968 -0.32749924
0.12035117 0.23862013 0.44391024
-0.26142994 -0.52342767 0.28530926
0.26538181 0.17140585 0.27355784
-0.59456873 -0.03228916 0.02750503
0.19414830 -0.37885916 -0.36829728
-0.31616050 0.27552146 0.05537041
0.00803597 -0.37075394 -0.27194786
-0.03132120 0.88158405 -0.07374731
0.03197340 0.88427097 0.24007526
-0.25984824 0.08081660 0.02810831
0.31078762 -0.38133657 0.62908679
0.03543179 -0.21778449 -0.84583861
0.68368399 -0.32391807 -0.04800195
0.30205798 -0.40268600 -0.28688639
-0.24290919 0.53193492 0.35572219
-0.38791013 -0.03089842 0.35776669
-0.48612469 -0.09856772 -0.58405542
0.29371029 -0.58118486 0.39769059
-0.19378243 0.40862295 -0.18465705
-0.20424385 0.13187647 -0.80124408
0.56068265 -0.39567655 0.32951081
-0.31735465 -0.43431461 0.61743450
0.18880446 -0.29377463 0.71188372
-0.23077764 0.16711082 0.01897292
0.49024251 -0.08166425 0.25722632
-0.38203400 0.07216591 -0.36219078
-0.47578719 -0.14929184 -0.61391324
-0.23120189 -0.50128663 0.24304023
0.08187676 0.25995654 0.49220943
0.27565569 0.08002004 -0.38677526
0.30978388 -0.25151053 -0.74668896
0.36528721 -0.26921222 0.57673645
-0.28306103 0.60232091 0.05236799
-0.13189462 0.00705084 -0.85019648
-0.33965901 0.41072166 0.00630379
0.22870171 0.16201892 0.32206449
0.06689081 -0.41000831 0.72208232
0.38955525 0.43510482 0.10073729
-0.22729141 -0.03375979 -0.82143140
-0.44962108 -0.33426228 0.52208364
-0.14389887 0.12253213 -0.28387463
-0.38272375 -0.16571328 0.53966409
-0.20637849 0.74424917 -0.03998892
-0.26315913 -0.46719187 0.08440460
-0.14218946 0.42008066 0.63184321
-0.36901072 -0.16885236 0.55619586
0.28326485 0.21732163 0.30504489
0.30223161 -0.58790499 0.49313492
-0.23238721 -0.36211181 -0.69544065
-0.51910424 -0.47428918 0.04979177
0.36463702 0.07545915 -0.44030795
-0.45523092 -0.39169753 -0.29715720
0.21384749 0.26626357 -0.15849149
-0.12341556 -0.36963445 -0.28765154
0.00602065 0.87801397 -0.09250063
0.10644777 -0.32183993 -0.79311621
-0.00488129 -0.12932146 0.70470297
-0.19341666 0.80999738 0.13654801
0.65932035 -0.13968274 -0.14451900
-0.43919122 -0.40668279 -0.18607570
-0.51351082 -0.05281134 -0.51050854
-0.05465232 -0.37336361 -0.09655322
-0.25440723 -0.04269771 0.53735167
-0.43103758 0.02227825 -0.00654842
0.14049275 -0.37256867 -0.37676477
0.58008754 -0.36573988 0.30213779
0.05565120 -0.46706033 0.70829368
0.47556040 -0.10300845 -0.63026965
0.42142645 -0.04882164 0.29255310
-0.31097767 0.25838959 0.20916244
-0.04081164 0.12358811 -0.21460380
0.27382997 0.23657537 0.32565171
-0.01889980 -0.19834667 0.72515965
0.22415102 0.73968589 -0.09977638
0.13637735 0.66525877 -0.19852866
-0.37983549 -0.03359315 -0.70434922
-0.06245635 0.31352711 -0.21837442
-0.20175879 0.09227635 -0.20378338
0.38914669 0.02721851 -0.04889893
-0.64230096 -0.38982779 -0.03313733
0.21729520 -0.37928194 -0.52893436
0.31135619 0.06073179 0.01529424
-0.33660793 0.47686088 0.06879413
0.07829696 -0.24186525 0.72003371
-0.18892182 0.31112880 -0.16285618
0.08460601 -0.37406999 -0.29260021
-0.30311853 -0.21741900 0.62774652
0.33116576 0.35980502 -0.08474764
0.16820419 0.83218229 -0.07176989
-0.47048235 -0.04972665 0.26927602
-0.00543352 -0.09080273 -0.87154031
-0.62843704 -0.06249708 -0.10325460
-0.30241767 0.50429106 -0.02224170
-0.22622551 -0.37462401 -0.66560453
-0.06335640 -0.27082637 0.73959529
0.19099426 -0.07409579 0.60776126
-0.36302036 -0.01892497 0.38556054
0.03768741 -0.52557856 0.28562582
0.35477066 0.26344770 0.05957101
-0.07403467 -0.38745779 -0.17585161
0.10725855 -0.27651632 0.72073615
-0.01015954 -0.34423655 -0.09898349
-0.63749504 -0.39329159 -0.01668130
0.12931855 0.15655509 -0.52706063
0.34915674 0.04810666 0.11411147
-0.07054342 -0.39794767 -0.15898812
-0.07243757 -0.37219501 -0.30229133
-0.12044270 0.89302921 0.06886479
-0.03154611 -0.56997246 0.45060772
0.26645347 -0.00967866 -0.81266558
-0.30952716 0.47892946 -0.03564330
0.27422130 0.47136033 0.44385242
0.27829432 0.13488308 0.19580472
0.09823961 0.68043351 0.52906007
-0.51190102 0.01934129 -0.20477639
0.04758766 0.62954098 -0.23786715
-0.15569825 0.80294484 0.24298924
-0.14416987 0.28241467 -0.16541587
-0.28908038 0.09087116 -0.29350442
0.12640852 -0.51774764 0.26190233
-0.50575209 0.03098635 -0.16512781
0.16325381 0.61660212 -0.20921423
0.26573431 -0.38889450 -0.47722289
0.03465294 0.25734097 -0.83012849
0.32530588 0.15860397 -0.62392110
0.23719542 -0.38965869 -0.60072124
0.38414392 0.43456799 0.20822889
0.32309365 0.53943419 -0.05854591
-0.46594247 -0.16491774 0.45310771
-0.05780283 -0.38134128 -0.06204055
-0.22397955 0.09301833 -0.18491751
-0.13967068 0.29066110 -0.73437375
-0.49646118 0.00028193 0.02573657
-0.32596555 0.41362241 0.28891864
-0.13132671 0.71315950 -0.15566614
-0.27135181 0.33881968 -0.09202041
0.29270712 -0.39115661 -0.37903467
-0.14178008 0.11856993 -0.44514027
-0.04045235 0.48429012 -0.25708020
0.19284302 -0.58682674 0.57876843
0.64810097 -0.30028760 0.18230182
0.50903332 -0.51520509 0.03995981
-0.44730967 -0.14301547 0.46099579
0.23865859 0.17893335 -0.58273697
0.07115961 -0.19431356 0.71184897
-0.67483115 -0.26580825 -0.18112111
-0.03049179 -0.36653411 -0.34386379
0.16147609 -0.26219770 0.71847349
0.00459710 0.15508905 0.43197197
0.09911745 0.55990142 -0.24650510
-0.12417939 -0.09968439 0.66014093
0.64679623 -0.12391374 -0.19931199
0.11863698 0.67492670 0.53719294
-0.41715890 0.07764125 -0.53790617
0.30378190 0.66401094 0.16935150
0.01689080 0.14181291 0.42521909
0.24629402 -0.48366922 0.07613182
0.21834221 -0.54716462 0.30599749
0.67262220 -0.18469810 0.05476128
0.18502550 0.14401077 -0.07705284
-0.69534051 -0.23012862 -0.07326788
0.56340802 -0.21347484 0.31664309
0.53860831 -0.24643442 -0.51761007
0.28678289 0.49872023 -0.12703755
-0.54658663 -0.42450505 -0.16209066
-0.20889081 0.12739903 0.00819347
-0.19857015 0.23053795 -0.62089670
-0.54535985 -0.02642167 -0.41050035
0.58895183 -0.04971988 -0.11279387
0.59990752 -0.17013189 -0.41958302
-0.02843699 -0.43724424 0.00204929
0.60115027 -0.20890874 -0.39950833
-0.29761124 0.02059267 0.40076935
0.12464453 0.80793184 -0.12852913
0.21363072 -0.60127527 0.47675353
0.27942398 0.17840517 0.25435287
0.22759998 0.12631707 -0.04062257
0.41522485 0.04262958 -0.30356306
-0.15368453 0.68136597 0.35649481
0.42376560 -0.58399045 0.30295753
0.27555406 -0.41874862 -0.15982850
-0.39193013 -0.10660601 -0.70550835
0.03352313 -0.37364089 -0.23861691
0.13834104 -0.37718672 -0.71416891
0.09067132 0.75109518 0.34574872
0.32776263 0.49964425 -0.05959520
0.09155302 0.92660415 0.15468930
-0.09344129 -0.34315592 -0.76226193
0.32038844 0.66978770 0.11441006
0.06534045 0.02250877 0.54440886
-0.10399944 0.26923621 0.46954548
-0.05406137 0.60699594 -0.24356908
0.23787630 0.74198109 0.24797809
0.22498520 0.04787043 0.41790742
-0.13745555 0.13340017 -0.47506604
-0.00784076 -0.06026681 0.64309818
0.15315166 -0.37370932 -0.30240148
-0.31021577 -0.09845600 -0.77630639
-0.16088068 0.24365452 -0.61077541
0.38008735 -0.36517525 -0.61482793
-0.23826851 -0.36049694 -0.38329735
-0.04515260 -0.56560421 0.45023483
0.05017808 -0.59880060 0.56588203
0.05055070 -0.35993487 0.73541784
-0.12699686 -0.40861362 -0.09506106
0.27276570 0.59565860 -0.11332017
0.65011907 -0.26458943 -0.28917193
0.10962204 0.38904893 -0.25410914
-0.29853687 -0.36323535 -0.67468870
-0.32041332 0.35146284 0.29964828
-0.49844947 -0.27371648 -0.56132436
0.04906664 -0.35523593 -0.42715669
-0.03813045 0.19052789 -0.53422093
0.33260116 -0.30131137 0.60724777
0.14802311 -0.00829425 0.55875838
-0.29529434 0.54735178 0.20861477
-0.27515066 0.08011616 0.08152924
0.21735331 -0.59655386 0.54901689
-0.35819682 -0.15000513 -0.73855460
0.00395784 0.47747067 0.60498393
-0.44588819 -0.48869401 0.13847621
-0.12978980 0.11783132 -0.12137670
-0.14087906 0.16352963 -0.52433097
-0.13633305 -0.34905869 -0.51372659
-0.19868144 0.29872215 0.43512917
0.11321242 -0.17424908 0.70448381
-0.02182733 0.04505878 -0.87057012
-0.22184634 0.08645801 -0.04312669
-0.32236582 0.06310710 0.00581858
0.28341004 -0.44406867 -0.07471158
-0.10052127 -0.51602471 0.27407473
-0.29685125 -0.50833583 0.24402681
-0.42129907 -0.52628446 0.32216233
-0.09447391 0.04511385 0.51982057
0.07325032 -0.33707541 -0.79358089
-0.54043269 0.01476632 -0.33193043
0.00321914 0.14821684 -0.49808687
-0.04060304 -0.37653410 -0.25998774
-0.15265343 0.12412971 0.37663633
-0.23024383 0.09192653 0.31625107
0.14319715 -0.24136135 -0.82333970
0.15195906 -0.53790951 0.64321685
-0.17752491 0.19917780 0.37768009
0.03515793 -0.58049041 0.48157543
-0.23918994 0.51133990 -0.13956387
0.23423275 -0.05407526 0.55658573
-0.53327727 -0.00170785 -0.41946021
0.02867787 0.26996762 -0.20614627
-0.14561602 0.41125989 0.62105429
0.59307003 -0.45905161 -0.05263332
-0.20155630 -0.52197206 0.32288459
0.58706868 -0.14453083 0.21059331
-0.37930843 -0.13569009 -0.70996696
-0.40001845 0.05682749 -0.34844679
-0.23771754 0.69961107 -0.01219584
0.12917070 -0.61571169 0.55959308
-0.00073161 -0.48414838 0.14583725
-0.39821416 -0.53066140 0.30692032
-0.44607425 -0.38618517 -0.38089970
-0.20555338 -0.14557356 0.67088437
-0.23386382 -0.43905479 -0.01764938
0.09164205 0.93916166 0.12209865
-0.18147807 0.54289752 0.56995088
-0.31662160 0.49328935 0.02717914
0.64711595 -0.15458864 -0.28459203
-0.47789097 -0.42004734 -0.16084111
-0.14577495 0.02365854 0.51719552
-0.18212421 0.31455684 0.46656674
0.20624885 0.12671366 0.35343361
0.06999855 0.32672250 -0.23827352
0.35460716 -0.48101652 0.00429608
-0.16490816 0.10120618 -0.82773703
-0.32201096 0.51248956 0.15337807
-0.12535763 0.55356216 -0.22435798
-0.06159659 0.82601911 -0.12323482
0.07460264 -0.36706507 -0.71147370
0.11805318 0.69273007 0.38878095
-0.30737582 -0.00169043 0.43289000
-0.17110476 0.83403885 0.05405301
0.02313120 0.93249732 0.14939854
-0.31869140 -0.55837989 0.44654137
-0.03750654 0.14289610 -0.48130491
-0.41495100 -0.46226287 0.04911713
-0.32185307 0.34951258 0.28817749
0.37130457 0.29070002 0.20848319
-0.48385850 -0.45242435 -0.01684838
0.20331477 0.47342443 0.58946419
0.13953899 0.89544892 0.14991207
0.01639766 0.71531397 0.56184769
-0.04015210 0.57198602 0.60477746
0.22554941 0.23694018 -0.65796733
-0.03611965 0.65990138 0.43525964
0.31833941 0.14927602 -0.59585190
-0.13570282 0.08235942 0.43920732
-0.14586148 0.17161416 0.39227819
0.15131232 -0.06936151 0.61401165
-0.15607542 0.61640823 0.59236342
-0.03390850 0.72179168 0.38391933
0.58213913 -0.48171628 0.13529515
-0.19195177 -0.15538436 0.68242228
0.15836738 0.30281407 -0.71991676
0.08489960 0.56596661 0.60718530
-0.30984819 0.40896696 -0.06597530
-0.11684044 0.26636517 -0.63628072
-0.24535388 -0.36534321 -0.48603538
0.34359139 -0.51806360 0.10283117
0.16539101 -0.52839428 0.27107027
0.18974309 -0.37788582 -0.63960272
0.21904393 0.82899398 0.19339612
-0.39410430 -0.35860866 -0.59626716
-0.05492715 -0.36353332 -0.72653234
0.50167596 -0.49952173 -0.06282996
0.10800707 -0.23255974 -0.83368498
-0.35002574 -0.45480621 0.05470587
-0.08614435 0.57617426 0.61171985
0.58589852 -0.40987265 -0.24982792
0.04197305 -0.57974386 0.47402084
0.59420931 -0.24451897 -0.40408644
-0.06673973 0.71243060 0.65723461
0.54663920 -0.43612891 0.33780241
0.18676461 -0.57119834 0.43598622
0.25773007 0.74429011 0.20825738
-0.26047656 0.21894638 -0.64219499
-0.12287792 0.62777913 0.51794225
0.02974652 -0.53930157 0.35880318
0.49832717 -0.49953306 -0.01735593
-0.08165122 0.73108417 0.35737112
0.37370837 0.27995485 0.12951800
0.35673574 -0.01286244 0.34579599
0.37859353 -0.32878405 -0.65391380
-0.26528865 0.02002475 -0.78821427
-0.18192714 -0.47978497 0.16383451
-0.32838902 0.37393281 -0.00073735
-0.10709962 0.64404994 0.53578788
0.20794387 -0.53216362 0.62410915
-0.39287463 -0.51673013 0.49388129
-0.24174985 -0.55135190 0.39330068
0.23985296 0.20019011 -0.06727448
-0.11510987 0.83457923 0.25113824
0.62378871 -0.08462763 -0.01445865
-0.55330062 -0.20743790 -0.47071466
-0.14411473 0.86797124 0.10694264
-0.28576934 0.04047066 0.35715225
-0.55733454 0.00173019 -0.07807186
-0.01179211 0.80740660 0.32048565
0.04356340 0.95901394 0.05561194
-0.10548886 0.64896488 0.54810494
-0.29703513 -0.37065405 -0.33808228
0.60110128 -0.22842848 0.25243443
-0.39707735 0.04090684 -0.12416098
-0.02440180 0.06176227 0.51216626
-0.26599005 0.09845214 -0.41310641
-0.61865270 -0.30039549 0.24289086
0.14962567 0.16520630 -0.83823967
0.58757460 -0.45935297 0.17827013
-0.18440072 -0.12648571 -0.83718741
0.44467917 0.01817740 -0.62788945
0.19752271 -0.44732004 0.02180637
0.21686678 0.70516318 0.30176705
0.35741571 0.12898168 -0.65364021
0.02797196 0.46400285 -0.27100423
-0.26013955 0.47707394 0.38961855
0.57168496 -0.27494177 0.32148474
-0.35234761 -0.32678393 0.61160421
0.06206157 0.20373426 -0.15843058
-0.12386765 0.77632350 -0.12379839
0.22801256 0.10068961 -0.05878206
0.06262700 0.12928490 -0.27342105
-0.22945502 0.04361431 -0.81146240
0.23656225 -0.50546497 0.14749371
0.21955046 -0.08030882 0.59270805
0.27697861 0.63212526 0.28127450
0.05314496 0.70474297 0.54901958
0.14139865 0.33942479 -0.23054038
0.30524209 0.16278245 0.12321363
0.50929773 -0.15277287 -0.57939976
-0.61165357 -0.27248046 -0.34020358
0.52237034 -0.04771811 0.12001447
0.22249885 -0.03492397 0.53871590
0.27917767 -0.23522022 -0.77278477
0.38354105 -0.53049964 0.14924471
0.21512461 0.74511570 0.27031422
-0.20405082 -0.17383265 0.68282902
-0.16870409 -0.35624886 -0.40988788
-0.19481623 -0.58268529 0.52979749
-0.16297770 0.38274115 0.56510121
-0.53657997 -0.18649238 0.36850935
0.12223925 -0.23879543 -0.82710993
0.12027746 0.68499798 -0.20674872
0.11343016 0.87933725 -0.06778967
-0.12960541 -0.34570426 -0.43332896
0.55456221 -0.21093705 -0.50452280
-0.29174697 -0.54062414 0.35248876
0.50263762 -0.50799823 0.33800149
0.06785583 -0.43346566 0.71285444
0.29090402 -0.09759027 0.55549848
-0.36044568 0.05543110 -0.07260250
-0.33973649 0.46831584 0.08672202
-0.21825241 0.28443655 0.40208131
0.60649431 -0.44406366 0.11717547
-0.14253949 -0.35456306 -0.62140530
0.21501242 0.46758541 0.58966404
0.62807274 -0.12328261 -0.32425910
0.11331775 0.65986627 0.50115973
-0.38553077 -0.51027656 0.50498176
0.28271922 0.55475134 0.33223602
-0.24176824 -0.36143196 -0.62903714
0.55608416 -0.45858824 0.27351949
-0.03575769 -0.48312056 0.69913721
0.64878428 -0.40288222 -0.06377249
-0.29218721 -0.46520466 0.07972826
0.19793834 0.31692976 -0.19738548
-0.15197772 0.62635100 0.39451882
0.40731832 -0.19170719 -0.70373976
0.13439631 0.53436625 0.58472073
0.37567547 -0.11069912 -0.73882937
0.03368026 0.26386273 -0.19285181
-0.14710774 0.27295399 -0.16268662
-0.58319819 -0.05791634 -0.36859021
-0.44915050 0.06633818 -0.49476725
-0.07827792 0.64725816 0.45581627
-0.37264532 -0.49474376 0.53300804
-0.50359619 -0.28501758 -0.54766333
-0.61025417 -0.08127835 0.14130510
-0.40555441 0.02419057 0.02014905
0.53748226 -0.32603848 -0.48354164
-0.43771723 0.03088690 -0.18225844
-0.57721055 -0.12600866 0.25369105
-0.44610441 -0.36824751 -0.52814656
-0.07310451 0.53928620 -0.24455890
-0.64070034 -0.38245231 0.07116252
0.50813770 -0.45297241 -0.26369941
0.29758883 0.35324305 0.39529988
0.00955625 0.93958050 0.10643281
-0.01105083 0.13372415 -0.46350500
-0.39797989 0.08535352 -0.44199044
-0.33695129 -0.20485637 -0.73850071
-0.01393824 -0.36515129 -0.40953481
0.16476341 -0.38053620 -0.30042589
0.23725756 0.09994891 -0.04475169
0.33000481 -0.13756159 -0.77868116
0.32682079 -0.47677040 0.01232096
-0.29201442 -0.47063112 0.10308865
0.17700899 -0.03766677 -0.84766155
0.06903356 -0.36881989 -0.31563544
0.21017726 0.60227621 0.53994036
-0.50154543 -0.38362825 0.45085144
0.37778801 0.42740789 0.25394148
-0.16184556 -0.40012819 -0.12245125
-0.45583075 -0.11751297 0.42432076
0.31436777 0.02671547 -0.78538263
-0.17682125 0.32668164 -0.17993386
0.28224519 0.72187918 0.00915749
0.12689777 0.19652188 -0.57253391
-0.09333338 -0.39178389 -0.10146882
-0.16025572 -0.56111836 0.44955117
-0.57363701 -0.29735672 -0.41241872
0.58414733 -0.11224923 -0.44085404
-0.27916902 -0.42141503 -0.06350432
0.49887982 -0.46639532 -0.18286544
-0.24034424 0.08411136 -0.14154586
0.31257865 -0.53708690 0.23900110
0.14560579 0.30455047 0.51122248
0.06562166 -0.06775434 0.62922406
0.09907018 -0.61124724 0.58852816
-0.17432466 0.17972788 -0.06552549
-0.07640913 0.65692437 -0.21032456
-0.04907567 0.30591458 -0.78409857
0.17260945 -0.43812895 -0.04171228
0.12346603 0.20872936 -0.58586633
0.15218672 0.28606486 -0.66225892
-0.24772923 -0.36358941 -0.65572393
-0.67048383 -0.19628564 -0.19009453
0.08626491 0.35434800 -0.76271605
-0.05073212 -0.38255656 0.74213809
0.07299454 0.25019825 -0.60392213
-0.38911283 0.07105525 -0.35363880
-0.15271620 -0.41574484 0.69981879
-0.21740595 0.16747153 -0.02201346
-0.43249118 -0.29138950 -0.62057906
0.06960741 0.29569703 -0.63993478
0.09039191 -0.36569816 -0.58465278
0.02631158 0.12535833 -0.29204661
0.45517364 -0.00222205 -0.00200451
-0.58780646 -0.38969338 -0.25146151
-0.07499526 0.50882256 -0.24895738
-0.46396735 -0.02678385 -0.57048053
0.18158850 0.18188469 -0.09442490
-0.19258803 0.44958937 -0.19915389
-0.09982927 -0.53295594 0.66207814
0.01734206 0.27389103 -0.21121469
-0.17179488 0.40674227 0.57979023
-0.25621533 -0.44807911 0.05772193
0.33452451 0.14669119 -0.69155294
-0.19976258 0.24814790 -0.70141888
0.47237232 -0.48116064 0.42536017
0.25123325 -0.38707495 -0.61059135
0.24970520 0.08961798 -0.42517766
0.15459049 0.10295892 -0.37349364
0.03034540 0.95176810 0.08475603
0.37577379 0.36314604 0.26074553
-0.25023800 0.04168302 0.42245856
-0.46575272 -0.07653114 -0.61592734
0.15427279 0.65982217 -0.19983611
0.35670114 -0.54410797 0.24796760
0.19396248 0.18560687 -0.57805657
-0.08101916 0.02896464 -0.86940503
0.17220053 -0.46384549 0.04891198
-0.21347214 -0.14735419 0.65948528
0.01247801 -0.45541024 0.06401870
-0.41186887 0.07612293 -0.37640959
-0.27784106 0.09971327 -0.37247923
-0.31956270 0.47672710 -0.00962762
0.36649477 0.01538689 -0.74228543
0.29780963 0.43227533 0.38796374
-0.14989242 0.12436727 -0.08763748
0.34935027 -0.41246074 -0.28598160
-0.06068155 0.20217803 0.43335116
0.18347269 0.79407704 -0.09917919
-0.05375509 0.64969444 0.44825923
-0.51236081 -0.29287529 -0.53488308
-0.25087002 -0.35551441 -0.43917367
-0.41956601 0.00066423 0.19066131
-0.17953761 0.25702605 0.41718173
-0.59004033 -0.00056800 -0.13406800
0.26014760 0.64699733 0.30162698
-0.26069522 -0.24595317 0.66736549
0.17038199 -0.36959422 -0.52627319
-0.50968468 -0.02190289 -0.50343859
0.15100184 0.72021902 0.35066408
-0.44480091 -0.03741707 -0.62283939
-0.63761783 -0.27342474 0.22100261
-0.66099966 -0.13344911 -0.17180148
0.27726942 0.60943305 -0.10823590
-0.41782048 -0.38398093 -0.48531771
0.27642173 -0.54144341 0.27921885
0.54989541 -0.47511733 0.25359136
-0.26057625 0.50119102 0.37572166
0.55055296 -0.03770167 -0.45879626
0.31847122 0.06106252 0.19369453
-0.54722869 -0.44813210 0.30557665
-0.23561756 -0.35432744 -0.47324303
0.11733921 0.70213568 0.58394694
0.40241325 -0.53785300 0.14961453
0.47617677 -0.52411437 0.35295692
-0.27172935 0.30194610 -0.05386662
0.41944373 -0.42276984 -0.39112005
0.42461056 -0.44017464 -0.24514420
-0.47004199 -0.15426573 0.42762285
-0.17110738 -0.59268868 0.54355711
0.09046659 -0.35411459 0.73742634
-0.32514420 -0.41731155 -0.14312391
0.15854277 0.85840881 0.18781763
-0.32753292 -0.47572720 0.59732467
0.13387136 -0.38196182 -0.29059589
0.61714661 -0.10543716 -0.32873535
-0.33519396 0.44217390 0.24470127
-0.36289179 -0.37306720 -0.56488580
0.15009074 -0.04557750 0.59425581
0.51989245 -0.42052901 0.38859043
-0.00868347 -0.54860854 0.35890454
0.42905009 -0.38919044 -0.52800232
-0.54759264 -0.04027632 -0.43699411
-0.08327178 -0.06375246 0.62584889
0.09876634 0.31653535 0.55374485
0.37815130 0.44773185 0.23382574
-0.08955681 -0.32462752 0.73499358
-0.63517010 -0.08294435 -0.20305765
0.09440189 0.11261089 -0.15830183
0.41034409 0.03542301 -0.24248543
0.51699173 -0.54389811 0.17023849
0.63348091 -0.38498503 -0.18540433
0.00066000 0.21608725 -0.17204037
0.07445221 0.35448983 -0.73307484
-0.05730663 0.13204715 -0.37607613
0.05055802 0.41005766 0.71545577
0.12344076 0.22436655 -0.59733850
0.38718185 0.03320982 -0.14370063
0.27385578 0.75452548 0.01209394
0.08943032 0.22050421 -0.16649634
0.18994892 -0.13240153 -0.84391123
0.18005271 0.26850665 -0.76604813
0.26864669 0.65511495 0.26814365
0.12574635 -0.37490535 -0.41321850
0.06699327 0.25611305 -0.19103339
-0.23496799 0.64701045 -0.06826922
-0.58138096 -0.28046530 -0.40639281
0.11926760 0.70121056 -0.20043427
-0.47270575 -0.27587885 -0.58430296
-0.10480916 0.54223245 -0.23093323
-0.28350130 -0.05117820 -0.78777617
0.51923776 -0.15293276 0.32738066
-0.18858136 0.79637468 0.12594546
0.35489964 0.10631303 -0.53333127
-0.10368633 0.73159319 -0.16374673
0.04947409 -0.37062907 -0.29903316
0.61986756 -0.41601646 -0.09231093
0.17241754 -0.15641090 0.68338317
-0.30382338 0.11233854 -0.45612451
0.15938112 0.57405972 -0.22847278
-0.37454367 -0.26648259 -0.68410861
0.56011844 -0.32741293 -0.43513253
0.14034556 0.24708059 -0.17308639
-0.20550786 0.50182712 0.52847219
0.65414262 -0.34115797 0.14657472
0.00180939 0.13187952 -0.14876717
-0.20007977 0.13987997 -0.47804031
-0.45133969 -0.15130910 0.45486212
-0.58844447 -0.39866406 0.26029402
-0.36556819 -0.39556152 -0.19187614
-0.29689988 -0.09390491 -0.78925407
-0.05816612 0.89124209 0.18513164
0.21255438 0.49073008 0.58172220
-0.14144595 0.04566381 -0.85193092
-0.00636108 0.46946719 0.61792094
-0.33990335 -0.10353887 0.51846546
0.65769172 -0.34397370 0.13054767
0.02140465 0.71446180 -0.20222706
0.32229728 0.41488075 -0.09652670
0.16353391 0.78484565 -0.12622139
0.21881403 -0.39030957 -0.63225394
-0.15151004 0.22206411 -0.10935478
0.63276315 -0.19230491 -0.33692810
0.44716260 0.06826568 -0.49151483
0.14291872 0.26162738 -0.18234396
-0.28903380 -0.00378577 -0.76943827
0.32719508 -0.44214052 0.59666473
-0.10766090 0.71674991 0.36014989
0.38209158 0.07001863 -0.43518695
-0.22399311 -0.09422684 0.60183054
0.58906436 -0.47315246 0.09855945
-0.52662432 -0.34895658 0.41505489
-0.52027774 -0.00776844 -0.46657640
-0.11886610 0.73853517 -0.15253922
-0.48743397 -0.06738679 0.29459041
0.64610720 -0.11127838 -0.18195084
0.65866935 -0.13680452 -0.16918668
0.57813811 -0.02431375 -0.28977844
-0.37489623 -0.37251776 -0.59429795
0.27562732 -0.00966950 0.45347184
-0.02170191 0.30758321 -0.23775496
0.04434957 0.22181731 -0.16209275
0.62345529 -0.37781233 -0.22428496
-0.62066269 -0.38319796 -0.15255646
-0.00404832 -0.51126164 0.23541507
0.20462741 0.02384080 0.46628881
-0.09055208 0.92114908 0.06620511
0.08823666 0.07258497 -0.87273145
0.67390370 -0.18612134 -0.15302365
-0.14945644 0.16993558 -0.08613893
0.51996422 -0.49652064 -0.08968230
0.47010499 -0.00326493 -0.10927645
-0.10087685 0.21534516 -0.82294548
-0.16748492 0.20669271 -0.57114154
0.27410999 0.77105010 0.07216282
0.17908578 -0.54240435 0.32632110
0.20546652 0.64632988 0.35733995
0.32358107 0.21452907 0.14969410
0.05992364 -0.33227113 -0.78569478
-0.24224907 0.30492610 -0.10867032
-0.04928330 -0.36613107 -0.56646794
0.12604222 0.92421710 0.00140053
0.18873361 -0.25936824 -0.80782664
-0.12528029 0.63413548 0.61674488
0.45165616 -0.44042969 -0.39779118
-0.50225163 -0.31038585 -0.52697897
-0.19554467 -0.18225443 -0.81571865
0.27138230 0.01582940 0.42540780
0.32058907 -0.54608250 0.53784311
0.20207524 0.67250574 -0.15788363
-0.60283971 -0.25448528 0.29424217
-0.66723752 -0.23939440 -0.23012841
-0.49622276 -0.43810594 -0.05773888
-0.46724838 -0.51615697 0.28529480
0.20850794 -0.58708858 0.43158633
0.06779688 0.66927421 -0.21823558
0.57363665 -0.46393347 0.21029907
-0.31162342 0.52534074 0.10625580
-0.51427329 0.04065385 -0.32133636
0.65573668 -0.33295885 -0.20087144
0.34718102 0.06936828 -0.73558789
-0.27593800 0.63770878 0.06660379
-0.20936352 0.20967621 -0.75503021
0.27555272 0.09537069 0.25317410
0.28098395 0.59185034 -0.10313074
0.01281136 0.85185117 0.27529913
0.67527163 -0.30078614 0.09549753
0.00074623 0.67895806 0.42981732
-0.35359392 -0.48032171 0.09405942
-0.33861327 0.30620819 0.21108034
-0.44229570 0.02506490 -0.16430770
-0.07129604 0.23162208 -0.16411617
-0.66073799 -0.24926269 0.15321609
-0.00612727 0.11939360 -0.41377208
-0.29047364 0.53232026 0.24382436
-0.33782813 -0.08928019 -0.75553793
-0.30200931 -0.47579861 0.15076473
0.33546793 0.12049511 -0.73230368
0.29398450 -0.53071171 0.24164143
0.24376985 0.32067677 -0.17517418
0.36415461 0.44722626 0.28990027
0.54069650 -0.20006466 -0.53033137
0.25713870 0.09729665 -0.01742662
-0.21303849 0.22450095 -0.61579406
-0.46802223 -0.13306710 -0.62396413
0.25680465 0.21848691 0.34537908
-0.32019722 -0.50974637 0.26626539
0.22960204 0.47896558 0.56635076
0.40214881 -0.44308919 -0.16925368
0.39355767 -0.40851885 -0.43528569
-0.28970701 0.30028906 0.31488678
-0.04325924 0.48833311 0.57903290
-0.32644349 -0.44534290 0.02363154
0.33183274 0.56391406 -0.03179215
0.39604196 0.39378121 0.18303668
-0.24669620 0.07382461 -0.77901292
-0.16941334 0.12263052 -0.26085845
0.60114419 -0.18562737 -0.40961099
0.22532947 -0.38236505 -0.57600635
-0.05809240 -0.32381967 -0.77816200
-0.00283245 -0.36782503 -0.66268843
0.68375444 -0.28113046 -0.13234404
-0.54161966 0.01192941 -0.05411497
0.31519961 -0.43792081 -0.12667479
0.28115183 0.73302370 0.17146911
-0.09683116 -0.49092245 0.19138366
-0.58282876 -0.01011889 -0.24342041
-0.31235912 -0.25153011 0.63217419
-0.16531369 0.19304460 -0.77728355
0.34249672 0.39744508 0.34513456
-0.68104267 -0.28973436 -0.07776131
0.68969440 -0.28402483 -0.11706014
0.68761134 -0.30681977 -0.01488453
-0.24363765 0.06966300 0.33297139
0.29441649 -0.39054877 -0.65060282
0.35093841 0.38814753 -0.04881097
0.51559353 -0.02061325 -0.03814514
0.10089666 0.64787984 -0.22951221
0.08300477 -0.08972463 0.65968686
-0.25829056 -0.22636408 0.66338670
-0.05943508 -0.43647861 0.01068141
0.19038019 -0.45967436 0.67607272
-0.14630108 0.22157037 -0.58673948
-0.30311465 -0.23418438 -0.75711381
-0.11544161 -0.60014701 0.57626891
-0.26439139 0.28600806 0.35226187
-0.31662574 0.35963771 -0.04012590
-0.28870901 0.17704736 -0.60606754
-0.19242544 0.11682372 -0.22570777
0.36614159 0.33740848 0.26807395
0.65827346 -0.13335407 -0.06878998
0.37249959 0.03869850 -0.03499408
0.14304684 -0.38730991 -0.59813482
0.63047457 -0.42275810 0.01582263
-0.26841372 0.08416384 0.11153519
-0.21282260 -0.19361538 -0.81588322
0.09232776 0.71495759 0.59736723
-0.13703744 0.32579055 0.50840348
-0.14298126 -0.36273670 -0.33834621
-0.02345555 0.37985307 -0.25620651
-0.48189399 -0.40315253 -0.31046423
0.67878819 -0.19636586 -0.16924635
0.00770878 0.35365582 -0.24645723
-0.11056546 0.83966202 0.23166057
-0.42687389 -0.38921541 -0.45162326
0.19818635 0.33010393 -0.20511055
-0.22839139 0.13720180 -0.50210619
-0.02794902 0.14226994 0.43733603
0.07490054 0.07368942 0.46972400
-0.16934310 0.46243671 0.59824610
-0.10730882 0.16404426 -0.51213789
-0.20855114 0.50782472 0.47495812
0.06155300 0.18066472 -0.54106355
-0.11562585 0.65781176 0.58398008
-0.12063070 0.30618799 -0.68913907
-0.63023031 -0.40287596 0.02017000
0.39390334 -0.27323303 -0.68496090
-0.33218285 0.47150180 0.06147783
0.62241340 -0.13068032 -0.34501413
-0.23200728 -0.40352088 0.68240118
0.07365591 -0.04508822 0.61725861
0.20687859 0.61802256 0.37003911
-0.07772683 0.31723893 -0.66940963
-0.03444217 0.34974390 -0.71091998
0.30646265 0.25900877 -0.06035613
-0.03153159 -0.60594398 0.54903829
0.29998901 -0.56881481 0.29819545
-0.36815390 -0.04217063 -0.71397382
0.12637888 0.68631279 -0.18883473
0.27103379 -0.46679884 0.01486533
-0.26814783 0.43051922 -0.11346639
0.43630886 -0.44318545 -0.22724278
-0.46266156 -0.46136618 0.02072804
-0.50961721 -0.44047433 -0.14951026
-0.00560847 0.70765847 -0.19989960
-0.14119916 -0.36302006 0.73398632
-0.44016021 -0.00745368 0.14848827
0.62428558 -0.12810782 0.11678047
0.17709923 0.20254648 0.39033863
0.17495300 0.44199270 0.65176952
0.45094803 0.06520201 -0.46788508
0.53556848 -0.06031123 0.14301702
-0.01372832 -0.45349663 0.03611966
0.57250178 -0.15458071 -0.46906841
0.51517141 -0.16673928 0.33977604
-0.32593879 0.51301706 0.08334655
0.03366853 0.04351362 0.52812672
0.07844096 -0.38964945 -0.18168530
-0.67655170 -0.18772104 0.06789048
-0.28159305 0.14497715 -0.73990679
0.02516604 0.28966638 -0.81911689
-0.44606543 0.06524152 -0.50620627
-0.68621600 -0.28924540 -0.03452103
-0.02643991 0.12141348 -0.37165770
-0.11565779 0.12181974 -0.32591239
0.59144974 -0.22840416 0.26730484
-0.06921831 0.13926482 0.43109637
0.13946879 0.62648416 0.46241647
-0.16721262 0.48236194 0.55088192
-0.50808024 -0.34281456 0.46474224
0.32298639 0.56883049 -0.04323571
-0.11077165 -0.36986804 -0.33336529
0.12288579 0.65723550 0.64041090
0.27303523 0.03148316 -0.80400544
-0.51600242 0.03181806 -0.21124862
0.24125412 0.65016186 0.31853235
0.22771984 -0.38727736 0.68028307
-0.28803697 0.02896386 0.38302204
0.03841141 -0.42877221 -0.00772431
-0.56417978 -0.18549755 -0.46476802
-0.35277873 0.02619806 0.30295020
-0.06867219 -0.44228643 0.03158543
-0.17305349 -0.20132151 0.69846946
0.22314827 0.05943335 0.42116997
-0.13614932 0.77126032 -0.11640470
0.05162319 -0.58849496 0.48165226
-0.19838597 -0.36916077 -0.62988037
0.16874911 -0.47718632 0.11182065
0.31342715 -0.07984285 0.51700616
-0.35697260 0.04845357 0.19569775
0.04311968 -0.38377738 -0.19837146
0.58871496 -0.43448949 0.22700742
0.20047328 -0.38610905 -0.57480448
-0.30325255 0.07388666 0.15693825
0.13654839 -0.49696308 0.19267386
0.32416338 -0.08132418 0.50354397
0.21506590 -0.37361097 0.69722635
-0.40671131 -0.01654884 0.28649873
0.62177503 -0.36623716 0.21716088
0.25780615 0.59255648 -0.13901207
-0.00237238 -0.14789647 0.70838219
0.66879570 -0.24655476 0.13466527
-0.54903543 -0.26275566 0.38217220
-0.12058706 -0.19788402 0.71317238
-0.43616870 -0.52941102 0.38670799
-0.27796566 -0.43483114 -0.00793990
0.07811086 -0.14982110 -0.86341423
-0.60569561 -0.37313384 -0.24986373
-0.17802572 0.06632607 0.43415999
-0.39805448 0.04860970 -0.28085583
0.03263212 0.67708570 0.44223988
0.08418447 0.27476558 0.50949079
-0.50634295 -0.17860827 -0.56945765
0.35716769 0.52768415 0.20790306
-0.39667118 -0.43348050 -0.01633784
-0.24600539 -0.57806575 0.50343633
-0.25407606 0.18999338 0.05031678
0.53460872 -0.07257099 0.16589980
-0.26797947 -0.57434547 0.47448373
0.14110376 -0.27914330 0.72122413
-0.27357379 0.10105263 -0.38207284
0.35268241 0.28994137 0.26599944
0.38282594 -0.51440597 0.07243320
0.21734898 0.08961750 -0.33081618
0.38080311 -0.05213344 0.38030088
0.02786180 0.14854845 -0.12732886
0.17914961 0.59252989 0.45090884
0.06109155 0.31405151 0.54629624
0.43303844 -0.16265547 0.44830549
0.32138059 0.23388174 0.25593853
-0.49610388 -0.47423029 0.02147357
0.50136971 -0.19422984 -0.59504396
0.08808637 0.65984941 0.44233847
-0.01331075 0.75428587 0.65108573
-0.14514427 -0.49065459 0.19445983
-0.13525254 0.69023556 0.36172682
0.25400227 -0.17396849 0.62835789
-0.32861626 -0.38298118 -0.29991117
-0.18950620 0.32475299 -0.16012776
-0.25674003 0.04896039 0.39009538
-0.53895938 -0.38924038 -0.33128536
-0.63976741 -0.34209210 -0.18864089
0.34739378 -0.31966227 0.60521221
0.46783209 -0.12649518 0.37727937
-0.67827499 -0.20729357 0.07180488
-0.24645221 0.04743380 -0.80512685
0.02515573 -0.36698115 -0.60426974
0.37786707 0.48944849 0.11616303
-0.22803570 -0.51984835 0.26815835
0.24925998 0.23561926 -0.11229339
0.61893260 -0.36963040 -0.24367373
-0.05238338 0.66105568 0.48800308
-0.62412226 -0.14927283 -0.33014634
0.23037475 -0.52817982 0.61464953
-0.34834689 0.33704770 0.16869465
-0.25338906 0.66924179 0.19891909
-0.18598849 0.14836594 -0.80067551
-0.03708607 0.30171359 -0.23045440
0.04748227 -0.58708251 0.50249749
-0.29584303 0.06095573 0.16876677
0.46231705 -0.17403144 -0.65179551
-0.35341781 0.40443078 0.10627155
-0.20154683 -0.36927420 -0.34705940
-0.27134225 0.50319684 0.33679035
0.03847917 0.04241471 -0.87221050
0.33915043 0.59755594 0.12175794
0.46690664 -0.52311450 0.37645793
0.17791246 -0.10996875 0.63918972
0.15662029 0.45000976 -0.24676988
-0.25265026 0.43801445 -0.13737635
-0.18259126 0.13102829 -0.04241797
-0.19330303 -0.51465517 0.26735467
0.30274329 0.23531742 -0.03304708
-0.48366317 -0.05951700 -0.57924074
0.08865904 -0.36904222 -0.39714441
0.36032632 0.00936493 0.26045698
0.35899916 -0.15703213 0.53931701
0.23384826 0.20245469 -0.07501654
-0.06867123 0.04730906 0.51646525
-0.51504755 -0.36133862 -0.45111275
0.33454874 -0.45880097 -0.06538613
-0.04455199 0.86320949 0.25232670
-0.35209417 -0.30774912 -0.68663824
-0.14055826 0.15681024 -0.50346768
-0.56422102 -0.40956044 0.31986484
-0.12842363 -0.43033046 -0.02633887
0.18721080 0.10102648 -0.14163463
-0.09701329 -0.41097087 -0.13080502
0.20521738 -0.38183212 -0.29380125
-0.23587203 -0.24951819 -0.78880954
-0.00650947 0.28401428 -0.21968019
0.29560792 0.73851925 0.11217631
-0.40880647 -0.41501689 -0.18959323
-0.29173204 0.39215556 -0.08849677
0.60809088 -0.45281875 0.02381611
-0.32556868 0.01656504 0.33271053
0.09930220 0.13833053 -0.11369425
-0.17500927 -0.19007555 0.69160926
0.04839324 0.11159537 -0.39381346
0.17299016 -0.33477029 -0.77036983
0.32217541 0.38496190 -0.10684352
-0.08774734 0.24787626 -0.17189853
0.00523933 0.40645814 0.70866865
-0.50835931 -0.50231743 0.26895124
0.18117023 0.62942731 0.38657278
-0.64510059 -0.34447050 0.15656418
-0.26360461 -0.48452073 0.62813300
0.39708474 -0.01240060 0.26367733
-0.39473778 -0.02186354 0.37278512
0.08173802 0.66104972 -0.23017195
-0.23900509 0.20791620 -0.63207346
0.28434917 0.15668763 0.13070218
0.16944677 0.11087197 0.38963866
0.34143397 -0.32210177 -0.69085354
-0.08603770 0.19055828 -0.13515985
-0.16922355 0.19911951 -0.56221783
-0.10931712 -0.44221842 0.05248301
0.16630901 0.45433044 0.65782470
-0.58555818 -0.02325496 -0.29158625
0.15719803 0.72922528 0.34173006
-0.55470657 -0.00139640 -0.03514042
0.21168114 0.17854148 0.34646162
0.68690264 -0.21313840 -0.06619018
-0.31329507 -0.06132555 -0.77872998
-0.14380762 -0.35243469 -0.57915413
-0.65147698 -0.09994730 -0.07605182
0.30380422 0.17538321 0.09491503
-0.41894925 -0.17184648 -0.67814714
0.28271392 -0.11446616 -0.79880053
0.54055870 -0.27863112 0.37343282
-0.62586784 -0.07851741 -0.25301445
0.12449089 0.84836596 -0.09460628
0.19336604 0.62036455 0.54935765
0.05152918 0.12700662 -0.45653921
0.66828883 -0.17625037 -0.16584536
-0.02168809 -0.57524967 0.48574942
-0.43984190 -0.44023049 -0.07330285
-0.20619661 -0.26904091 0.70379180
-0.29439798 -0.56626743 0.50466645
0.59663081 -0.41499978 -0.20526358
0.59238386 -0.46904105 0.13354696
0.38750574 0.33723289 0.06253646
-0.28647408 0.58518040 0.02698634
0.15933432 0.51954019 0.59113836
0.64399946 -0.15151489 0.08126372
0.04943650 0.90027720 -0.08271033
-0.31939161 -0.38036007 0.63413370
