0.29495490 -0.14563721 0.69307154
-0.35298750 -0.11234800 0.28100932
0.17331564 -0.05794422 -0.33301070
0.25798544 0.11314115 -0.40188348
-0.09288750 -0.08964790 -0.73191494
0.05183750 0.21261646 0.09697156
0.30897918 -0.13029678 -0.15206940
-0.35732469 -0.14510709 -0.45263505
0.41849455 -0.10198330 0.37373167
0.03528256 0.03812458 -0.72096539
-0.21538313 -0.15332738 0.81285840
0.07980652 0.07020859 0.29171610
-0.18230866 -0.04843808 -0.93844211
-0.01892648 -0.12617290 -0.79000217
-0.31325632 0.06673894 -0.08076054
-0.27484125 -0.12983060 0.64216536
-0.27449566 0.14043844 0.55913663
0.32467034 -0.05374835 0.86752784
-0.27207258 0.15773290 0.71752399
0.20090708 -0.13050112 -0.26835132
0.31156662 -0.13941272 0.21236716
0.08455998 -0.16110806 -0.19643153
-0.07481275 -0.02887785 -0.97854459
-0.44773173 0.08345862 0.49432477
-0.13053438 0.13745047 0.26687673
-0.26785529 0.17094924 0.23438942
0.42113367 0.04016915 -0.75195247
0.32285807 0.15540773 -0.65764517
-0.23477367 -0.07556410 -0.49297288
0.43543190 0.05340206 -0.70786905
-0.46210581 0.03218164 -0.44520155
-0.37927705 0.01940056 -0.19413508
0.41770867 0.13892171 -0.52041131
-0.19767474 0.13001861 -0.86672831
0.15305445 -0.16801530 -0.13024615
-0.00228415 0.03348581 1.00282526
0.29913959 -0.06933336 0.87893522
-0.38282427 -0.11157703 -0.34212017
0.35278061 0.15575030 0.37318721
-0.26734951 -0.04255724 -0.89460224
-0.41466320 0.06247189 -0.30373269
0.31011736 0.13189928 -0.16769686
0.03921221 -0.01798640 -0.28225738
0.21741265 0.01014957 0.60003483
-0.21935977 0.15637162 -0.13151948
0.15651035 -0.16872875 0.20111936
-0.20989309 0.11483633 -0.65093869
0.29039174 0.15674922 -0.77527279
0.27325982 0.16596508 -0.73191196
-0.04373656 0.03315835 -0.71806729
-0.43392062 -0.09125469 0.64196140
0.16596904 -0.13583551 -0.89167172
-0.27584305 -0.12653150 0.45066765
0.02392059 0.01452577 0.99793619
0.40019748 0.08836647 -0.29715970
0.06364878 -0.18801083 0.13767980
0.25399131 0.11169153 -0.58521801
0.34501255 0.03619524 -0.85523468
0.36813194 0.10654107 -0.79459882
0.30117112 -0.05637815 0.88459671
-0.30278790 0.11291619 0.84292275
-0.04278946 -0.17392749 0.17368212
-0.45120791 0.07720074 -0.57394212
0.25982082 -0.09041233 0.54353619
0.18630695 -0.18224141 -0.00693982
-0.29995823 -0.12457683 -0.20093423
0.08488073 0.06805108 0.98921376
-0.24828404 -0.03737064 0.93176687
0.46392044 -0.04939437 0.63658571
0.34889060 0.03806021 0.07945707
0.19847865 -0.12211284 -0.87651366
-0.12701757 -0.15394211 0.20709078
-0.44054818 -0.08993408 0.61682665
0.30123493 0.13717963 0.60803276
0.23369421 -0.14134593 -0.79210758
-0.24196984 -0.14184731 0.15028149
-0.18810821 -0.16675949 0.17942999
-0.31175953 0.13288766 -0.22946966
-0.14496429 0.09636164 0.95855784
-0.03416357 -0.14830320 0.86118072
-0.36158106 -0.05062876 0.18887694
0.11700611 0.00369314 0.99555916
-0.25655717 0.17280853 0.25649279
-0.25488049 -0.13171908 -0.66854775
0.16573320 0.10539289 0.32342678
-0.15400007 -0.15534166 0.20318986
-0.19063774 0.11408176 -0.90335429
0.13745989 -0.07104921 -0.70843816
0.29549357 -0.12591037 -0.08116897
-0.01262209 -0.19179471 0.06106493
0.26751810 0.04669829 0.92493033
0.17865790 0.16084979 0.85035580
0.41339871 0.01231693 -0.76473743
-0.14836882 0.10327795 0.94735551
0.45707884 0.06891551 -0.37452224
0.32310137 -0.14581878 0.49045739
0.02448311 0.09936003 -0.95649040
-0.46500483 0.04772551 0.53912550
-0.20971066 -0.05915860 0.60220230
0.27138183 -0.13894650 0.02346549
0.41819948 -0.11684609 0.62378079
0.46717700 -0.08512054 0.52029371
0.29767996 0.06010298 0.89612812
-0.20284058 -0.14265631 -0.24345163
-0.19916877 0.12939954 -0.30104193
0.13056004 -0.18861692 -0.05924658
0.01080561 -0.12703209 -0.21557465
-0.06110615 0.06620914 -0.97179788
-0.24837345 0.16223839 0.79669404
-0.35100862 0.05547991 0.16813222
0.06309240 -0.19070540 0.00217929
-0.04126246 -0.03993025 -0.97302389
-0.34730157 0.15498982 -0.33338889
-0.22482750 0.14417636 0.69477284
-0.15094067 0.16139355 -0.81738919
-0.26750332 0.15398872 0.36496264
0.21406555 0.06165719 -0.39602640
0.36519390 -0.15253524 0.47483754
-0.39996225 0.09157624 0.71624583
0.00447218 0.13042369 -0.21921386
0.26405787 0.09297220 -0.49583361
-0.38518217 0.14681080 -0.37190324
0.09708837 -0.05534640 0.98317617
-0.38865656 -0.06126360 0.26673880
-0.20502700 -0.05831037 -0.41316923
-0.14032403 -0.17494616 0.02642428
0.26058063 -0.10455392 0.43668899
-0.37955627 -0.08485996 -0.75238240
0.37060350 -0.04601614 -0.15167549
-0.25801799 -0.13436055 -0.12887573
-0.19122666 0.13075747 0.73359418
-0.28166747 -0.13940372 -0.19975473
-0.17541632 -0.12089944 0.75040060
-0.10425304 0.08152018 -0.72323918
0.32579693 0.12838253 -0.19453900
-0.00740598 -0.13531503 -0.21241739
-0.46525547 0.00771012 -0.59949899
0.43661341 0.11981772 -0.47816488
0.27618942 0.15692221 -0.31724524
0.33797354 0.06535946 0.85567689
-0.13837604 -0.04138982 0.96781427
0.03570288 -0.07412942 0.97609848
-0.20591621 0.00072094 0.46566680
0.04549534 0.02077391 0.29925147
0.09444418 0.12655768 0.93167239
0.00942065 -0.09610852 -0.24411377
-0.00630085 -0.16037172 0.15658672
-0.13273953 -0.00762243 0.35117114
0.20958842 0.16761601 0.81482768
0.16274327 -0.15528920 0.82035130
0.08351908 0.00657142 -0.29293811
-0.22709011 0.11381461 0.90238076
-0.02049308 -0.14314173 -0.83652228
-0.32666591 -0.14262399 0.62818670
0.27897251 -0.11766631 -0.55561709
-0.19875948 0.01027733 0.59458536
0.19460790 0.14009680 -0.87860852
0.00397932 0.05399534 -0.73488784
-0.31270191 -0.07401053 0.06963678
-0.15206680 0.03833244 0.97872269
0.32495847 -0.08186682 -0.84326565
-0.26271901 0.12446446 -0.83244020
-0.35025996 0.16476950 -0.52999771
0.37087950 0.16265365 0.47781998
0.13346589 0.01001013 -0.96296865
-0.36315417 -0.00161226 -0.14114393
0.07936981 -0.14507923 0.84931272
0.20270096 0.03847163 -0.94263017
-0.36788151 0.14657399 0.71012408
-0.05083018 0.04249433 -0.72978920
0.44238114 -0.05761844 -0.68762827
0.44000307 -0.12009532 -0.55413711
-0.39060795 -0.12953216 0.57033062
0.32208580 0.09134722 0.09459498
0.11262228 0.06123792 -0.29089376
0.16755031 0.02052512 0.97319323
0.34223670 0.16702649 -0.51591408
0.42580923 0.01916437 0.77228165
-0.39287144 0.03475238 0.77155018
-0.23072219 0.14715357 -0.73518199
0.41921079 0.12873025 0.65844989
-0.42651510 -0.08610807 -0.63944679
0.25261644 -0.14816792 0.76038200
-0.16401154 -0.06636948 0.95025021
-0.18345313 0.02905725 -0.38601041
0.01255401 0.20701183 0.09322608
-0.46245229 -0.03920423 0.60594666
-0.42264387 0.10880147 -0.62388456
-0.25223953 -0.10423324 -0.54860133
-0.20012267 -0.15245143 -0.17602289
0.03216742 -0.14162177 -0.19718857
-0.23290445 -0.08191893 -0.44745320
0.30597991 0.02774404 -0.88776773
-0.29529196 -0.14354777 -0.31009972
0.29419816 0.16143250 0.75367755
0.20917678 -0.16931583 -0.05669158
-0.45215085 0.01376796 -0.65305567
0.20161140 -0.17385100 0.16218396
0.46153629 -0.06712930 -0.62533581
-0.21920763 0.12535290 -0.86943352
-0.26175916 0.14856221 -0.67082632
0.38116756 -0.15384823 -0.49075034
0.07141509 0.04222837 -0.97266388
0.38561842 -0.09522378 0.28720236
0.17785361 0.15343517 -0.24136969
0.17060587 0.09190090 -0.92339247
0.38791448 0.13962311 -0.37601891
0.12189786 0.16804138 0.21474326
-0.38015303 0.15945029 0.58363724
0.09301121 0.07544497 0.74274457
-0.25131553 0.15880562 -0.74335474
0.27226105 -0.11042353 0.46799845
0.44742361 -0.10143318 -0.45059103
0.18265896 0.18251076 -0.16835281
0.03238660 -0.04747043 -0.73995656
0.31389266 -0.10310934 0.04869534
0.28923720 0.13040006 0.43334958
0.06336322 0.14586163 0.93544155
-0.07541422 0.02182428 -0.29750085
-0.20336461 -0.14163212 -0.75039411
0.24075070 -0.15437476 -0.13484129
-0.22891994 0.16171093 0.23315176
-0.29700476 0.09602031 0.10889461
-0.08153489 -0.16761689 -0.12672287
-0.17352314 0.08857004 0.35019735
-0.17579114 -0.06097300 -0.35547987
-0.19602212 0.18156743 -0.04255879
-0.39339086 0.02673650 0.78387904
-0.45471221 0.04648463 -0.40980032
-0.34198949 -0.00736861 0.07581061
0.15112858 -0.09997088 0.93996656
0.14125855 0.11719912 0.28837004
-0.21973652 0.04742357 0.56786644
0.21466562 0.06258609 0.62957758
-0.26158398 -0.14016588 0.64078736
-0.25884098 0.16501588 -0.22835842
-0.17175235 -0.14306477 0.21673810
0.01929197 0.00475780 -0.27964091
-0.03325450 -0.02128149 -0.27119765
0.46579987 0.07026643 -0.51746088
-0.36855584 -0.10629222 -0.72232610
0.37386647 -0.14755739 -0.64178902
-0.10600518 0.00182805 -0.97272009
-0.08790688 0.14297929 -0.77830082
0.22671831 -0.16599266 0.00798815
0.06496459 -0.16436973 -0.16274771
-0.00528625 -0.16001368 0.19116901
0.09028577 -0.04426756 0.73808604
-0.15121183 0.08234399 -0.32292140
-0.23168339 0.15153641 0.04816959
0.16541104 0.02325345 -0.33788732
0.46179742 0.10022221 0.55701655
0.36455661 0.15538874 -0.48324117
0.46699056 -0.09716314 -0.53878486
0.31633064 -0.14044845 -0.29062799
-0.14693508 0.18417804 0.13278563
-0.21631907 -0.14936970 0.16837925
0.26933932 -0.11320794 0.59652758
-0.28875288 -0.15720771 -0.29765713
0.41485962 -0.08370027 0.31903580
-0.22950983 0.07382662 -0.44124720
-0.19755057 -0.10780852 -0.34812012
-0.16679804 -0.12383441 0.28506669
0.38478267 0.01811591 0.82648671
0.18471849 -0.02472449 -0.65402538
0.36509499 0.13881873 0.72994119
-0.36394158 0.10345466 0.76824373
0.20258360 0.18097419 0.04303395
0.04395676 -0.17959048 -0.10117849
0.06058533 -0.20030910 -0.04109451
-0.31499630 -0.06822784 0.01728995
-0.16155912 0.05237249 -0.66679722
0.30474743 -0.15167537 -0.30805409
0.16657947 -0.02100606 -0.94466519
0.46885937 0.06296427 0.44718707
-0.31506303 0.08261586 0.12357944
0.10695621 -0.06021234 -0.28579846
0.07255632 0.16852371 0.84937835
0.13694793 0.07533671 -0.29892829
-0.43258399 0.10925061 0.52566445
0.37858635 -0.10533146 0.77160776
-0.37761801 0.12931325 0.37032884
0.20821124 -0.16017540 0.04198660
-0.45607308 -0.01550818 0.42720768
0.05592259 0.22169800 0.02201233
-0.03578795 0.15738943 -0.85008353
0.29904327 -0.15198804 0.70610803
0.32539177 0.16322833 -0.69340289
0.17183203 0.16009581 0.79276341
-0.30429620 0.15181649 -0.59085351
-0.17861238 0.19145900 0.10790341
0.10892586 -0.20499705 0.02146557
0.12986247 0.05989167 0.32440692
0.18732309 -0.13461293 -0.84347486
-0.32986593 -0.02892608 -0.00233868
0.17116548 -0.14521921 0.79893059
0.09021613 0.03792912 -0.70275885
0.24661721 -0.06869174 0.55958629
0.31093478 -0.10922243 -0.06037226
0.14122301 0.15654066 0.89771980
0.33475411 -0.11929347 -0.77166945
-0.10616019 -0.19288653 -0.06748388
0.16169849 0.19076991 0.09557010
-0.13147986 0.08623969 -0.93791825
-0.08307363 0.20983157 0.08381063
0.27324846 0.13217051 0.85320586
-0.22734484 -0.08585478 0.58361071
-0.13021237 -0.13405922 -0.84330225
-0.23342019 -0.09722848 0.89728761
0.12621784 0.01003951 -0.31843591
-0.05931004 0.12500826 0.25695211
-0.40334120 -0.06399411 0.31192425
-0.45635492 0.05439322 0.50142670
0.12412623 -0.03221315 -0.95840353
0.14341666 0.19068107 0.11852335
0.46854955 0.06559978 -0.49361762
0.32883683 0.15685172 -0.67393380
0.47795030 -0.05667773 0.54943001
-0.31226158 -0.10016091 -0.80012381
-0.15480748 0.01538909 -0.34792069
0.27761826 -0.11229457 -0.52457517
-0.24541432 -0.07121021 -0.89807272
-0.34015003 0.00247896 0.03544121
-0.15338975 0.18622740 0.14756681
-0.10134166 0.09390423 -0.72713101
0.03072740 0.04790207 -0.73309231
-0.27631357 0.13631862 0.58410764
0.10590427 -0.07750241 -0.73522353
0.39746308 -0.12453705 0.39045236
-0.29012305 0.15890709 0.63454825
0.12698291 -0.08911369 0.30027658
0.38630903 -0.13835113 -0.61636525
0.18804888 0.16419835 0.23348665
0.01185507 0.01828484 -0.72659689
-0.28360456 -0.14791524 -0.71384621
-0.15267143 -0.14379969 0.24651219
-0.27495882 -0.11244705 0.12239011
-0.22857538 0.15120596 -0.03617092
0.13702163 -0.11076599 -0.74105680
-0.17219329 -0.11837606 -0.29223049
-0.30811721 0.14784169 -0.43277171
-0.16029087 0.06052225 -0.94147015
0.09470983 0.19536808 -0.05683696
-0.34672937 -0.14239378 -0.50569302
0.43631595 0.11768302 0.46349472
0.31993264 -0.06263570 -0.85338068
0.02614460 -0.08093813 -0.25065005
0.06951173 -0.10580796 -0.75162029
-0.24855673 -0.10640965 0.45048854
-0.37789994 -0.06484661 0.23253541
0.43122643 0.13196860 0.54468334
-0.01059898 0.15771590 0.90698904
0.15564370 0.05098432 -0.68120456
-0.06226177 0.20453529 -0.10137288
-0.27803081 0.15601289 0.34540260
0.28820726 0.13679355 0.65004319
0.26116940 0.13123441 0.35362059
0.25264719 0.16551055 0.27238369
0.16930145 -0.12429841 -0.73377323
0.34872985 0.10430739 -0.79612446
-0.11026496 -0.00957231 -0.29561213
-0.15279807 0.14437717 0.89959270
-0.20831454 0.00586933 -0.43935502
0.20783958 -0.16313873 0.02170347
-0.22643332 0.06957172 0.52558511
0.19130373 0.13387516 0.89840549
-0.31903467 0.15916656 -0.51341057
-0.15049566 -0.17397788 -0.11946578
-0.42599624 0.09367527 0.63919342
-0.00189076 0.15842399 -0.85571408
0.42604196 0.13717958 0.45539737
0.12487574 0.02167641 -0.97870576
-0.33809501 0.02451756 0.07211905
-0.46963242 0.03192540 0.56331784
0.35632595 -0.14540319 -0.34525302
-0.07790488 -0.08028041 -0.72792578
-0.05470720 0.16665243 -0.85254186
-0.32490811 -0.14529388 0.64431202
-0.24702649 -0.09951258 -0.47566035
-0.46507442 0.05268361 0.51905334
-0.33913326 -0.12497066 0.77087748
-0.23225576 -0.13365285 -0.80764574
-0.35216179 0.15575449 0.61330789
0.26013675 0.09922741 -0.88033873
0.14794384 0.14158592 0.77262765
-0.26628995 0.12035538 0.03630650
-0.27925587 0.12315855 -0.14516309
0.25576878 -0.14731799 -0.77243644
0.03454282 -0.18787853 0.05166662
0.09176567 -0.14148700 -0.84606057
0.07326606 0.21336403 0.05696274
0.22687092 0.04387944 -0.58711123
-0.19835481 0.04095479 0.94746310
-0.21279807 0.02556849 -0.53546423
0.37422585 -0.05327319 0.18901573
-0.20990182 -0.12546036 0.70909625
-0.14634337 -0.08415011 0.31846029
0.22515351 0.02781942 -0.41518438
0.16709903 0.02951791 0.35828429
-0.30381826 -0.13891156 -0.39490351
0.21717811 -0.11597019 0.90144247
-0.03931851 -0.10466986 0.77852470
-0.38526380 -0.06669933 -0.74940747
-0.13009107 -0.08006492 0.96543622
0.10455472 -0.13384339 0.25369635
0.20267323 0.17373379 0.13442506
-0.36719531 0.11022052 0.30173543
-0.30266514 0.14250344 0.57239467
0.09435686 -0.03236425 0.30838886
0.18268281 -0.09216546 0.93719876
0.36797303 -0.08980971 -0.78486621
0.30056036 0.11082886 0.06356241
0.37105131 -0.09073155 0.23151256
-0.02706027 0.05498914 0.29132017
0.10615349 0.18716526 0.16006379
-0.36849177 -0.13250430 -0.42321080
-0.32610032 0.11819031 -0.18445167
0.22727928 -0.15977393 0.23662454
-0.43599197 0.02111867 0.69825977
0.23403880 0.04103776 -0.43909433
-0.13246560 -0.08912258 -0.30685210
-0.41711646 -0.11208881 -0.46920937
-0.36906075 0.09132593 -0.26965854
-0.10643528 0.16352181 0.88364273
-0.12025306 0.18297651 0.16784696
-0.19248623 -0.15569988 0.18518609
0.43823195 -0.02450011 -0.71564227
-0.25321844 -0.10512386 -0.49473992
-0.16452290 0.11743531 -0.28015599
-0.46552917 -0.01034353 -0.47242287
0.07873453 0.00039535 0.72594434
-0.33217800 0.16621462 -0.62653649
-0.45861730 0.06793392 -0.56188780
-0.02065200 -0.04085298 -0.97544134
-0.38257781 -0.12521717 0.38093942
-0.34105587 0.13173211 -0.73172426
-0.18285544 0.05575823 -0.62993222
0.40370747 0.14165087 0.41243660
0.09144347 -0.03963954 -0.72011209
0.28857887 0.12708928 -0.47261769
0.29770163 0.14007412 0.63627219
-0.06991477 0.17260373 -0.16580833
-0.06952028 0.07661525 -0.27496645
0.22728425 -0.09894571 0.37744018
-0.08627600 0.19409323 0.09146569
0.02035884 0.15201324 0.90744442
-0.31725499 -0.12120248 0.23257285
-0.07181449 -0.15299244 -0.85122943
0.25147724 0.16628523 0.79109037
0.05603970 0.17697234 0.17927647
-0.35044938 -0.13681869 -0.48931411
-0.32481202 -0.15393823 -0.66866624
-0.19340664 0.11653357 0.34822583
0.03396092 -0.13254175 -0.90079409
-0.22743288 0.08393390 -0.56152803
-0.30255675 0.15717022 0.77095491
-0.32301033 0.15810163 -0.55117375
0.02667464 -0.17432918 -0.13284391
0.29774517 -0.13945000 -0.22594547
0.04649721 -0.13325910 0.22771180
0.35214502 0.11952104 -0.77807873
0.38194790 0.11719443 -0.72601235
-0.07718777 -0.10722930 -0.92941064
0.28702274 0.12793475 -0.01112868
0.35130340 -0.11236905 -0.23708732
-0.37951645 0.09504656 -0.74225175
-0.12350081 -0.06093534 -0.95003062
-0.01475056 0.13228767 -0.22605094
0.07278590 -0.12918736 -0.78081858
-0.05343790 -0.10053091 0.26870659
-0.37054089 -0.05100000 0.21502694
0.23095751 -0.03586341 0.46279523
-0.46018472 0.04669260 0.51002604
-0.37885612 -0.06869320 -0.24608381
0.13898775 -0.13732903 0.78504509
0.26558134 -0.12255498 0.86414659
-0.02562562 -0.12052268 0.95119870
-0.16507114 0.12020209 -0.70915371
0.05563977 -0.05091532 0.98667020
0.28563493 0.02223593 0.91489536
-0.23060547 0.14696681 0.31689748
0.25399822 -0.09025313 0.59447002
0.16861650 -0.14087893 0.80879170
-0.46313375 0.02333822 0.47522026
0.05229367 -0.12422077 -0.21925382
-0.19352721 -0.02249535 -0.94062448
-0.01737809 -0.21716277 -0.00135043
0.16729952 -0.09070417 0.94122398
0.44921616 -0.09742738 -0.60900694
-0.31201485 -0.09198708 0.84883821
-0.25193456 -0.11831187 -0.52984208
0.40654269 0.14361869 0.49774295
0.47586963 -0.07379422 -0.46351087
0.06814784 -0.13500901 -0.92233723
-0.45408699 0.06738668 -0.60802907
0.20571911 0.13152020 0.32310501
-0.38647398 0.13794257 0.58671236
0.23419723 0.00534629 -0.45937297
0.36586648 -0.13848706 0.39986399
0.32438913 -0.08510185 -0.03274099
0.14072298 0.17874634 0.19098663
0.35674393 -0.14687274 -0.68770778
-0.00361947 0.15768988 0.83265126
-0.21229333 0.14480542 -0.27450857
0.41922364 0.04598537 0.29323196
0.05814703 -0.18968114 -0.03127590
0.28980872 0.11695123 0.44896865
-0.23111048 0.05152009 -0.91246682
0.46539089 -0.03867112 0.66572279
0.34238544 0.15793578 0.51693916
0.07481324 -0.18779176 -0.10015832
0.31733599 0.11697408 -0.82228744
0.02556808 -0.01325189 0.28916907
-0.42620391 -0.10312015 -0.55466974
0.15061885 0.13800740 0.27131087
-0.23115201 0.15519488 0.83701283
0.33488229 -0.14139763 -0.40378475
0.12646291 0.07503472 0.96916813
0.00927318 -0.02002667 -0.97661847
0.29629385 -0.14010096 0.68110055
-0.23600486 0.12885140 -0.84579843
-0.23122878 0.09079593 -0.58714056
-0.13097599 -0.14550203 0.89287961
-0.17448494 0.13827226 0.73705900
0.04057198 -0.06258440 -0.96669662
0.37211478 -0.15167908 -0.52437127
-0.33934751 -0.03241827 -0.07471366
-0.20229720 -0.03145161 0.43194598
0.48410112 0.04446150 0.53116804
0.40805325 -0.13274023 0.62479991
-0.22090892 0.15450376 -0.17345740
0.36616004 -0.02251508 -0.09558676
-0.45844480 -0.05939831 0.49648201
-0.00537598 0.21298741 -0.03782341
-0.27116373 -0.13299596 0.40414575
-0.42139065 -0.11344052 0.45778921
0.48695010 -0.00836487 -0.47659287
0.11855052 -0.07377070 0.74743646
-0.23865061 -0.11297052 -0.41528818
-0.33776250 0.13879089 -0.72051662
-0.16450146 0.18214813 -0.16317192
-0.14398593 -0.02034596 -0.66576880
-0.10813908 -0.11054397 -0.24199232
-0.10913893 0.19765025 -0.03786268
-0.12483302 0.17440140 0.17402679
0.16695967 -0.00898695 0.35152844
0.14375509 0.03873701 0.69602948
0.24206434 0.14726652 -0.28923598
0.34353942 -0.15352581 0.46320236
-0.10054419 0.08641241 -0.28749993
0.45546994 -0.02117158 -0.67874718
0.30431807 0.16389726 -0.63341904
0.31051251 0.03435474 -0.87807542
-0.04915759 -0.13398278 0.81067920
-0.21160616 0.15794991 0.25373590
-0.33971745 -0.05548462 0.14359324
0.07814590 -0.15983309 -0.14386629
-0.22411144 -0.14064698 0.82305920
-0.37105465 0.07856636 -0.25295487
0.12066988 -0.12812118 0.92761749
-0.11081827 -0.05799742 -0.30007714
-0.45803797 -0.05241355 0.59969801
0.06774374 -0.13656147 -0.79881293
-0.28696853 -0.13614286 -0.25641131
0.21625310 0.04165207 0.42101252
-0.15877181 0.16799879 0.20307356
-0.07793593 0.08756788 0.75328273
-0.39280617 0.10488560 -0.70460707
-0.21316047 0.16148478 -0.20774046
0.20863543 0.08277351 -0.36247554
0.14414892 -0.10697533 -0.92578536
-0.27700120 -0.12844841 0.48014262
-0.22241107 -0.07772692 0.44803882
-0.34222883 -0.09177848 -0.21058063
-0.34077978 -0.13460797 -0.34870079
-0.37984827 0.04105517 -0.78023911
-0.34284496 0.04692446 -0.83256584
-0.25236556 -0.13875288 -0.75826633
-0.15047991 0.07668450 0.33607781
0.18878232 -0.14079097 0.85293716
-0.27147350 -0.14175011 -0.15411939
0.24239616 0.02550980 -0.53454858
-0.14498973 0.07004623 -0.67649138
0.27132833 0.12820710 0.43701351
0.23773405 0.17144464 -0.09376089
-0.34187084 -0.13691877 -0.39455721
-0.25076213 0.16254792 -0.78118140
-0.44743031 0.08369695 -0.48279661
0.14187428 0.12073999 0.75857782
-0.16022299 -0.02156395 -0.34638831
0.33209023 0.08157714 -0.04304117
-0.26977700 0.14685713 -0.63323796
0.20945835 -0.00741321 -0.40682912
-0.19431610 0.08105183 0.94164586
-0.38500226 0.14231387 -0.67240149
0.10591925 -0.12730370 -0.22284023
0.33514595 -0.06219626 -0.02153061
-0.11505868 -0.14574483 -0.85769314
0.23263912 0.03371755 0.55281514
0.29206061 0.11424389 0.86327827
-0.13350189 -0.08406432 -0.93950802
0.17247550 -0.14315841 -0.21262138
0.27611861 0.07716356 0.90823311
0.48819339 -0.01928989 -0.49752370
0.40945914 -0.13070782 -0.40565979
0.29233050 0.15927479 0.32518005
-0.08245983 0.03580373 -0.97939926
-0.02000707 0.21795636 0.00553872
-0.21348603 0.06374723 -0.41876289
0.06817224 -0.12126341 -0.76869851
-0.29190889 -0.14434138 -0.66998500
-0.23198913 0.12483007 0.38463521
-0.02054282 -0.14097337 0.82249951
0.13824134 -0.11861834 0.76447141
-0.00431196 0.18485320 0.16872399
0.18136248 -0.17316675 0.13048041
-0.19565102 0.01808855 0.42361751
-0.34216058 -0.10809794 -0.23844217
-0.06179999 0.14511022 -0.80542189
0.46962541 0.05290157 -0.63537544
-0.06724007 0.08874277 -0.73682618
-0.41319823 -0.03980416 -0.30490211
0.31464252 -0.14316672 -0.35984504
0.17931144 -0.12906019 0.91128969
-0.04245688 0.14933762 -0.80291134
-0.00339370 0.16332155 0.86236119
-0.44735068 0.10090930 -0.53106201
0.03466740 -0.02361554 -0.98113388
0.22701178 -0.12151299 -0.68453431
-0.33654249 0.05689039 0.85582250
-0.11322030 -0.14807834 0.87023109
-0.23874760 0.08117143 -0.89618653
0.04983583 -0.19967267 0.02092242
-0.25856239 -0.11157151 0.45638180
0.30003327 -0.14239524 -0.78862214
-0.22735167 0.15339899 0.00480533
-0.39182657 0.14468770 -0.45109934
-0.31647140 0.07038768 0.07757615
-0.07680571 0.14942376 0.91232485
0.20973335 0.13824676 -0.73218709
0.19440372 -0.03192643 0.65767449
-0.02939978 -0.19907686 0.09401514
-0.14588960 0.19471513 0.01538176
-0.21165675 -0.15299295 -0.05616073
0.13098079 -0.04752000 -0.95222026
-0.18186358 -0.16842149 -0.02451916
-0.17397769 -0.15041031 0.17139095
0.43866813 -0.00732918 -0.72097665
-0.26749820 0.15504093 -0.68091160
-0.16836169 0.11838958 -0.90241367
-0.24562567 -0.11446936 -0.63380474
-0.25180101 0.11241850 -0.48788199
0.21848534 0.02458125 -0.93460363
-0.18574752 -0.08094414 -0.92233354
0.26517120 0.12583387 -0.39452106
-0.11079318 0.12562023 -0.90991390
-0.21403399 0.04626891 -0.55673665
-0.04556382 0.20295304 -0.01180074
-0.23778191 0.15298618 0.12894191
-0.39467594 -0.14301409 0.50491047
-0.33078039 -0.13877591 0.66757607
-0.08488716 0.07671112 0.30827069
0.48516932 -0.00253583 0.48591170
-0.46827629 -0.04931903 0.55649787
0.46059975 -0.05014785 -0.64302611
0.42992708 -0.05247397 0.73994011
0.40414017 0.15399195 0.56715000
-0.42058533 -0.10907786 0.58523875
-0.31896013 -0.10020024 0.15693037
-0.22456942 0.10866679 -0.61880201
0.07975388 -0.20166095 0.02668200
-0.42254621 0.00469687 -0.73259270
-0.39806610 0.02632109 -0.76814139
-0.29836044 0.15168054 -0.73117727
0.10698988 0.15997593 0.83039176
-0.36902702 0.14908253 0.60624903
-0.44152081 0.09252422 -0.58581197
-0.22072713 -0.15649879 0.19160868
-0.33103564 0.15129724 0.46144140
0.47656271 -0.06180902 -0.48280627
-0.25905007 0.15411575 0.32634383
-0.14965467 -0.04297367 0.35336211
-0.13410091 0.14180024 0.89703733
0.06511035 0.04812693 0.30082244
0.43807772 0.03037963 -0.32071361
-0.01391711 0.07213853 0.28432900
0.33630666 -0.11199056 0.23974547
-0.11843476 -0.02777619 0.98865104
0.29996246 0.10730109 -0.83983111
-0.34940863 0.15001862 -0.68847054
-0.20668501 -0.04335250 0.60266322
0.08058417 0.17726515 0.17147362
-0.11123443 -0.10243279 0.75539136
0.48527029 -0.00657504 0.62989599
-0.42112693 -0.02790444 0.72729766
-0.44671360 0.07160953 0.58209884
0.33261102 -0.13203646 -0.76949614
-0.23298177 0.16567843 -0.78649420
0.13807318 -0.12541208 -0.24441957
0.10633491 0.09298205 0.27880532
-0.22765656 0.06836104 -0.54610384
0.16790663 0.08734451 0.33056957
-0.22046159 0.16918497 -0.19653325
-0.30586529 0.16119100 0.34631145
0.15007085 0.19593257 0.06123333
0.42563039 0.11301564 -0.37226209
0.40087959 -0.01202135 -0.79610890
-0.17611407 0.02254823 0.38521317
0.04099910 -0.18223101 -0.11576334
0.28878707 0.04451420 0.90282488
-0.37371507 0.09802658 -0.75111723
0.40033910 0.13475785 -0.66475517
0.25283471 0.16964500 -0.25090054
-0.29562077 0.08443870 0.08247313
-0.25153059 0.11123414 -0.52673227
0.03441260 0.19085887 0.10042582
0.14826700 -0.12769878 -0.23252143
-0.00816749 0.00911294 -0.72888935
0.41366512 -0.13828978 -0.44794005
0.12493496 -0.07103712 0.73087764
-0.46950215 0.00287276 -0.50287372
-0.20734063 -0.13280387 -0.70194435
0.01113935 -0.13390344 -0.92977512
-0.06350566 0.17705967 0.18532801
-0.38587636 0.07514656 -0.26398885
0.31719270 -0.11625026 -0.12968829
-0.36362299 -0.12227387 0.31587613
-0.33372298 0.15609835 -0.63865793
0.04233497 0.21385747 -0.01902684
-0.42112416 0.04727916 -0.69676518
0.20926441 -0.17447786 -0.00517595
-0.26256588 -0.11727173 0.04703580
-0.08731277 0.11145554 -0.93818641
-0.21403675 -0.11677546 0.34989530
0.23963405 -0.16676979 0.10108557
-0.13755061 0.06747127 -0.69407141
-0.36375573 0.13478331 0.71766931
-0.32811132 -0.02308079 -0.03205299
-0.07984984 0.10473958 0.75662374
-0.31194821 0.15297242 0.78225434
0.33843037 -0.12497693 -0.22365075
0.16011576 0.01715873 -0.95597577
-0.03042227 -0.19603647 -0.02177988
0.39848650 -0.07439160 -0.25445741
-0.23274983 -0.14580752 0.03284171
0.05797887 -0.10785230 -0.76395613
0.43550467 -0.11591183 0.59612900
-0.19887765 -0.01094181 -0.58872050
-0.34964034 -0.02999920 -0.82061833
0.10898632 -0.10526343 -0.74976254
-0.15435475 -0.13800845 -0.82042968
-0.36298713 0.15407336 -0.63852793
-0.34257653 0.04000132 0.09623578
-0.24731418 -0.14204419 -0.68567729
-0.03675346 -0.19660473 0.08360093
-0.33049223 -0.14738186 -0.56102484
0.34069011 0.05046431 0.02477499
-0.01512071 -0.13060091 -0.89631629
-0.09787692 -0.14225392 0.22331688
-0.10132851 0.05986323 -0.70785242
0.19386192 0.05382187 -0.37698999
-0.13423325 -0.17796816 -0.12032823
0.44063342 0.03424609 0.33086860
0.38723764 -0.11376110 0.30943355
0.03183663 -0.21213612 -0.02753073
-0.19504263 0.04385248 0.61783069
0.00774620 0.13302952 -0.93470150
-0.07938793 0.19305895 0.14720860
-0.25557685 0.14377117 0.16806845
0.15018824 0.15487853 0.80251944
0.04101076 0.18703304 -0.15416323
0.11188914 -0.04117010 -0.69822830
0.48780090 -0.01541306 0.55723321
-0.16184261 -0.16434170 0.18627627
-0.26198822 -0.06868675 -0.88239110
-0.02129699 0.20922329 -0.03700302
-0.18088059 0.00926952 0.40667081
-0.21168134 -0.15281630 0.79321074
0.35270166 -0.11940265 -0.24865890
-0.06509251 -0.01711768 0.30663708
-0.16895626 -0.02090408 -0.36859664
0.16179442 0.18237676 0.15961555
0.00199340 -0.21556512 -0.00733011
-0.05071436 0.07039120 -0.73394299
-0.22015038 0.01774656 0.54283178
0.29315269 0.11594667 -0.47933963
0.05250070 0.08684018 0.97937709
0.24797495 -0.07953322 0.91625953
-0.21009338 0.16141279 0.01048673
0.03986189 -0.18898651 -0.10507555
0.26816696 -0.15296686 0.16534166
-0.00937570 -0.06934533 0.76732576
0.18837771 -0.15424417 -0.18395565
0.22679013 -0.15537964 0.01342210
-0.39489076 0.14326870 -0.65655488
0.32738414 0.14440833 0.61216754
-0.17765035 0.17609654 -0.14311057
-0.10872760 0.16466874 0.22123241
-0.32128119 -0.13596885 0.34025609
0.03272782 -0.07572275 0.76044089
0.27975696 0.12847422 -0.60274804
0.22060499 0.13265233 -0.87808186
-0.17839514 -0.14202236 -0.74982870
0.37819123 0.02750304 -0.13387649
-0.29957327 0.13591754 0.81281209
0.30479023 0.10583824 -0.84994406
-0.29312065 0.08399606 -0.85514271
0.29689151 0.13820936 -0.59994286
0.47575060 0.06464017 0.58178651
-0.14803718 0.10393802 -0.92088515
0.12076549 -0.08939375 -0.73586226
0.26398578 0.08577151 0.53687662
-0.44811472 -0.04598111 0.43609780
0.31236631 0.00296415 0.89935094
-0.22502682 0.18035327 0.21678419
-0.16765572 -0.11183166 0.92104203
0.08278804 -0.02087637 -0.71585590
0.11857153 0.06588940 0.72530520
0.45232329 0.10159355 -0.56062853
0.41465273 -0.12667404 0.64064944
0.43635020 -0.06594791 0.70547402
-0.41891488 0.04918474 -0.32325736
-0.08388665 -0.17057684 0.16485232
0.44890493 0.07171910 -0.67175138
0.20876059 0.15521266 0.23723710
-0.28012675 0.10977168 0.06062969
-0.18139254 0.00639533 -0.62399381
-0.26955116 0.14826654 -0.78788638
-0.01908520 0.16254312 0.88109964
-0.30816928 -0.13538602 -0.30798295
0.21838218 0.17298487 -0.05808593
-0.29419383 -0.13911699 0.60985422
0.12728567 -0.14962211 -0.80670786
0.28279948 0.11415052 -0.43189552
-0.19654427 0.04779535 -0.93666899
-0.03018029 0.16035089 0.19416216
-0.00498667 0.11693505 -0.93392122
0.35186708 0.02650156 -0.01043816
-0.18607956 0.06470101 0.95188957
-0.34557426 -0.10370852 0.24973661
0.35250211 -0.13446648 0.73616451
0.41074312 -0.10942139 -0.34840041
0.21800444 -0.02663575 -0.92599303
-0.18607575 0.17999378 -0.07790884
0.35817081 -0.01800951 -0.84428710
0.17273240 -0.11234558 -0.27736366
0.38422656 0.11404634 -0.27082941
0.30713931 -0.11093795 0.09696794
0.42896804 -0.12011639 0.47817272
-0.33529004 0.07609186 0.15612867
0.21413165 -0.17205004 0.14451525
-0.35638648 -0.03126778 -0.12777983
-0.23609994 -0.14997408 -0.11543676
-0.27188528 0.14931509 -0.10798490
-0.10783392 0.19096926 0.00814672
0.31266695 0.13766252 0.51551610
0.27249333 -0.15200907 0.75401151
0.42977473 -0.12831056 -0.47353268
-0.34416655 0.16497064 -0.46846154
-0.31373388 0.12443622 0.83321905
0.18914177 0.18195568 -0.05030494
-0.24331321 -0.09667695 0.55323720
-0.12777175 -0.11817268 -0.91976529
-0.27398318 -0.13516501 0.82357150
-0.10695635 0.15204500 -0.86140943
0.18584009 -0.13259350 0.90153158
0.24304287 -0.08585571 0.43225902
0.22255328 0.14748150 0.85852158
0.26025617 0.11507520 0.38941842
0.30647513 -0.13690163 0.49756038
0.33035564 0.08424468 0.00542519
-0.34937400 -0.13076249 0.32009614
0.19713731 -0.06760734 0.35812631
0.27686471 0.09922357 0.89030665
0.07189612 -0.14223193 0.91854721
0.04705571 -0.14750214 0.20256796
0.05796315 -0.09041598 0.97364247
0.37513247 0.13819945 0.71912831
-0.17029946 -0.04061107 0.66937357
0.21928312 -0.06341939 -0.62871480
0.13691692 -0.13802966 -0.87787211
0.46145365 0.02682971 0.68576849
0.35039404 0.02879718 0.05944487
0.06089668 -0.15379603 0.88367516
-0.08525173 0.20811456 0.00034945
-0.09263629 -0.11486571 -0.92113978
-0.22872883 0.13217248 0.36494938
-0.03422189 -0.08143063 -0.74291140
-0.09660965 -0.13030054 0.91105908
-0.37166834 -0.13683274 0.51511216
-0.23144293 -0.13875784 -0.03580412
0.43481159 0.04101315 -0.71904433
0.21956633 -0.12773038 -0.87914824
0.18499129 -0.12560101 -0.74894035
-0.19906822 -0.05264154 0.62072247
-0.05811778 0.15945342 0.19373077
0.30438727 0.14093252 0.17108312
-0.29608762 -0.14436829 0.69405150
-0.11423104 -0.10346805 0.29212034
-0.17754734 0.06035057 -0.92964458
-0.34219405 0.03561087 0.85919785
-0.44809046 -0.08215728 0.60935783
-0.36263734 0.09326053 -0.77736568
-0.22337632 -0.12829289 -0.30993864
0.23551296 0.05010688 -0.56991303
0.01193278 -0.16672128 -0.17648561
-0.23651220 0.14915985 -0.11257228
-0.36647972 -0.08313320 0.24703375
-0.19834274 0.15720308 0.81944036
0.17892563 0.00365462 0.37528777
0.21824688 -0.05863174 -0.40216920
0.23753165 -0.02848565 0.53103846
0.14244553 0.02808898 -0.97377259
-0.41540158 -0.11890113 -0.55357671
-0.27937996 0.06398050 0.89554006
0.22972511 -0.10640818 0.36158147
-0.23603581 0.11505343 -0.39602259
0.10435852 0.04428907 -0.70415312
-0.42617041 -0.09658877 -0.52856034
0.26632932 0.10176536 0.47471192
0.32703394 -0.09429258 -0.07076140
0.33159915 0.08673294 0.85835892
-0.44321939 0.09845036 -0.54358870
0.12707150 0.05545838 0.70881486
-0.41077620 0.07495065 0.71130198
-0.24995723 0.13517626 -0.07373323
0.44435018 -0.05311866 -0.70758724
0.28079727 0.12646157 0.87589240
0.42471892 0.04974359 -0.30256534
0.21439333 0.14589936 0.29834157
0.00876522 0.15393782 0.91127765
-0.42955291 -0.08970855 0.63103735
-0.22147892 -0.04612811 -0.51102352
0.36999592 0.11629244 -0.77204788
0.42655152 -0.04415411 -0.74539733
0.23006541 -0.07113434 -0.61038464
-0.01513100 -0.03552711 0.75068408
0.32023269 -0.13590470 -0.48734885
0.16696090 -0.02665530 -0.66894865
-0.11645160 0.06189967 -0.69393677
-0.38106996 0.14330964 -0.41715419
0.29645735 -0.12312610 0.01397573
0.02594161 0.14853248 0.22687936
-0.24134111 -0.14018911 0.22467914
-0.43705326 -0.00593894 -0.36883846
0.24401267 0.07861440 -0.40142271
-0.00321162 -0.15608869 -0.87039292
-0.08521868 0.19141647 0.10432430
0.07680858 -0.04118942 -0.27309710
-0.24519719 0.15043382 0.35846049
-0.08003648 -0.20348562 -0.03613967
0.19696683 0.13989973 -0.85172474
0.31745926 -0.14427815 -0.24373177
-0.03459619 0.15173763 -0.19477321
0.15136573 0.15917812 0.86868876
-0.28705272 0.14889070 0.60241699
-0.33820072 0.14754783 -0.71268630
0.22083353 0.08046292 -0.38390619
-0.24116854 -0.11660765 -0.84321266
0.03936309 0.19863500 -0.12636781
0.12112682 0.04358274 0.98482454
0.24633579 -0.15641098 0.00620256
-0.38864422 -0.13502617 -0.54520559
0.17941906 -0.16650473 0.15946953
-0.14227824 -0.06256784 0.71073359
0.39284489 0.14449562 -0.41892192
0.06295506 0.20201421 -0.07237884
-0.25431129 -0.14603412 0.79084069
0.00964901 -0.15901355 -0.15823941
-0.43274757 0.08590543 0.44986677
0.36166489 0.14050773 -0.31227133
0.36110386 0.01105128 0.84735137
-0.12829226 -0.15777908 -0.19284767
-0.06598575 -0.01345548 -0.28715625
0.05193958 0.11439769 -0.94244665
-0.04385500 -0.17955430 0.13540879
0.21037944 -0.15512779 -0.10267904
-0.21504754 -0.01568960 0.50904417
0.13336258 -0.00962841 -0.32511324
-0.21025150 0.03314560 0.46476713
-0.32508469 -0.06039922 -0.83501518
-0.19528185 0.15702184 0.28215021
-0.26268095 -0.14781311 -0.27268222
-0.36746049 -0.14049554 -0.49262923
-0.44365537 0.10218770 -0.47052041
-0.18753630 -0.10346497 -0.68113416
0.06414290 0.09388699 -0.26404056
0.37476271 -0.10904922 -0.25668162
0.20207898 -0.06657580 -0.34907067
0.39163062 0.09602015 -0.25851536
0.13967599 0.16078952 -0.19957592
-0.04951620 0.13770632 -0.21800660
-0.23972569 -0.07837255 -0.88935697
-0.18051550 -0.14578456 -0.21099845
0.18449746 -0.04490936 -0.36186314
-0.21265535 0.00273998 -0.49841991
0.38560605 -0.09036479 -0.25160390
0.08990359 0.13618436 0.92929459
-0.19099711 0.05233534 0.63944632
0.08332951 0.18744679 -0.10476454
-0.32698321 -0.15096113 -0.57206863
-0.16396844 -0.11763186 0.90621728
-0.33140445 -0.14420997 -0.49790666
0.21280389 -0.07069204 0.66730219
0.26732746 0.11958411 0.61331028
0.45173410 -0.07858388 0.64665765
0.34712419 -0.13847648 0.50301605
-0.45246473 -0.06566761 -0.57522649
0.17374328 0.02493361 0.66855019
-0.32992831 -0.11358373 0.24297239
-0.38618338 -0.13491273 0.59258485
0.01535958 -0.13733827 0.89098233
-0.11615450 0.07106321 -0.30099764
-0.39476675 0.11046281 0.38271287
-0.07501575 -0.20569386 0.01356767
-0.20450824 0.02318846 0.46217817
0.34713602 0.15040886 -0.34882811
-0.15980260 -0.15573731 0.13741980
-0.07390580 0.19080056 0.16812341
-0.19950296 0.16920120 -0.05764174
0.22027522 0.18045984 -0.10990331
0.35621494 0.13229808 -0.27780163
-0.09644131 -0.18549539 0.03436286
-0.11127443 -0.05181054 0.32381991
0.43828556 -0.11813448 -0.50735170
0.29184288 -0.12510821 -0.57154512
-0.10399537 0.03433631 -0.70151764
-0.36709994 -0.09407838 0.27740583
-0.44843778 0.03542687 -0.64858836
0.10211895 -0.14651173 0.85038882
0.36713499 0.10695384 -0.23035635
0.28748918 -0.13491008 -0.09612457
-0.28938070 0.13443732 -0.50812358
-0.00416295 0.09028527 -0.95601517
0.15076825 -0.15793303 0.21177725
0.11893736 0.10803293 -0.75713009
-0.44415522 0.08443933 -0.40556115
-0.13548666 0.18190823 -0.09394367
0.26793018 0.15562069 0.82278037
0.09783100 -0.07623390 -0.95380247
0.31888154 0.15495251 -0.71851915
-0.33540893 0.16047737 0.35311648
0.46537107 0.06931464 -0.61651754
0.39707488 0.11355374 -0.30065513
-0.34612632 -0.03161788 0.13736629
-0.27659336 -0.13142714 -0.14467849
0.34718788 0.09048905 -0.14613739
-0.43329254 0.12058619 -0.48445934
-0.07450910 0.20109068 0.01090342
-0.23843637 -0.12966362 0.72585857
0.44850516 -0.04335786 0.34900829
0.00181369 -0.00449281 1.00241542
-0.09968757 0.13121267 0.78532493
0.27949747 0.14229041 -0.64598912
-0.36702067 0.00448303 -0.15127645
0.38955888 -0.13678195 0.70598465
0.17095152 0.05241788 0.67726636
-0.32955745 0.13551247 0.28944507
0.33310434 0.16050705 0.49228898
0.26852220 -0.13839249 -0.12924641
-0.12571885 0.20502099 -0.05703292
0.15840499 -0.15000206 0.87615120
0.23417352 -0.01112836 0.48396754
0.10432803 0.15589382 -0.82995963
-0.21217802 -0.00766854 0.49896419
0.17024226 -0.18468553 0.10566133
-0.13315631 0.16019966 0.23398247
0.36257672 0.11850656 0.78319138
0.35052904 0.06398574 -0.09408848
0.39419541 -0.12996164 0.56278878
0.30182445 0.13432752 -0.52437764
-0.30481198 -0.12941729 0.77384609
0.21875753 -0.17284958 0.18313980
0.36649093 -0.11096633 0.27635938
0.10341366 -0.11831396 0.93413192
0.27421841 -0.13421021 -0.09284201
-0.32347730 -0.11897248 -0.26083529
-0.42186219 0.04289802 0.34657750
0.37043157 0.15800168 -0.46262705
0.06668103 -0.14166935 0.83877134
-0.12132847 -0.11215172 0.76142603
-0.35181275 -0.10984367 0.76582271
-0.38562822 -0.08966962 -0.74356008
-0.41905963 0.02816085 -0.29753065
-0.42637658 0.04103932 -0.68779004
0.26515979 0.14632636 0.83644390
0.15812957 0.14457728 0.89962226
0.02043116 -0.03715102 -0.27086484
0.23653030 0.05575943 0.57744229
-0.42103079 -0.07132480 0.37213612
-0.16508400 0.18755627 -0.07696974
0.42972150 0.10790096 -0.63382924
0.41027889 -0.07878320 -0.28656021
0.42956182 -0.00524152 -0.26852447
0.08919049 -0.11109085 0.77634311
0.18652712 -0.01208488 0.66318893
0.39662531 -0.14615542 -0.59721279
-0.03408203 0.21482038 -0.07369646
-0.18851542 0.01339941 -0.94688934
-0.34533462 0.15448672 0.59890282
0.22041856 0.05755410 0.40142545
-0.41250953 -0.02069327 -0.74448687
0.14807527 -0.06030561 0.31772438
-0.35675082 0.10410064 0.25225049
-0.33394721 0.09196649 -0.14637791
-0.32377890 0.14743495 -0.32265139
-0.29680213 -0.14249253 -0.53095484
-0.05850513 0.20829731 0.05240468
0.30083829 -0.12704441 0.56410038
-0.28445452 0.15920274 0.24790250
-0.26926637 0.16483703 0.27840036
-0.38114196 0.01541801 -0.79233825
0.38099360 -0.11324906 0.75551879
-0.32872692 0.14208658 0.30792794
-0.21801116 -0.14374360 0.80626297
-0.24822205 0.13493961 0.63597119
0.10272750 0.16066504 -0.84992325
-0.14355071 0.13374536 -0.74532998
0.33823627 0.15996034 -0.38356933
-0.26519731 0.14628531 -0.15320112
0.26077577 0.02893788 -0.92335898
0.22458850 -0.05864294 0.93698150
0.30650213 0.11533256 0.08289924
-0.36601508 0.15011922 0.56688827
-0.39090177 -0.12961200 0.60576022
-0.42001289 0.11567643 0.60138887
-0.11862724 0.10009941 -0.72637039
0.43688309 -0.01624648 0.73966622
0.37680739 0.07481248 0.21736854
0.21559688 0.16495693 0.03987217
-0.40668917 -0.09252533 -0.69241977
0.34449539 0.11832279 -0.19885081
0.41022506 0.12237935 -0.35893559
0.00964375 -0.18557970 -0.05049802
0.23838323 -0.02294783 -0.91958344
0.35542998 -0.14188869 0.33388275
-0.30568713 0.08389506 -0.12608962
-0.31847179 0.09329040 0.14886096
-0.17636466 0.18356448 -0.02686263
-0.45049986 0.04745227 -0.61780757
-0.30882192 0.04485391 0.87835550
-0.35450894 -0.02298396 -0.10834656
-0.34250325 -0.14678574 0.55192292
0.18324469 -0.17511998 0.17426516
0.20947829 -0.13267373 0.73284364
-0.38239035 -0.13938823 -0.57319528
0.39625025 0.01674536 -0.18779124
-0.31460688 -0.13901822 0.74353665
0.25879389 -0.11807934 0.37218717
0.23188663 -0.07414890 0.42027038
0.12226734 -0.02272505 -0.96619838
-0.01708285 0.15117431 -0.87188190
0.32370105 0.14821115 0.53506815
-0.11585871 -0.18427794 -0.13296795
0.18466944 0.13320929 0.30235699
0.27083042 0.11461424 -0.41908181
0.28350928 -0.14669038 0.78622317
0.21474881 0.16458721 0.22547589
-0.15172090 -0.10224506 -0.90445179
0.12968597 -0.18598925 0.07814481
-0.06939027 0.16975516 -0.18617141
0.19711316 -0.10284892 0.69758928
0.20652570 0.15767808 0.85272855
-0.42247823 -0.04997142 0.34106687
-0.33209020 0.14588463 0.74794632
-0.10683895 0.10234659 -0.94071579
0.06389420 -0.12267192 -0.23387343
-0.21035002 0.12508605 -0.66927856
-0.25549367 -0.14617081 -0.17320409
-0.29764599 0.15084378 -0.75932527
0.32494971 0.15477072 0.73696786
-0.24975947 0.15294385 0.21658386
0.01990580 -0.17916000 -0.09481193
0.24042815 -0.13428977 0.84340614
0.20268704 0.05842529 -0.93619114
0.31287900 0.12384113 -0.13080542
0.19424441 0.09487828 -0.33500555
-0.18846284 0.07678151 0.39055529
0.15166046 0.02701770 0.98525310
-0.21464227 -0.10527468 -0.88280427
0.23544441 -0.10694392 -0.35205263
-0.39953500 0.06762284 0.75860524
-0.05961376 0.08760924 0.98469400
-0.12725852 -0.14098790 0.23877318
0.38564798 0.02165728 -0.80347437
-0.30684373 0.15793934 0.73819780
0.25781149 0.16608444 -0.13925040
-0.13054612 -0.11576696 -0.75257641
0.43868116 0.11446353 0.42496479
-0.24563333 0.13663553 -0.05224082
-0.12811571 0.15949944 0.83794212
-0.27715248 -0.13721333 0.23237197
0.29247829 0.15159728 0.60540104
-0.24211371 -0.14038318 0.02584765
-0.08690666 -0.20040125 0.01124973
-0.17892317 -0.06955527 0.36977017
0.32130209 0.11130865 -0.12240314
-0.41138652 0.11771392 0.41965556
-0.09076583 -0.11440245 0.77251792
-0.29060167 0.14439549 -0.41454738
0.43465403 0.12475347 -0.54974717
0.45458493 -0.06782306 -0.65719223
0.26388890 0.14271499 0.71282417
0.05418912 -0.17754185 0.13862404
-0.39931253 0.12066074 0.41990617
0.25991184 -0.14931597 -0.00623040
0.08623643 0.21770503 0.04820943
0.24962212 -0.04357286 -0.90998232
0.36418828 0.05309485 0.15839159
-0.21263508 -0.08379053 0.40534657
0.29367575 -0.13315557 0.80745077
0.17694703 0.19146439 0.10090282
-0.18561056 0.16314486 0.09983139
0.08060245 0.04554699 -0.28527522
-0.12904745 -0.12160356 -0.24730434
0.33641338 0.07969510 0.11196345
0.20737812 0.16602965 -0.19930832
0.04221790 0.17349653 0.18406387
0.21417668 -0.15657017 -0.20699367
0.44647259 -0.09414727 -0.64792901
-0.39339182 -0.12534897 0.40516880
0.13901445 0.15448239 0.24037790
0.13469294 0.14263071 -0.89291400
-0.30976176 0.16377687 -0.69501895
-0.03473225 0.16701885 -0.86869901
-0.24749900 -0.06892454 0.91756964
-0.40507063 0.14039506 -0.49718845
-0.41736552 0.00422322 0.75855947
-0.07728836 0.19705465 -0.07732115
0.39818093 -0.14438723 -0.63371801
0.01474426 0.13636425 -0.91889173
-0.31853440 0.13633189 -0.25933695
0.30393219 -0.15340076 -0.71065855
-0.05259363 0.10304328 -0.25021136
-0.18011197 -0.08570142 0.35610431
0.17989174 0.19038086 0.07962403
0.01346356 -0.15768430 0.86855179
-0.20237136 -0.07821294 -0.62790066
-0.11489163 -0.15133262 0.22080643
0.36664444 -0.11278518 -0.77044863
-0.17386709 -0.10830034 -0.31919774
0.00091662 -0.04280950 -0.97722268
-0.12207628 0.08229968 0.97384351
0.11020410 -0.14714603 0.86427188
0.04460706 0.20869319 0.10400799
0.11576453 0.08322959 -0.28211835
0.23610985 -0.14669923 0.84351051
-0.07735259 0.04948634 -0.71730918
-0.22295284 -0.09265069 -0.60829973
0.39025205 -0.07333433 -0.23831266
-0.34312972 0.09238824 -0.20197280
-0.36367202 0.14985225 -0.59440506
0.22649574 -0.03895281 0.95129514
0.22839668 -0.04345455 0.59184039
0.44040468 -0.11691600 0.51809412
-0.24551508 -0.13974290 -0.74244022
0.14897244 0.11769156 0.26987821
0.21598658 0.15627940 0.84014487
-0.34412026 -0.15109995 0.46021572
0.04943509 0.16325781 -0.19530579
0.19883654 0.13315229 0.73382574
-0.04394585 -0.11432119 -0.92263585
-0.40298787 -0.03310394 0.29325381
0.09261341 0.08750381 0.75169039
0.24659444 -0.14993541 0.79470456
-0.19113320 -0.08754514 -0.65499145
-0.29000887 0.14187568 0.49434119
0.44898129 -0.09934319 0.53586364
0.17492291 0.09134145 0.33831829
0.19796675 0.15183797 -0.87188846
0.29527405 0.15991797 -0.29076827
-0.26103246 0.14888249 0.39479661
-0.29196611 -0.03578730 0.89935100
-0.11406022 0.12618387 -0.25999662
-0.17667243 -0.11168881 -0.89206284
0.12982099 -0.01875218 0.32612780
0.31199020 0.05369489 0.88711339
0.39562234 -0.14338201 0.58376920
0.14059980 -0.11009078 0.75083905
0.04746494 -0.06970157 0.76106101
-0.35464418 0.13034834 -0.72297591
0.42048061 -0.12606478 0.56217903
-0.11524981 -0.06187260 0.96922690
0.42648202 -0.01871421 -0.74486005
0.48672804 0.00321624 -0.48600498
0.11999943 -0.10094342 0.28213057
-0.23544295 -0.14868273 -0.06248394
-0.17874706 0.18235496 0.10144538
0.41166309 -0.11084808 -0.69911361
-0.31793854 0.15400068 -0.48958531
-0.17178598 0.14456955 0.89711398
0.30212384 -0.12914823 -0.40569615
0.08971692 -0.07940961 -0.27329409
-0.32215858 -0.15068460 -0.45728895
-0.43551680 -0.09122557 0.46599960
-0.01420656 -0.09112338 -0.24803972
-0.31485137 0.07623387 -0.04726818
0.27260605 -0.08595640 -0.87533712
0.36066872 0.04684445 0.85455722
-0.22795077 -0.04658400 0.93640924
0.20413040 0.11156609 0.92030454
0.38248396 0.12901333 0.72747350
0.28065339 0.14379668 -0.05850683
-0.35875553 0.04745307 0.82390362
0.49517462 0.00090572 0.54834771
0.47890681 -0.01674544 0.62521178
0.36600539 -0.08675281 -0.77468950
0.05150167 -0.01836664 0.73935735
-0.14950240 0.12993379 -0.89685017
-0.07293530 0.14229204 -0.92006719
0.29891890 0.15671401 0.61753118
-0.25976437 0.07224737 -0.89493281
-0.20808356 0.18085998 0.05488071
-0.16295858 -0.17229313 0.02297934
-0.35613948 -0.02789232 0.15788616
-0.24669202 -0.12274335 0.67447931
0.44050342 -0.00525917 0.73676592
-0.14949441 -0.04641161 0.34244472
-0.35582379 -0.09084991 -0.23412883
-0.46578968 -0.02310255 -0.56719810
0.47920528 0.04093212 0.46393627
-0.33913118 -0.15460832 -0.60126585
-0.43579096 0.04584131 0.37939456
-0.00759722 -0.07738439 0.98139375
0.12177687 -0.10056417 -0.25060779
-0.27316132 0.12230527 0.10309323
-0.44484854 -0.04776416 0.41739264
0.17815715 -0.17489414 -0.06985285
0.29369092 -0.14161818 0.15328634
0.14479898 0.10506481 0.29376048
-0.05466315 0.10264281 -0.74466217
-0.20826046 -0.12083888 0.32134077
0.38943669 0.14689204 -0.45953223
0.01493622 -0.18585594 0.13274181
-0.25430179 -0.13192999 0.69228417
0.21455199 -0.00942466 0.60060525
-0.31443885 0.06637993 0.03946298
-0.27637216 0.13294446 -0.17281593
-0.24118222 -0.12243468 0.37770158
-0.29288703 0.16423692 0.30369258
0.12832825 -0.13446644 -0.89372396
0.16677813 0.14640258 -0.77737421
-0.16166170 -0.13553257 0.87616897
-0.24962980 -0.12343921 0.04115243
-0.01936251 -0.18725419 -0.10368232
-0.07601975 0.16432062 -0.19415723
-0.37035000 -0.14046399 0.46498561
-0.12069970 -0.14983165 0.84117633
0.19402760 -0.10736081 -0.30020642
-0.34294772 -0.14348534 0.64638901
-0.12773484 0.19965261 0.06359288
0.36011398 0.14789383 -0.70477277
-0.45458364 0.01810116 0.45655712
0.22753920 -0.14661375 -0.73911041
0.26205292 -0.15388647 0.30268055
0.24927911 -0.12056629 -0.33999717
0.25314900 -0.03910283 0.93628353
-0.17283295 -0.03107997 -0.37106922
0.05886844 -0.14023277 0.91232544
0.11897616 -0.03470256 0.98796707
0.02945870 -0.05544939 0.28234273
-0.28244716 -0.14657138 0.36701083
-0.15785941 -0.03640288 -0.35184976
0.25226006 -0.07114903 -0.50448775
0.22252256 -0.16717890 0.06000029
-0.16802561 -0.09122466 0.69105184
0.36967736 0.16701533 0.51215702
0.13472308 0.19944283 -0.05055902
-0.34237146 0.06879753 0.84565490
0.38216156 -0.13983926 -0.64477718
0.25761500 0.13094002 -0.35281104
0.34223321 0.06239793 0.09151237
-0.37925661 0.04679558 -0.22773026
0.47267342 0.08088576 0.51166207
0.20924863 0.14154403 -0.71279758
-0.44332299 0.08958420 0.59088302
0.29333505 -0.05910800 -0.86985761
0.00338243 -0.19184133 -0.03937900
-0.24133728 0.15807027 0.73143345
-0.33001420 0.15671980 -0.61517477
0.39982289 -0.14812440 -0.56719279
-0.46472129 0.03949372 0.58099443
0.19823989 -0.05435140 0.67664176
0.03244098 -0.11633140 0.80253333
0.24587157 -0.16118518 0.27352518
-0.30940872 -0.14011995 0.34419468
0.48412570 0.01425303 -0.47650975
0.10161056 0.10270930 -0.76098883
0.27264905 -0.13371438 0.00471249
-0.05270856 -0.18880674 0.06717419
-0.45566049 -0.04151626 -0.62748021
