-0.23752776 0.10332599 0.06273296
-0.14625204 -0.38787073 -0.13216557
-0.37410191 0.07484685 0.19038853
0.24733528 -0.20751283 -0.35909474
-0.20669416 -0.50619769 -0.09998706
-0.13112880 -0.15696830 -0.26751864
0.21462545 0.14100386 -0.16968031
0.26759571 0.20764086 -0.07582995
-0.58282065 -0.35632786 -0.24145918
0.24021769 -0.26862517 -0.33794418
0.35112387 0.40210930 0.07705455
-0.25532240 0.11287598 -0.05889037
0.15991728 -0.26724610 -0.19481212
0.19389293 0.11998543 -0.22395132
0.33499593 -0.31185564 -0.36665654
0.17936960 0.21471736 -0.01636741
0.13379017 0.40096909 0.16922441
0.20581943 0.92570198 0.16952582
-0.06220628 -0.31866688 -0.17685013
-0.29291016 0.06916475 0.21467900
0.14818864 0.12290514 0.20514105
0.00200883 -0.35727081 -0.02265340
-0.52826476 -0.12378606 -0.02057539
-0.30301547 -0.63350445 -0.14883235
-0.42176086 -0.41350406 -0.23253196
0.27290070 -0.09629995 0.33967075
0.35618070 -0.20858693 -0.34847900
0.07369387 0.25001809 0.11427334
-0.46565899 -0.17109811 0.18151848
-0.06916189 -0.38985014 0.09831642
-0.34263638 0.11241888 0.02939014
-0.31935084 -0.30771580 -0.28634754
-0.47560722 -0.27293333 -0.10798193
-0.32727885 0.04204611 -0.19478437
-0.65679610 -0.51833057 -0.35830614
0.16209179 0.65706289 0.21239749
0.19708037 0.20888227 -0.20693083
-0.23787013 -0.54795593 -0.15918602
0.13516110 0.30772004 0.01731291
-0.61503565 -0.34843910 -0.20961626
0.25307646 0.16323666 -0.12433569
0.26594245 0.60781270 0.02378624
-0.42858142 -0.18449286 -0.23461187
0.05296256 -0.57444453 -0.12671347
-0.60469699 -0.32746190 -0.25823653
0.24776950 0.65749919 0.22068229
-0.26802805 -0.31970286 -0.21034963
-0.61583984 -0.56105143 -0.33388790
-0.00221983 -0.23813277 0.15286347
-0.13528417 -0.02549469 -0.20720026
0.03740564 0.08071673 -0.08528923
0.24509668 0.13661057 -0.01603889
0.11457054 0.12351742 0.33892226
0.14137986 -0.30487105 -0.11330207
-0.01564141 -0.36472565 0.05410330
-0.17005295 0.08403909 0.08964702
-0.04197937 -0.36494279 -0.04250127
0.14403979 0.41992083 0.17721827
0.09824608 0.14524952 0.27478048
0.22157961 0.64775783 0.36016291
0.40332085 -0.24986824 -0.41303426
0.05062626 -0.31758833 0.05618618
0.43873647 -0.31546876 -0.33414942
-0.53867245 -0.27976742 -0.27639243
0.26513901 0.12184256 -0.26394588
0.06671496 -0.58128709 -0.05747843
0.39818874 -0.38871145 -0.44904357
0.32289976 0.14698921 -0.20809618
0.50229824 -0.38421786 -0.44270754
-0.05944645 0.18311195 0.14764830
0.16888881 0.60883892 0.22974156
-0.04806348 -0.36332500 -0.11771887
-0.21449491 0.09858941 0.01319247
0.02136790 0.22522292 -0.17424330
-0.09424660 0.30810195 -0.06008419
-0.59695983 -0.54498726 -0.29030865
-0.09990845 -0.01085517 -0.14921845
-0.40350461 -0.02304159 0.22421688
-0.16968924 -0.36828816 0.22173540
-0.01054595 0.16220129 0.06066362
-0.57625610 -0.30895874 -0.15151730
-0.29937559 -0.27949771 -0.29077262
0.10138419 -0.25424272 -0.22558002
0.35755020 -0.21992427 -0.38712487
0.11804730 0.07940663 0.29130828
0.04627338 -0.02787535 0.21217196
-0.34345096 -0.30190384 0.20757611
-0.02258380 -0.32435998 0.14675541
0.10096806 0.08093309 0.27340916
0.30727339 0.15341389 -0.12437500
0.13866165 0.24076682 -0.15195896
-0.31193799 0.11302547 0.05682907
0.30676612 0.62922525 0.31434375
0.27168903 -0.12373891 -0.22027117
-0.20257044 -0.01466720 0.24645123
0.06813417 0.28273225 -0.02694667
0.29905936 0.20086759 0.17966686
0.31135696 -0.05186801 0.28653538
-0.07305775 0.19913365 -0.17310765
-0.53009343 -0.15862074 0.05659477
-0.00378301 0.20453368 -0.13174695
-0.21575323 -0.00847507 -0.23692995
0.22195661 -0.16473031 -0.31455287
0.31488061 0.47943521 0.13713613
0.37686604 -0.11060986 0.21661621
-0.17887285 -0.47533572 -0.02957182
-0.58603317 -0.40906459 -0.30082425
0.39417616 0.33242357 0.07132526
0.11186506 0.37461221 0.14668025
0.20774612 0.89468426 0.22344738
-0.45608604 -0.00866084 -0.00298758
-0.48659518 -0.19091281 -0.15449430
0.14022890 0.18450364 -0.25467038
-0.32200417 0.11774395 -0.05952348
0.07459399 -0.09646545 -0.24372177
0.09824072 0.14154057 -0.24352561
-0.52220452 -0.26912624 -0.24536511
-0.03599021 0.26346746 -0.12773851
0.10634182 0.02345587 0.32178238
-0.47776848 -0.27128717 -0.24478810
0.08554853 0.01658262 0.36755973
0.21625873 -0.00430886 0.13475539
-0.10831130 0.22709593 -0.12418178
0.17314249 -0.25561738 -0.14289179
0.13791315 -0.54364496 -0.04166427
-0.43085992 -0.00387509 -0.11532272
-0.35721004 -0.04291116 -0.21459073
0.39760074 -0.27330157 -0.29506540
-0.18996605 -0.29526427 -0.22652411
-0.57416856 -0.37105823 -0.17762762
0.37446383 -0.37145543 -0.45928183
0.03150343 -0.11712730 0.20117220
0.24565685 0.18869247 -0.21695495
-0.04620757 0.13548869 0.21049790
0.14682184 0.65815252 0.23726660
0.17454541 -0.46136171 -0.10241551
0.13311489 -0.00117229 -0.17076804
0.13853101 -0.04985307 -0.20761262
-0.34337887 0.09901533 -0.06971119
-0.49831292 -0.27571771 -0.13328403
-0.05398555 0.13217722 0.02597513
0.26379386 0.00338289 0.20729145
0.02102312 -0.14621526 -0.25716558
0.18170604 -0.04889968 0.31784227
0.39163417 0.54139340 0.30873716
0.20568633 -0.12574756 0.09587157
-0.15997608 -0.04041244 0.23781526
0.07215403 0.09450398 0.39488414
0.34313488 0.18524212 0.14694121
0.39111546 0.07645515 0.12633903
-0.05057647 -0.36534166 -0.09336784
0.05457936 0.04829647 0.34027097
-0.23801684 -0.64988822 -0.12012867
0.01517486 -0.33145058 -0.09267472
-0.08448005 -0.40934896 -0.04427055
0.05847633 0.29995710 -0.01627325
0.32106432 -0.30918381 -0.37502864
-0.01313512 0.19903678 0.14334571
0.40868187 -0.01208413 0.11804943
-0.61317098 -0.46026254 -0.37094599
-0.18026385 -0.45083278 0.10571511
-0.06829455 -0.15481287 -0.25799060
-0.24643445 -0.66208822 -0.10070750
0.21314141 0.60398686 0.07168650
0.12978952 0.19203830 -0.25105307
-0.20281905 0.01403449 0.22115694
0.32943392 0.44735685 0.06906603
0.03385236 0.08612847 0.41732550
0.24207845 0.17927000 -0.23536587
0.18472683 0.20882282 -0.04109991
-0.05605663 0.29038742 -0.11976045
-0.20049122 -0.08302900 0.27682161
-0.49625218 -0.07318330 -0.00370553
0.13485470 0.22960325 -0.05587674
0.14451046 0.73754418 0.19585404
-0.28347635 0.08155533 -0.16302159
0.12118919 0.69830549 0.27438956
0.38299501 -0.34085062 -0.33378708
0.21678442 0.23262978 -0.04595383
0.28052676 -0.11594683 -0.16012031
0.42581108 0.45817602 0.28674632
0.00829366 0.21570975 -0.09229264
0.08812018 0.24647069 0.07141360
0.37600690 -0.22071126 -0.39252633
-0.43361905 -0.15423024 0.22082922
0.01439399 0.21452367 -0.12584282
-0.48146066 -0.39862078 -0.33391964
0.32242244 0.31880558 0.22606975
-0.46811697 -0.44393915 -0.28616068
0.10074681 0.04857687 -0.12571523
-0.49118766 -0.26171353 -0.06083113
0.38463673 0.36698389 0.05709995
-0.47973549 -0.39486992 -0.17423488
0.32815686 0.58709449 0.30233982
-0.48458874 -0.25016433 -0.11451542
-0.32270503 -0.50478774 -0.11557300
0.11547703 -0.53556573 -0.17188451
0.01539978 0.31220397 0.02712910
-0.25933695 -0.60490763 -0.02777920
-0.06410314 0.25681680 -0.16222498
-0.61133599 -0.36380011 -0.16100685
0.28086275 0.19368368 -0.16575907
0.39262024 -0.02503036 0.19859350
0.32445383 0.07270838 0.21156986
-0.45474905 -0.01767953 -0.04945353
0.20386696 0.61280966 0.18668234
-0.34893203 -0.22896743 0.25221255
-0.62812710 -0.56256092 -0.29738778
0.19203439 -0.03667459 0.29552487
0.28278729 0.91572344 0.11952962
-0.18056357 -0.46818942 -0.05838702
-0.42077753 0.05511323 0.10214372
0.09598148 -0.15065348 0.16613227
-0.45434403 -0.05485880 -0.12529504
0.25352061 -0.01909412 0.32844919
0.39068606 0.00293051 0.18936485
0.33752584 0.23706099 0.02451039
-0.03748272 -0.04207925 -0.18049993
-0.39596090 -0.38884550 -0.28149268
-0.23089516 -0.31323096 0.26121980
-0.00636083 -0.30064538 -0.15882155
-0.19717252 -0.47963667 -0.09376843
0.17088941 0.66189861 0.20654719
-0.31225690 0.11881895 -0.08542693
-0.54896837 -0.51510608 -0.39320445
0.21643588 0.78309882 0.25764531
0.37335131 -0.27736726 -0.43643209
0.12473467 -0.00463335 0.41543612
0.08607724 -0.54984003 -0.17247650
-0.03266681 0.18653364 0.11770435
0.06875665 0.27292347 0.04705358
0.28538042 0.15072376 -0.12836376
-0.20718822 -0.53006917 -0.06506354
-0.10447511 -0.02027647 -0.18223841
-0.34444752 -0.61173803 -0.11615309
0.26615831 0.21674313 -0.12791774
0.26738650 0.23289138 -0.10095194
-0.50907302 -0.29388171 -0.17589727
0.25433412 0.58991539 0.08771116
-0.31490597 -0.45025384 0.09132387
-0.03020696 0.24428888 -0.06037303
0.13436262 -0.03283015 0.34673208
-0.04470114 0.11292663 -0.01330018
0.25524598 0.59917009 0.31903785
-0.30661529 -0.10890783 0.29322746
0.20358580 -0.30847242 0.01719357
-0.18898903 -0.27115166 -0.24472480
-0.20362529 -0.24789846 0.30953369
0.26451749 0.62733722 0.27730811
0.26507577 -0.29331464 -0.30831873
-0.42385224 0.05285286 0.05899477
-0.02856288 -0.15271187 -0.24748321
-0.09857390 -0.36633140 -0.13073272
0.09064153 0.10261907 0.29046196
0.09505858 -0.28921348 0.09734021
0.49794886 -0.38477141 -0.41782144
0.35041517 -0.24885604 -0.40906733
-0.25058931 -0.48353350 0.06991585
0.22086862 0.04931233 0.31163719
0.11551964 -0.01134555 0.34119469
0.16662049 0.58188140 0.25722706
-0.20996615 -0.55336785 -0.05679962
-0.06619176 0.11525723 0.21569103
-0.30423713 -0.21988279 0.28581223
0.03770053 0.28016508 0.03091004
0.38506231 -0.25782683 -0.42445827
0.25499776 0.67262584 0.28550330
0.29756296 0.41925937 0.24088424
0.03530651 -0.35294804 -0.08146356
0.38823262 0.37517264 0.25792679
0.28331342 0.02196553 0.18722945
0.19848469 -0.31945169 0.01593172
0.00830356 -0.02179749 0.45339912
-0.44560391 -0.31996214 0.08713435
0.13483346 -0.11011940 0.41360298
0.40078264 -0.34632152 -0.35607395
-0.23572622 -0.40959072 0.15488283
0.17266622 0.00835820 0.37722799
0.38812804 0.41152117 0.28562146
-0.55569947 -0.28781003 -0.07049952
-0.06590271 -0.41226023 0.07728286
0.08254451 -0.05077346 0.19218379
0.33469069 -0.08538426 0.28363359
0.16344032 0.59479100 0.27308309
0.36983308 0.41839015 0.18635264
0.06666374 -0.57914919 -0.13415958
0.38083145 0.07695763 0.10902463
0.04161038 0.17970712 -0.25427720
0.05168787 -0.38708347 -0.02750655
-0.23215517 -0.66543365 -0.08876388
0.35825053 -0.30361709 -0.44095153
0.27447599 -0.20219070 -0.16418162
-0.34878302 -0.38205189 -0.26369470
-0.49570492 -0.12570336 -0.12113432
-0.40174270 0.06542032 0.04718760
-0.21794571 -0.45007992 0.11195743
0.43810484 0.43929267 0.29004031
0.24329695 -0.14699915 0.03877135
0.00762205 -0.34069556 -0.00286494
0.16872871 0.35675591 0.04033207
0.15192360 -0.62410241 -0.10187976
-0.20396204 -0.53587908 -0.04698992
-0.04192109 0.18012461 0.17896332
0.32472920 0.46423733 0.16078602
0.25943604 0.60210896 0.34482116
0.07294866 -0.61910051 -0.06306517
-0.29539287 -0.11854243 -0.26356676
-0.36221144 -0.37060678 -0.19900958
0.17329153 0.42293757 0.11498243
0.01541559 0.07853553 0.21719487
0.33570310 0.02168049 0.12956516
-0.12702860 0.13261548 0.17480060
0.21089739 0.87471282 0.16459362
0.32244629 -0.20466071 -0.21226011
0.02697133 0.26691401 -0.13482131
-0.05661410 -0.36727256 0.14442956
0.23619539 -0.02621076 0.25131986
0.16360837 0.00081049 0.30730617
0.09333488 0.17841727 -0.24742931
-0.03670469 -0.35302821 0.12903944
-0.49017042 -0.43653774 -0.21596001
-0.01759932 0.29199481 -0.11235103
0.29959124 0.23148751 0.19850060
0.27766347 0.09040315 0.23809209
0.17475009 0.12969220 0.29388535
0.16078427 -0.02827384 0.39736351
-0.33694634 -0.21278539 0.25601643
-0.09365215 0.23111553 -0.16269052
-0.44575876 -0.01537745 -0.08554593
-0.28630561 0.06883482 -0.19115444
0.41178408 -0.03644411 0.12870294
0.43559816 -0.24198416 -0.38213173
0.30268654 0.51371580 0.23093364
-0.17359351 -0.20900565 -0.27187714
0.26389953 0.51313823 0.01431239
0.39024574 0.35404566 0.17355698
0.15909734 0.64703572 0.21860553
0.24339241 -0.28399235 -0.29219490
0.17742071 0.90787089 0.28395176
-0.19947943 -0.52353811 -0.05212693
0.20573810 0.20047209 -0.21143229
0.13997625 0.67303032 0.32464716
0.06690371 -0.34623852 -0.12214808
0.24361336 0.25146082 -0.08253977
-0.36843640 0.09365928 0.04898097
0.38380986 0.29084265 0.15328357
-0.37389404 -0.40495408 0.09028011
0.15498340 0.03573249 0.27904329
0.11108075 0.25554115 -0.08588572
-0.55238253 -0.54033506 -0.36160839
-0.33889145 0.11487135 0.13286951
0.13172537 -0.57578754 -0.04853613
0.42955557 0.38566908 0.22010958
-0.51805115 -0.44831467 -0.34223548
-0.09567311 -0.15248606 0.22889650
0.07558852 -0.24939340 -0.21648571
0.18544984 -0.25602517 0.04971898
0.06445421 0.22934474 0.12207097
-0.46070403 -0.36667520 -0.15704231
0.34776795 0.15849203 0.10048856
-0.40270832 0.04488368 -0.08959236
-0.02552645 -0.06655827 -0.19845542
0.24134010 0.66999900 0.37282568
-0.21256508 -0.22259423 0.31692022
0.32272711 0.62210459 0.34809577
-0.43503904 0.01480576 -0.04358640
0.13933653 0.07947642 0.33839783
-0.46966645 -0.25475845 0.15327488
0.16456175 -0.54561687 -0.16029607
0.05303255 0.02701642 0.46797761
-0.17767486 -0.48128164 0.05563541
-0.02662593 -0.37130821 0.07930303
0.25445616 0.83350056 0.30427736
-0.42002752 -0.41134876 -0.28173551
0.03408763 0.19948700 -0.23931076
-0.23008753 -0.02331877 0.25007540
-0.61099792 -0.43697053 -0.33472520
-0.30987293 -0.41951400 -0.10199095
0.17511776 0.00855756 0.36596495
0.09577630 0.17359331 -0.17442553
-0.19624554 -0.06346999 0.27261975
-0.24469985 0.10550343 0.00538974
0.06568287 -0.05270281 -0.21738106
0.00217485 0.06630122 0.21949510
0.37421420 0.46340796 0.28484681
0.17874506 0.83989906 0.24724734
-0.12088830 0.13567829 0.14638522
-0.22752005 -0.59531480 -0.03480426
-0.19234501 0.08061783 -0.02875108
0.13180861 -0.10831507 0.39891037
-0.55841231 -0.38532919 -0.21067293
0.28271073 0.52175391 0.06655699
-0.55217743 -0.53554940 -0.31143159
0.26641718 0.59435630 0.31847677
0.06104346 -0.43285477 -0.11381119
-0.11250519 -0.09916686 0.22816031
0.25193277 0.03084376 0.13693818
-0.16688561 0.08417557 0.16539390
0.30666211 0.54963332 0.03428573
0.35308564 0.43799648 0.19393660
-0.33576679 -0.33716926 0.19920419
0.36392155 0.26601884 0.05918297
0.15856241 -0.61310834 -0.05701419
-0.36167625 0.04813854 -0.16804476
0.40859446 -0.41111410 -0.42263219
-0.27022776 -0.07783952 -0.25846896
0.27431542 0.59442627 0.27582797
-0.59859681 -0.30948448 -0.07965062
0.10687861 0.25010836 0.01104562
0.05809347 -0.58759236 -0.08646020
0.45468447 -0.27885944 -0.47286749
0.04747757 -0.36455888 -0.06066300
0.23456392 -0.24249369 -0.03985799
-0.05263112 -0.11904761 0.22138089
0.07281940 0.11523803 -0.04388481
-0.60785639 -0.36060715 -0.18911038
0.29154506 -0.01614839 -0.02213389
-0.34693399 -0.02400479 -0.20849331
0.18622708 -0.24363548 -0.30465764
0.02374221 0.19782342 -0.12312355
-0.23318534 -0.45310974 -0.12998326
-0.46231517 -0.06782702 -0.14073199
0.04871866 -0.14910606 -0.26660094
-0.54228973 -0.16748270 0.00679165
0.03966339 0.13132843 0.20365004
-0.46966437 -0.14242435 -0.18383518
-0.63624489 -0.34803134 -0.17750940
0.27790877 0.56657934 0.17112590
-0.30464762 0.09794834 -0.12028296
0.32630676 0.45196238 0.20264214
0.12792116 -0.35027698 0.04197345
0.39335182 -0.05415407 0.20757410
0.25396642 -0.23428392 -0.36004978
-0.00926691 0.10367100 0.20641640
0.21987787 0.04027218 0.18187489
-0.03685858 -0.25005206 0.18780956
0.14994906 0.07038074 -0.08748343
-0.55472761 -0.38699400 -0.31773135
-0.02565484 -0.24493358 0.17548613
-0.00883650 -0.12664899 -0.24007207
-0.27503461 -0.25410539 0.28322816
-0.20281830 -0.62830085 -0.09221761
-0.12910862 0.28325766 -0.13958398
-0.52704114 -0.50544304 -0.41585013
-0.55054110 -0.49887842 -0.41308612
0.39734221 0.30911970 0.10100181
-0.47085589 -0.28272361 0.11680241
-0.08124506 -0.38643879 -0.06210833
0.09491746 0.02484930 0.34795228
-0.56450677 -0.34750587 -0.14178535
-0.41357908 -0.16857043 0.23393300
0.08822918 0.14013048 0.35319662
-0.04908312 -0.16718608 -0.23959596
0.27467549 -0.12771752 0.29959226
0.19174838 0.65205127 0.33913252
0.32407042 0.46672615 0.05997887
-0.50371933 -0.19169337 0.11563098
-0.33339930 0.06239340 0.21924812
0.24212015 0.35272869 -0.00040969
0.11751263 0.72646296 0.33217743
-0.07489283 0.12018739 0.21993493
-0.29464999 0.08200413 -0.16110148
0.35504121 0.47814193 0.30101511
0.34922752 0.19523543 0.11718278
-0.30172223 0.04730663 0.22994879
0.27948308 0.53051102 -0.01722646
-0.57028186 -0.36557639 -0.26515710
-0.17786646 0.07369643 0.13565187
-0.32212338 0.06442945 -0.18293683
-0.49655610 -0.55116045 -0.34992719
0.30163178 0.89936763 0.11882521
0.49075273 -0.35947973 -0.39316618
0.36659005 0.55628091 0.34478956
-0.29267830 -0.63358390 -0.15234081
-0.58440000 -0.30073333 -0.13100877
-0.12960207 0.14618148 0.16110508
-0.05060508 -0.23059532 0.19582948
0.14442061 -0.05396895 0.42024973
0.32750186 0.10477975 0.06820243
0.32388824 0.44854569 0.22250684
0.16621080 0.22385168 -0.17919591
0.28007695 0.18951620 -0.00956208
-0.03150259 0.21700642 -0.09834907
-0.06075756 -0.33809114 0.17561792
0.02633359 -0.04854257 0.43101010
0.22267196 -0.14427197 0.07132076
0.15729900 0.12253135 0.28767705
0.26901537 -0.27980626 -0.24606207
0.24207994 0.63872379 0.06595631
-0.13515246 -0.26660040 0.27564493
0.06157689 -0.10412654 0.19250670
-0.00556935 -0.27490413 -0.17768450
0.19821167 0.18133600 -0.12103820
-0.18688962 -0.13096219 0.29661635
-0.23229951 0.01006114 -0.23724481
0.42184356 0.43327829 0.24658361
-0.29371044 -0.34544361 -0.17335559
0.04955149 -0.37805259 -0.08270503
-0.37820831 -0.39444125 -0.27191848
0.06772041 0.26626661 0.12063646
0.18673563 0.56096989 0.26655725
-0.26180816 -0.00435932 0.24895221
-0.38654178 -0.37400532 -0.02034860
0.14206648 0.38686216 0.09036199
0.22376895 0.87411702 0.15368477
0.27026686 0.35726482 0.24293146
0.36789602 0.33993483 0.23591751
-0.09757317 -0.10948828 0.21800907
0.23803961 0.65863699 0.20340076
0.21821699 0.55713391 0.16006288
0.39308190 0.34492356 0.10805106
-0.27726191 -0.17095286 -0.27584356
-0.52595294 -0.12509233 0.01721950
0.16808453 -0.11957875 0.39506549
-0.03898276 -0.37827182 0.05103531
-0.14952686 -0.46015763 0.06998757
0.30305743 0.19969043 -0.09396950
-0.29573995 -0.30161780 -0.27573434
0.34617874 -0.11764908 0.25295040
0.13064295 0.05645733 0.27706984
0.27807271 -0.30160087 -0.27863520
0.28433040 0.50588042 -0.02341230
0.31858912 0.47323838 0.19396554
-0.11041060 -0.14268985 -0.26518387
0.36437771 0.10137922 0.10470465
0.07856272 -0.35283202 0.05831385
-0.09558742 -0.02829665 -0.17307402
0.16358191 -0.48705757 -0.11518563
0.27904117 0.52803987 0.08534057
-0.16205575 -0.06824750 -0.25078484
-0.46390429 -0.33692476 -0.32539177
-0.58386910 -0.31373772 -0.27635038
-0.24375400 -0.63011354 -0.15770666
0.16235158 -0.02823356 0.31850812
0.02104849 -0.29134685 -0.18174089
-0.42392686 -0.16805211 0.22722235
-0.45598546 -0.41395307 -0.20312102
0.34643891 0.43717775 0.24226734
0.14385074 0.19709218 -0.09379184
0.40602213 0.49937528 0.28617075
0.20265952 0.93010020 0.22338592
0.24080279 0.20184514 0.20873395
-0.47181213 -0.20375672 -0.19412583
-0.30427837 -0.46181738 0.08022235
0.00111338 0.19416098 -0.22607312
-0.30043691 -0.65188146 -0.13510214
0.13858895 -0.39666587 -0.12166239
0.07383774 -0.01615734 0.38572297
0.22337699 0.06680804 0.29255810
0.18599895 -0.26874074 -0.10910826
0.20441717 0.75979465 0.27109155
0.09500410 0.24818544 -0.16010889
0.01645489 0.24649855 -0.01506391
0.32181856 0.00113720 0.15652356
0.19942093 -0.04837558 0.13592233
-0.40620586 -0.36648500 -0.31388253
-0.04521687 0.29293299 -0.07993606
0.35181215 -0.04122047 0.16175149
0.10127567 -0.01263297 0.35645217
0.24954236 0.48166034 0.10631446
-0.27609944 -0.59234393 -0.17458178
0.18972871 0.20641860 0.23705867
-0.38859060 0.05229975 0.19950174
-0.61274469 -0.52690798 -0.38256171
-0.08211102 -0.16656995 -0.26446128
0.19706997 -0.27079216 -0.29539531
-0.53130037 -0.28629172 -0.26754799
0.21167713 0.42353064 0.22756526
0.09705137 -0.41441911 0.01986989
0.20953596 0.65835673 0.34755594
0.38906226 0.46389630 0.23777616
0.10968125 -0.41974568 0.02576352
-0.61069942 -0.54801834 -0.35185134
0.02476562 -0.31184804 0.10602289
0.14638042 0.68797666 0.32639971
0.22049683 -0.00824463 0.26773906
-0.31713173 0.02259698 0.24063909
-0.02741465 0.10270107 -0.03247583
0.29377699 0.02541072 0.14835340
-0.52082407 -0.31652129 -0.18325472
0.17556778 0.63782072 0.31520703
-0.30065632 -0.46519971 -0.12308810
-0.17485704 0.06913438 -0.03818810
-0.36697417 -0.38187867 -0.25734219
0.15179203 0.87810344 0.31863210
0.18599576 -0.28184283 -0.10921580
0.39396432 0.51139557 0.26975006
-0.19577467 -0.35690656 0.22789671
0.13363865 0.14033331 0.22603686
0.40113348 0.51740980 0.31929505
-0.04038795 -0.12459984 -0.22564416
0.12563276 0.16451851 -0.17638476
-0.23606436 -0.43859589 0.13173983
0.05207224 0.04996529 0.20590177
0.25960103 -0.15063962 0.00773889
0.07424904 0.28823438 -0.01039967
-0.32431850 -0.58989483 -0.04824192
-0.65070903 -0.53677368 -0.36685914
0.36527526 -0.03150426 0.16544484
0.35738140 0.03166887 0.10795517
0.23614970 -0.08000472 0.29002056
0.13886219 -0.23052233 -0.28432539
-0.18546647 0.05571189 0.17301893
-0.29380500 -0.44465697 -0.11618585
0.12951475 0.12130490 0.23831934
-0.05097092 0.24256961 -0.12224927
-0.33017290 0.11331771 -0.12028101
-0.53375232 -0.22566050 -0.06403827
-0.61426830 -0.28424409 -0.22146161
0.15445350 -0.16192394 -0.31006768
0.25631893 0.83581501 0.21424438
0.20472196 0.67592651 0.20663080
0.20731068 -0.30252415 -0.00567856
-0.65888739 -0.52477455 -0.30675364
-0.13442245 -0.18942603 -0.27659148
0.21778643 -0.09534092 -0.23712006
-0.36607522 -0.37933022 -0.04888437
0.25079021 0.61959064 0.04173068
0.38930440 0.27753764 0.12396030
-0.33674717 0.01223539 -0.20077191
0.15127337 0.11204411 -0.03995293
-0.03445078 -0.31293350 -0.16451675
0.22205475 -0.07938644 0.10109431
0.32348946 0.44414571 -0.00584041
0.23156837 0.43912905 0.05065781
-0.46486551 -0.43942541 -0.30717227
0.21724358 -0.12103555 -0.27984765
0.21002778 0.02358916 0.24316671
-0.32498807 -0.12951162 -0.25509453
-0.40692055 0.03794440 -0.10176563
-0.28257996 -0.32365844 -0.23759861
0.20584053 0.13308020 0.27109098
0.19623378 0.80841768 0.24398419
-0.60195196 -0.52734852 -0.27499661
0.19328684 0.14796682 -0.16687492
0.12978296 0.75800693 0.33456722
-0.11803238 0.02776352 -0.10860079
0.31654415 -0.15731215 -0.22542150
-0.21987635 -0.46743131 -0.12271848
-0.15339050 -0.10502422 -0.26788035
-0.33631390 -0.36514485 0.17589676
-0.41072732 0.04565076 -0.04564051
-0.19556653 -0.45883071 -0.08774792
0.08584607 0.14499569 0.34382841
-0.22409695 0.08711982 0.08433001
0.18599090 -0.17104676 -0.32227331
-0.40886563 -0.32083344 -0.31981876
-0.31670737 0.01179515 0.24710628
0.11528683 -0.19528913 0.13124000
0.35663667 0.42242953 0.17595778
0.25408682 0.24924888 -0.07175671
0.05295478 0.09711421 0.33495644
0.21644250 -0.30134425 -0.02446032
0.18497226 -0.12087369 0.11869937
0.28865445 -0.20607960 -0.18152043
-0.26065356 -0.44490552 0.10365403
-0.40164256 -0.39835787 -0.29157689
0.27029166 0.59784365 0.05697898
-0.10154523 0.24793482 -0.05264328
0.21070680 -0.03777471 0.27716228
0.13781428 -0.59019208 -0.14449343
-0.41184708 0.06147964 0.02330048
0.27137753 0.48313046 0.06679936
0.15438953 0.21208730 -0.22264771
0.40171286 0.51622337 0.29928374
0.11919683 0.19864804 -0.09303668
0.18193218 0.29357314 -0.02451222
-0.02181676 0.06739541 0.22129929
0.27336416 0.57456708 0.30096644
0.41319126 0.48959824 0.32832122
0.20757046 0.59494048 0.19396381
0.07885575 0.23231104 0.07947070
0.22832862 0.64694792 0.35017857
0.29527500 0.19933736 -0.14092377
0.00680554 -0.32175550 -0.09620666
0.35774928 0.08058350 0.17978315
0.05781743 0.24088040 0.16464332
-0.40288505 -0.36639321 -0.17032675
-0.33371767 -0.36927801 -0.25956881
0.16428390 0.31165117 0.23241827
0.12936778 0.79246241 0.27367455
-0.25606066 -0.58652854 -0.03268803
-0.38293582 -0.39061844 0.02961562
0.38928804 0.44386870 0.31139329
-0.58888674 -0.31914058 -0.06371140
0.22748536 0.19166805 -0.22020507
0.24803668 0.53852171 0.27282661
0.32608429 0.35102320 -0.00676777
0.39215136 -0.07750103 0.20929359
0.23160082 -0.01513065 0.33570379
0.12350196 0.14827107 -0.26810423
0.32274908 0.00950676 0.14381844
0.16079849 0.61480677 0.28796428
-0.36947474 -0.21845317 -0.27583906
-0.20843473 -0.63484806 -0.10903605
0.07563695 -0.31540680 0.08241796
-0.14044291 -0.44748038 0.08514958
0.23555747 0.04601152 -0.05935054
0.16795880 0.59973454 0.23657677
-0.36500001 -0.04980299 0.24995452
0.19503525 0.85505134 0.33471996
0.18332121 -0.05881861 0.34059620
0.27598318 0.03224563 0.11387764
0.14485814 0.01114878 -0.15380929
-0.43462193 -0.39878416 -0.26331127
0.15318438 0.61999840 0.23243138
0.39065412 -0.30764240 -0.48416054
0.19460014 0.09702799 -0.04963190
-0.29794618 -0.34369925 -0.25159493
0.13464046 -0.26906556 0.08022609
0.16418332 -0.49673867 -0.03186095
0.39066711 -0.08782458 0.19987181
0.14861949 0.18169549 -0.11628836
-0.31207335 -0.61998039 -0.03910246
0.12142880 -0.11015783 -0.27152693
0.19936490 0.13490787 -0.27288175
0.34101391 0.40906546 0.03200058
-0.53675616 -0.49298882 -0.38902548
-0.35879490 -0.00302470 -0.18886645
0.19048190 0.11890136 -0.24676602
0.22504604 0.18453205 -0.23029189
-0.03403079 -0.37772566 -0.03323048
0.04788153 -0.24960324 0.13178311
-0.58264297 -0.53929484 -0.39008516
0.33500478 0.52917349 0.35286108
0.07847513 -0.19555658 0.14469306
-0.42702731 -0.34199533 -0.31737661
-0.04646988 -0.21866435 0.19480926
-0.25262529 -0.52602941 -0.14182457
0.29994595 0.58629680 0.36047956
0.27382264 -0.20554632 -0.35848171
0.09985612 0.31062764 0.12010966
-0.16078633 0.08314639 0.06737110
0.35949817 0.47734135 0.32411453
-0.55689859 -0.25665259 0.01006605
0.27618846 0.56710267 0.18563879
0.05615900 -0.51859039 -0.07406683
-0.44917580 -0.05253848 0.16072428
-0.15274441 -0.09421802 -0.26512685
-0.36195856 -0.38740098 0.13991861
0.40184286 0.04408719 0.14471875
-0.16195047 -0.00092068 -0.21643363
0.13239993 0.09119667 0.35809001
-0.23046727 -0.59198290 -0.13716540
0.29364297 -0.12551799 0.31631097
-0.07876190 0.22147122 -0.16176459
0.01112311 0.01434623 0.47326198
-0.34841630 0.10178676 0.04149923
0.25862500 0.18472572 -0.05537336
-0.55535400 -0.18699121 -0.01598644
0.33890578 0.19970188 0.13604063
-0.39720708 -0.34269652 0.14929038
0.30569181 -0.15922052 -0.30518222
0.22114307 0.49606198 0.25749394
-0.35776705 -0.40386093 -0.05207185
0.10023993 0.23679966 0.02722300
0.02406514 0.21023500 -0.20835690
0.38516572 -0.39337820 -0.44256124
-0.34634331 -0.62452489 -0.10353307
-0.49008864 -0.25173834 -0.12767909
0.21303567 -0.10798880 -0.25291061
0.22319981 -0.24285766 -0.08378886
0.28403735 0.47250047 0.02640235
0.27150518 0.18962085 -0.03643123
-0.08098422 -0.02673307 0.21724692
0.25963154 -0.19709289 -0.13365379
0.07829320 -0.57708228 -0.16458893
0.27375549 0.59402949 0.21975443
0.15405326 -0.19783899 -0.31575948
0.17130268 -0.00638413 -0.15216880
0.18096340 -0.05561578 0.39233428
0.00085638 0.17902692 0.05954116
-0.66361940 -0.54317015 -0.33533746
-0.07830270 -0.22406736 -0.25013134
-0.49077266 -0.20228729 -0.14013171
0.26465443 -0.12425575 -0.13315110
-0.63086605 -0.46136242 -0.30826625
-0.40142554 -0.01318111 0.23679009
-0.13184851 -0.29340711 -0.22546653
-0.06197087 0.20554420 -0.13914350
-0.55177224 -0.36935157 -0.31734028
-0.36254367 -0.45362985 -0.01731935
-0.24386176 0.01655398 -0.24019325
0.18477830 0.06536261 0.23493609
-0.43214083 -0.07489268 -0.17086042
0.25473073 0.01440507 -0.06087708
-0.01075567 -0.11858571 0.20894000
-0.05813298 0.20255268 -0.16028729
-0.00231389 -0.17716917 -0.23973577
0.03005276 0.16428320 -0.18873209
0.34605396 -0.27071497 -0.40840483
0.03034895 0.29604498 0.04315160
-0.07567059 -0.33717534 0.19202192
-0.52034366 -0.46513826 -0.37127304
-0.04111071 -0.01997063 0.22626707
-0.37969917 -0.04871169 -0.19201796
0.05893405 0.19187964 -0.14264369
-0.12375119 -0.16954422 0.26811770
-0.55536640 -0.49820906 -0.25901610
-0.33382243 0.12234557 -0.03211820
-0.33601332 -0.51257908 -0.01708637
0.17016339 0.88107669 0.32190380
0.14216299 -0.43358636 0.00756012
-0.36373603 0.05843873 -0.15316014
0.18413121 -0.57928550 -0.11616502
-0.49551815 -0.43121511 -0.33250964
0.33735937 -0.20428577 -0.22648767
-0.21507746 -0.50639498 -0.11155119
0.35176784 0.44409010 0.25831732
-0.16431144 -0.01684467 -0.22715607
0.03272200 0.31084904 0.04702064
0.11313570 -0.08346786 -0.24578232
-0.48723269 -0.06376901 -0.02670065
0.23745832 0.62139642 0.14501514
0.07059817 0.14845893 0.00868545
0.22164604 0.89470541 0.10370596
-0.30806935 -0.35149428 -0.14509951
0.47766826 -0.32478362 -0.38011041
-0.07816251 -0.25651464 -0.24084029
-0.43694970 -0.23569894 -0.25999016
-0.37192228 -0.37316120 -0.29408649
0.19760242 -0.19764838 -0.33908170
0.25063375 0.93670219 0.20118497
-0.48096552 -0.14092866 0.14437351
0.19661584 -0.04539406 -0.18360159
-0.37093383 0.09728023 -0.04025415
0.13713458 -0.50129002 -0.02831409
0.23630074 0.68358338 0.33262137
-0.23541363 -0.32319355 0.25662911
0.05859338 0.22331570 -0.20608364
-0.54992366 -0.30565181 -0.20010358
0.08292514 -0.08341785 0.44802597
-0.49959251 -0.51950699 -0.37611097
0.27121511 -0.05704296 -0.06166480
0.32772377 -0.05047235 0.18992379
-0.44075602 0.00823823 0.00911634
0.32950985 -0.11447421 0.26468846
-0.27360085 -0.22650772 -0.29317617
0.03336067 -0.33942637 0.00847652
0.34358612 -0.32620361 -0.40169877
-0.21821742 -0.53405929 0.01188645
0.12606992 0.01390378 0.40601888
0.30067968 0.50914586 0.12432358
0.38101986 -0.39094746 -0.37854278
0.02365493 -0.32449901 -0.11412062
-0.39193538 0.03949385 -0.13748649
0.35938475 -0.37303835 -0.44582710
0.29623580 0.08384597 0.00497444
0.35237992 -0.33675960 -0.38619807
-0.32979137 -0.59018242 -0.14739785
0.10310926 0.27807289 -0.09179181
-0.33334884 -0.43006319 0.09889622
0.35982698 0.20685187 0.09770460
0.23942259 -0.03388938 -0.11422288
0.26244655 -0.11989367 0.01997623
-0.43081135 0.04196808 0.07774645
-0.36555547 0.09377011 -0.01249287
0.19213149 -0.00217697 0.27892768
0.31241912 0.45765251 -0.01680699
-0.32353741 -0.25320068 0.24156153
-0.46290705 -0.01774754 0.01167880
0.33565211 0.29108816 -0.00908012
-0.20187367 -0.15728220 -0.28253284
-0.04835066 0.21956532 -0.20372875
0.26360339 0.65186405 0.37115124
0.23904929 0.39282089 0.01054448
0.14060652 0.40390629 0.11684819
0.05225906 0.23718062 -0.04032602
-0.02545110 0.20222402 0.16477890
0.19117349 -0.07896546 0.32633278
0.14957465 0.22536811 -0.03597429
0.00828218 0.22046259 -0.16845460
0.20131153 -0.27849993 -0.24807140
-0.27071273 -0.42049879 0.14802302
0.06204182 -0.07328373 0.42760095
0.32285941 -0.06904811 0.21971093
0.07766800 0.15446542 0.19099475
-0.45163748 -0.29864055 -0.00131418
0.08679043 0.24401790 0.19673026
0.32345054 0.46594745 0.20017850
-0.33074826 -0.60107678 -0.06782207
0.36250734 -0.28237146 -0.41216582
0.36610711 0.07223107 0.10200465
0.17624518 0.12287752 -0.23251894
-0.35338059 0.09444547 0.08990647
-0.08751715 -0.41246712 0.12992801
0.04977788 -0.09357162 -0.23634860
0.21254748 -0.07267463 0.30573210
0.33108383 0.08099458 0.20034428
0.37488836 -0.20623705 -0.36552665
-0.06145039 0.30524445 -0.08224580
-0.00724522 -0.10423945 0.21591504
0.20706764 -0.38688034 -0.06097199
-0.49106026 -0.10530655 -0.12514368
0.05423796 -0.40303689 -0.01603274
0.06303722 -0.26750728 0.11310437
0.14947452 -0.03286171 0.34248564
0.25367588 0.00586200 0.31550837
-0.04414020 -0.39493817 -0.01754137
-0.28079259 -0.48959970 -0.13312697
-0.54845178 -0.29725188 -0.06454497
-0.30794978 -0.41748279 0.13531078
-0.43823993 -0.30972651 -0.07623863
0.19056258 -0.06265719 0.40075186
0.15704605 0.26374668 -0.12718254
0.33929983 0.43497682 0.07013007
-0.42043787 -0.34683692 0.03518395
0.40174440 -0.20956472 -0.31836390
0.20941034 0.72411013 0.35463241
0.24311075 -0.13600105 0.05004466
0.19082063 0.52402568 0.23104215
-0.48825768 -0.24693283 -0.19646829
-0.00203847 0.19010255 0.17526408
-0.20511830 -0.04772781 0.25558829
0.34468406 0.31448400 0.01372089
0.34088036 0.12785901 0.09441604
-0.52161694 -0.44766331 -0.35879591
0.40606514 -0.40229428 -0.44107312
0.00980867 -0.34449327 0.03589142
0.29188207 0.54621452 0.22679344
0.36388034 0.24632780 0.07277843
-0.50384021 -0.53661865 -0.32307875
-0.14521466 0.24660674 -0.11830321
0.13487190 0.37780702 0.09520473
0.08408767 -0.63795054 -0.07056668
0.27073583 -0.29874548 -0.28692147
0.26438391 0.52578151 0.06341951
-0.27675915 -0.62520742 -0.16710056
-0.37011841 -0.21690595 0.23760921
0.24636751 -0.21347511 -0.14733249
-0.48374707 -0.18340468 0.15234469
0.39783120 -0.00784205 0.11665909
0.21244815 0.63623250 0.19657853
0.10750525 0.21890676 -0.20776865
-0.16874635 -0.19496119 0.29759985
-0.11043173 0.13057905 0.08372837
-0.25999102 -0.38079339 0.17941383
0.30320767 0.41044921 -0.00223343
0.07214321 -0.49607092 -0.02890235
-0.34422550 -0.30878493 -0.30737603
0.05967972 -0.59776640 -0.11514469
-0.00315930 0.13657434 0.20367393
0.05289313 -0.41206640 -0.07669520
-0.50823343 -0.49813080 -0.28919131
0.36363173 0.34448770 0.02542879
0.40634885 0.49479130 0.26462153
0.38109389 -0.21964845 -0.38036212
-0.49396420 -0.09920846 -0.11191218
0.09182253 0.19207297 0.03082971
0.05765635 0.13370366 0.34478396
-0.66220677 -0.52990568 -0.35152611
0.12045635 0.10385109 0.34457713
0.14580509 0.22533885 -0.20223796
0.07950796 0.28726113 0.11000140
0.38888723 -0.29460949 -0.42878136
-0.62415433 -0.44413924 -0.28605738
0.06854159 0.21711999 -0.23289248
0.06302944 0.10744030 -0.06276789
0.17305008 0.36496657 0.23806962
0.24710330 -0.00575344 0.23903075
0.23148036 -0.26770821 -0.32409468
-0.35357380 0.11171944 -0.05462582
0.26549608 -0.15680879 -0.01402815
0.17650783 0.58910882 0.21500123
0.09465057 0.19906066 0.27922076
-0.61323428 -0.51343393 -0.41831115
0.06728815 0.02760312 -0.13853836
0.18525493 -0.02095254 -0.15067592
0.02189042 0.19220509 0.08563478
0.25995260 -0.16916203 -0.06822449
0.48532668 -0.30103308 -0.46617678
-0.25831637 -0.04777226 0.27291843
0.27016762 -0.08719164 -0.05821804
0.05432317 -0.55567461 -0.12677470
-0.19295068 -0.01424380 0.22864982
-0.61797869 -0.50401998 -0.40519768
0.29583624 0.03534190 0.26670325
0.13058914 0.15526408 -0.25583196
0.22220531 0.08608367 -0.05051837
-0.29841673 0.11986236 0.08329514
-0.00065534 -0.36584109 -0.01590835
-0.36130378 -0.35483548 -0.07630811
-0.01703865 0.19622454 -0.22324322
0.16731086 0.44302988 0.20015015
-0.17352027 -0.08409823 -0.25883827
-0.41343945 -0.33476794 -0.01833008
0.29640144 0.06149149 -0.00544426
-0.55548906 -0.19558656 -0.00131158
0.23904866 -0.21853209 -0.00256428
0.15608367 0.41088453 0.13042457
-0.37453467 -0.13643664 -0.24224225
-0.30318469 0.10953815 0.08380884
0.09353440 -0.07258047 0.45787278
-0.43002617 -0.35440695 -0.32510281
0.13978130 0.16864143 0.28856283
-0.60395944 -0.30312753 -0.12594104
0.13208169 0.31947041 0.21399875
-0.29142499 -0.03300963 -0.25036746
0.21354765 0.47738582 0.09901161
0.18687570 0.52181864 0.18155366
-0.31804752 -0.26763037 0.23520559
0.32487655 0.42760086 0.24022296
0.02190993 -0.31979927 0.08740781
-0.37781221 -0.35181230 -0.12563631
0.13983136 0.19827119 0.26514974
-0.32965410 -0.48834199 -0.00504618
0.31928042 0.43072724 -0.01472015
0.33343628 -0.32354608 -0.32259348
0.19005209 0.05933957 0.32351068
-0.56370533 -0.29860973 -0.08217796
-0.50856817 -0.27867308 -0.06537966
0.18108305 -0.58968449 -0.13239436
-0.34435743 -0.37179768 -0.25032866
0.07197556 -0.02870663 0.20261174
-0.36573091 -0.42851943 0.03601023
0.16784811 0.38866362 0.06779636
0.35645106 -0.35579744 -0.40879199
0.22311237 -0.27521220 -0.01673862
-0.20440197 -0.02052549 0.23768094
-0.15587147 0.10101469 0.18147826
-0.16043279 0.07743701 0.05262066
0.01135653 0.00299266 0.40653586
-0.18438104 -0.23766533 0.30275884
0.10478449 -0.30720258 -0.12432940
-0.19734380 -0.48603916 0.05583837
-0.17342828 0.08774512 0.07956345
-0.27526361 -0.14116266 -0.27582493
0.20172182 0.59673446 0.30925637
0.20774490 0.69121796 0.10896066
0.29990870 0.05107427 0.11892095
0.37054107 0.20558318 0.12744938
-0.48129582 -0.05610302 0.10002187
0.27356905 0.53176785 -0.00839810
-0.47383714 -0.26883057 -0.05919446
0.12264575 0.29064196 -0.01314906
0.21469206 0.65929508 0.18107206
0.37140107 0.21091136 0.14103268
0.20994061 0.30054790 -0.01307597
0.30345061 0.44501141 0.22979157
-0.05577223 0.01893912 0.22553992
-0.11866145 0.04869648 -0.06801605
0.07698736 -0.62773001 -0.07410616
0.20610014 -0.04144639 0.38079587
0.22024867 -0.27775133 -0.24666499
0.32609862 0.20361990 0.05349301
-0.21642719 -0.30133289 -0.22306891
-0.06521996 -0.23469794 0.21418199
0.30875868 -0.05050163 0.19850445
-0.26327163 0.03807488 -0.21504354
-0.14059877 0.30575916 -0.08172560
0.20728761 -0.10088336 0.34385324
0.04717445 0.30255103 0.01803360
0.34103084 0.48530445 0.26167974
0.11162014 0.25137168 -0.15487595
0.31195867 0.18750659 -0.10707898
0.15760855 0.19693404 -0.09048190
0.09923223 -0.51481414 -0.15191436
-0.29494947 -0.29332557 0.24492285
-0.50130624 -0.48810196 -0.29018772
-0.23581183 -0.25094572 -0.27242807
-0.56598020 -0.37340891 -0.30090901
-0.41447508 -0.31928405 -0.05364132
0.14736596 0.19781733 0.00960787
0.21894473 -0.03828168 0.12233052
0.27929753 0.19994199 -0.01399340
-0.40157801 -0.25754312 -0.29926911
0.17109305 -0.21174347 0.08407640
0.28670242 0.63366926 0.30159116
0.06237398 0.11828402 0.31429914
0.06413358 0.13578950 0.36666059
0.19601455 0.04839643 0.23546952
0.23236871 0.05052274 0.17657949
0.11382994 0.24850008 0.23363775
-0.55635005 -0.55733436 -0.34794366
-0.14068368 -0.39179146 0.19256340
0.19546190 -0.06065539 0.30031914
0.20728898 0.84365863 0.22024900
-0.38204131 0.07005806 -0.07041395
-0.31677032 0.02993452 -0.20552664
0.09568939 0.23146835 0.05570032
0.16526368 0.68231857 0.20899537
0.01049130 -0.29430538 -0.15074094
0.06875214 -0.00568698 0.38368487
-0.32642984 -0.54108649 -0.13287616
0.06048591 -0.00817615 -0.17920129
-0.11636207 -0.43093878 0.10732494
0.29519242 0.13283996 0.20421283
0.23828962 -0.07450600 -0.15577760
-0.06761885 0.01690234 -0.12212363
-0.39731190 -0.27440962 -0.29845396
0.27849594 0.27961388 0.22078691
-0.00342972 0.17923811 -0.17951722
0.34241605 0.41614330 0.09931953
-0.52483958 -0.48906887 -0.33216226
-0.32110447 -0.52347589 -0.02330039
0.22157457 -0.26970127 -0.21142185
0.04582052 0.23360682 -0.05192426
-0.50293136 -0.41620052 -0.20317762
-0.43996522 0.00284855 -0.00804946
0.05630217 0.04867553 0.44302988
-0.63847589 -0.31775519 -0.19065075
-0.50646925 -0.32886696 -0.18188401
-0.39731026 0.06881592 0.00937024
0.35392189 0.40450779 0.12198471
0.16364518 -0.40248197 -0.12046691
0.39120027 0.03693359 0.10799605
-0.35746667 -0.20028931 0.26023331
-0.09003340 -0.40283388 -0.00360012
0.31116647 0.54625499 0.28696364
-0.45847803 -0.01168154 0.10168368
0.30451527 -0.15312615 -0.26368475
-0.26241374 0.09650414 -0.13463116
0.19153336 0.77136457 0.35921696
0.17018339 0.08219949 0.23645383
0.18860984 -0.03876112 0.30857959
0.34211704 0.21917349 0.05192345
-0.59537125 -0.33167610 -0.08874791
-0.04190415 0.16137555 0.06662980
0.26860732 -0.13111624 -0.12533475
-0.37867221 -0.22820842 0.23369342
0.06381816 0.00026001 0.20165749
-0.51044512 -0.27556270 -0.25788686
0.19975901 -0.26204610 -0.16589370
-0.34234259 -0.19214267 0.25963929
-0.20032197 -0.46189207 0.10724217
0.12404169 -0.63240337 -0.06024753
0.07866648 0.21811339 0.07427316
-0.07621068 -0.18098640 0.21799704
0.17411208 0.12024112 -0.25751075
0.00064438 -0.01997952 -0.17753656
0.19359010 0.17233087 0.23648155
-0.38931450 -0.38020647 -0.20189837
0.01958543 0.12055817 -0.03504717
-0.26094228 -0.32837719 0.22967218
-0.32325441 -0.29169381 -0.29987919
-0.34199557 0.09840457 -0.00159675
-0.43415686 0.01873945 0.15235126
0.31501529 0.17962641 -0.14898622
0.16319072 -0.34224108 0.03761803
0.42045572 0.35253087 0.22760029
0.29801196 0.00053263 0.18712044
0.39784566 -0.33282480 -0.33274090
-0.33122224 -0.49241483 -0.01840310
0.16132991 0.83165020 0.25572723
0.26456064 0.29351628 0.23249927
0.25983801 0.41998056 0.01747581
0.33395287 0.09590183 0.09048451
-0.25878513 -0.52470273 -0.15415500
-0.27221623 -0.67311776 -0.08891718
0.42958346 0.41513008 0.24523976
0.28736091 0.26312789 -0.03860525
-0.16131760 -0.34058350 -0.19517186
-0.25993741 -0.42764431 0.13204268
-0.55766141 -0.45112205 -0.22889541
-0.26435846 -0.67092013 -0.04709392
-0.31022209 -0.48002893 0.04781129
-0.11354338 -0.25224391 -0.25402662
-0.02924083 -0.34021547 0.13328190
-0.29558241 -0.53967094 -0.00683308
0.27473012 0.50896752 0.07769825
-0.21959929 -0.66631681 -0.06053222
-0.51050740 -0.30955318 -0.18883258
0.16530913 0.04589389 0.18173780
0.38660777 0.49510628 0.25712082
0.34919369 -0.32451159 -0.31153646
-0.05980372 -0.39007872 -0.02306064
-0.05011949 -0.33679026 -0.15168720
-0.35447827 -0.34319109 -0.10695530
0.21726286 -0.10005888 0.32679966
0.22765359 0.65505165 0.22843465
0.11593765 -0.26615655 -0.21517400
-0.21546344 0.05052400 -0.17956613
-0.29988545 -0.07098962 0.28965214
0.33324236 0.41658431 0.02739851
-0.35129762 0.03427857 0.23710841
0.20593986 0.02896475 -0.09090172
0.00450574 -0.29071584 -0.18893501
-0.34238568 0.10573040 -0.08105149
-0.09530241 0.02718301 -0.09799244
0.18069094 0.64640141 0.33574724
0.20649603 0.68567628 0.21844381
0.05283543 -0.37398660 -0.03067436
0.25586909 0.63274968 0.36849284
-0.11953847 0.05379851 0.22283329
-0.48001266 -0.36762464 -0.33542234
-0.26145500 -0.25476032 -0.27558425
0.30069950 -0.07140866 0.23540217
0.42595986 0.36997443 0.25489214
-0.11374079 -0.32375175 0.23984572
0.51292479 -0.34780478 -0.43118680
-0.21363235 0.08121328 0.16392919
0.08332047 0.12605679 0.28824165
0.20616025 0.07682256 0.20110142
-0.05588432 0.25028735 -0.18732786
-0.16971411 0.08784048 0.10072722
-0.15365940 0.11946858 0.15692222
0.14004369 0.34820020 0.07116124
0.18822858 0.04947773 -0.09524459
0.14549698 0.64043975 0.24488717
-0.20889351 -0.65815252 -0.07921059
-0.46832150 -0.42075533 -0.31553167
0.32731503 -0.16917136 -0.32211775
-0.46900803 -0.26948079 -0.03909226
-0.13244848 -0.28757587 0.26719019
-0.49015740 -0.45732147 -0.31715780
-0.01933932 0.23098645 -0.07792129
-0.19727693 -0.36710465 0.21370986
0.23321399 0.63882184 0.20879781
-0.27092028 0.11469513 0.06866565
0.18722460 0.50115359 0.18694687
0.22555014 0.37649983 0.23635527
0.20641801 0.49885133 0.22782435
-0.12737405 0.07462940 0.00048130
-0.10858675 -0.12299010 0.22793137
0.45761797 -0.25729311 -0.40816683
0.31054401 0.40099701 0.00496034
0.20308608 0.22719935 0.22382520
0.28584534 0.55748641 0.20385450
-0.13647477 -0.02059317 -0.19403663
0.27936640 0.16992219 -0.02015462
0.05918048 0.05075824 -0.12670912
-0.05416582 -0.19763297 0.20931400
-0.14682533 -0.00621958 -0.21525455
-0.63774991 -0.33407003 -0.17944175
-0.47528526 -0.28222945 0.09383875
-0.06613741 0.20706183 -0.19320446
0.28287449 0.37126896 0.23322684
-0.29230237 -0.60060316 -0.04862854
-0.48923993 -0.24863011 -0.18054773
-0.09843163 0.28898293 -0.05642235
0.30825409 -0.23603439 -0.38839597
-0.29863584 -0.43851411 0.10798275
-0.05602629 -0.19098288 -0.25418264
0.29234409 0.49384567 0.08261690
0.30438066 0.50344908 0.21002561
-0.10081482 -0.42698669 0.08729541
-0.62246311 -0.32623643 -0.24150053
0.15963268 0.35118675 0.04151337
-0.13048902 0.29894048 -0.10726324
0.16282713 -0.45956612 -0.02802186
0.23382261 0.64098114 0.35903573
0.15176465 0.18171933 -0.24563666
-0.22056244 -0.55207646 -0.01698940
0.09158127 0.05840383 -0.10729733
0.28425825 0.01528242 0.06958556
-0.38280025 -0.11992529 0.26223084
0.18695876 0.26536965 -0.05921386
0.00315102 0.17339882 -0.21081555
0.28946716 -0.13153988 0.29361874
-0.33007106 -0.37992042 0.15989979
-0.58083522 -0.28703204 -0.22936210
-0.26747924 0.11569187 -0.00047342
0.11933869 0.75033057 0.33716214
0.25043917 0.82793289 0.22747450
-0.34224495 0.09482232 -0.08155470
-0.56776130 -0.37461132 -0.20994508
0.14748429 -0.26606083 -0.23086852
0.24214053 -0.06481698 0.35382649
0.00616451 -0.26216197 0.13896005
-0.00306652 -0.32821840 0.11166993
-0.42457917 -0.08397438 -0.19092962
-0.00953586 -0.29406163 0.14592794
-0.51209146 -0.11370254 0.03659485
0.32558814 0.41498181 0.22533672
0.21635124 0.67354310 0.22982569
-0.24939591 -0.27171844 0.29059577
0.25078520 0.64502448 0.26143438
0.22380826 0.17484799 0.22902606
0.29283556 0.64440966 0.35527164
-0.53546238 -0.40452558 -0.35401651
0.24445498 0.63186246 0.05594373
0.14447729 0.13316788 0.21744861
0.06520736 -0.08491383 0.45715505
0.12901551 0.83747822 0.33279586
0.21741542 0.22453851 -0.08234615
0.27910617 0.01327558 -0.03970423
0.21800143 0.93966204 0.20523359
-0.50802094 -0.14306355 0.08889353
-0.51002973 -0.51754791 -0.39790225
-0.29367727 -0.67675024 -0.06339990
-0.16781011 0.03633390 0.20021397
0.13788933 -0.48836035 -0.14140345
-0.42906198 -0.04648577 0.18964399
0.23203972 -0.27940735 -0.29341310
-0.15967372 -0.40040886 0.16585433
-0.43698129 -0.39454603 -0.32330582
0.21292269 0.45635670 0.08500209
-0.35124817 -0.35745806 0.17759822
0.41760942 -0.05353700 0.14487064
-0.45299450 -0.31000793 0.09345593
-0.03724692 0.22389729 -0.20501179
0.07334626 -0.34376764 0.06825135
-0.52029401 -0.12402704 -0.00471368
-0.49046049 -0.28569055 -0.29986143
0.24571767 0.88555890 0.28206369
0.30067515 -0.28186363 -0.25283647
-0.02072462 0.20680118 -0.15005255
-0.34217799 -0.58611357 -0.14096358
0.13683400 0.73941058 0.24194759
-0.46806583 -0.06954084 0.13178949
-0.10654205 0.12817925 0.09388687
0.26859763 -0.03222969 -0.07496022
-0.08844878 -0.42818123 0.03808220
-0.20496446 -0.36273104 0.23336256
-0.00293592 0.19237059 0.10928923
0.37924388 0.55035406 0.30870920
0.42128351 -0.31120753 -0.49794331
-0.44529873 -0.00491576 0.13281685
0.30506033 0.03002363 0.12965006
0.18919545 -0.10307264 0.12961435
0.16834474 -0.22366342 0.07585140
0.08065377 -0.13165963 -0.27335703
-0.29952145 -0.33660427 -0.15809210
-0.15452574 -0.46850461 0.05418563
-0.23802882 -0.50222826 0.05828132
-0.20333336 0.04034087 -0.19315054
0.21177122 -0.15765116 0.07350618
0.20065781 -0.07095370 0.12576360
-0.08253875 -0.41178000 0.04559472
-0.57080686 -0.53623462 -0.29469225
0.32509145 0.12516156 -0.17957437
0.02286301 0.19868690 0.16191979
0.25215697 -0.09358579 0.34522095
0.23048234 0.87416309 0.10835154
-0.58633316 -0.36675864 -0.16504732
0.29183748 0.24827272 -0.05645220
-0.45299074 0.00301473 0.00741451
-0.32186830 -0.36038220 -0.21420379
0.37606323 -0.34193498 -0.36930609
0.12883800 0.05202249 0.18132304
0.18667802 -0.02898835 0.38484600
-0.58361912 -0.39850938 -0.32254598
0.20037916 -0.32000896 -0.07696719
0.27313200 -0.09226447 0.01190054
-0.44510135 -0.11460257 -0.18825106
-0.05934928 0.23268461 -0.09972968
0.26648027 -0.00690933 0.07201421
-0.23525947 -0.59912586 -0.15670949
0.16981754 0.17545326 -0.11473854
-0.10823325 -0.35213047 -0.15043038
0.13208212 0.09879616 0.26795191
-0.04190060 -0.06506905 0.21840636
0.48993018 -0.36569041 -0.40511939
-0.23414733 -0.14978367 0.31883833
0.29885304 0.42387509 -0.00258647
0.32921639 0.45085025 0.01833173
-0.49921933 -0.27969036 -0.25980726
0.25884199 -0.12507430 -0.25674021
0.01830808 -0.22876415 0.15418050
0.22062585 0.91097307 0.20413306
0.24519575 -0.26170519 -0.21923804
0.17131183 0.05406509 0.33195865
0.21766818 0.49290425 0.12723246
0.29499501 0.88004029 0.14554766
0.13511345 0.22588480 -0.20106417
0.12834193 -0.58689147 -0.04185325
0.35664028 -0.30724514 -0.42811027
0.27809680 0.02061486 0.08673996
0.14624043 0.31939813 0.22075750
0.04919714 0.12202774 -0.03522054
-0.16974539 -0.24023914 -0.27165365
-0.14682966 0.11236651 0.11192915
0.16523698 0.04951479 0.26452321
0.18093082 0.26184797 -0.10957706
-0.00349265 0.16223910 0.04750502
0.24872547 0.02880937 0.30402812
-0.07962094 0.12903634 0.04735350
-0.39968374 0.03986523 0.19976212
-0.21456601 -0.35053438 0.23338524
-0.03331828 0.22734892 -0.09966648
-0.00140804 0.02542089 0.46518284
0.15152374 -0.49482775 -0.03510444
0.17603585 -0.60390681 -0.11694811
0.35484293 -0.01659897 0.14105855
0.28421867 0.04253698 0.15420809
-0.50378180 -0.13475788 -0.11888155
-0.52800119 -0.46211874 -0.35470769
0.26900378 0.84508628 0.20297708
0.30791220 0.16807956 -0.20057805
0.28408745 0.16997796 -0.07443590
0.06907932 0.20657444 -0.08686941
0.32439366 0.13847135 -0.18835492
-0.13381179 -0.39479959 0.17514876
0.26437882 0.61180651 0.29146492
-0.08982082 -0.38322592 -0.05138688
-0.60574973 -0.30158630 -0.22434163
0.10787866 0.11940602 0.25753739
0.00242519 0.19554232 -0.14301082
0.09975079 -0.37507129 0.04265656
0.33483794 0.20665759 0.04242799
0.03886436 0.19576281 -0.13882384
0.25655624 0.54113001 0.14712037
