0.36396602 -0.18158783 -0.17119355
-0.15925735 0.27048668 0.17013077
-0.15077832 -0.20277719 -0.53349108
-0.08922905 -0.05607937 0.67181486
0.50084919 -0.09116842 -0.49448669
-0.05488240 -0.42776000 -0.22032660
0.02283282 0.76568455 -0.37596691
0.45276487 0.55887353 -0.04766751
-0.18142848 -0.29088181 -0.52449864
0.34495273 -0.06721525 -0.50857306
0.07095054 0.43539715 -0.19189417
0.10681576 0.00757137 0.48646778
0.33084321 -0.03435038 -0.49079090
-0.52246475 -0.26097488 0.34685856
0.37204483 0.63105994 -0.13215530
0.01293192 0.50162327 -0.02136962
0.26876947 -0.27850431 -0.25799349
0.35595745 0.69143885 -0.08634037
0.04039183 0.40094435 0.03829073
0.17352834 -0.22098534 0.06133401
-0.41521764 -0.00516288 0.20785101
0.38725466 -0.39763886 -0.10909593
0.41799575 -0.14777447 -0.50241894
-0.62440181 -0.19673689 0.29546887
-0.54943097 -0.39668983 0.12773943
-0.65538669 -0.11315365 0.22135760
0.35041112 0.64539874 -0.10643959
0.13455705 0.73240858 -0.25376546
-0.09065664 -0.18152015 -0.14891908
0.43763945 0.82448041 -0.04134332
0.39653650 -0.18790422 0.23014019
-0.41699743 -0.39391613 0.08767965
0.38456872 0.06220114 -0.55913037
-0.23656754 -0.36547071 -0.28229091
0.27399489 0.00080612 -0.36302406
0.27427751 0.51769906 -0.41441873
-0.10994391 -0.33169556 0.59146750
0.23186815 -0.09083183 0.02601230
0.27728283 0.57089436 -0.18203829
-0.09371071 -0.28813124 0.36295962
0.40727830 0.02598138 -0.58922362
0.06113119 -0.41672581 -0.29503399
0.45882434 0.29158962 -0.45828468
0.38425273 0.81561595 -0.05013242
-0.11384716 0.47168738 0.12385974
-0.11983278 -0.30736065 -0.54060513
0.28723326 -0.04964243 0.09537916
0.22476792 0.07190248 -0.18096302
0.42871231 -0.11717825 -0.45148718
-0.11114376 0.29201567 0.08051350
0.28737459 -0.08235349 0.14672980
-0.51774776 0.01181716 0.10774193
0.44078568 0.25257066 -0.55601174
0.10556622 -0.18641357 -0.44106188
0.33994302 0.79033047 -0.13079876
-0.29773763 0.17136165 0.46875826
0.13595955 0.71206528 -0.25594100
-0.41802707 -0.13856150 0.44599077
-0.13308638 0.00385919 0.50233686
0.09726177 -0.35756201 -0.13470635
0.09152281 0.51841849 -0.05152529
-0.05064654 -0.28502750 0.01412958
0.04391932 0.70353621 -0.33293092
-0.49801862 -0.19273399 0.36522093
-0.01475018 0.39147502 0.11387581
-0.25966653 -0.05559246 0.42724520
-0.14644030 0.36426103 0.07346197
-0.17934448 -0.03113417 0.50433731
-0.13867483 -0.00839178 0.44115818
-0.06735304 -0.09495445 0.00361219
0.03366366 -0.11047520 -0.24298471
-0.27368194 -0.29095793 -0.38577318
0.06356809 0.79909939 -0.33632860
0.50833905 -0.02903706 -0.49808866
-0.64610732 -0.19010048 0.02382225
-0.17241374 -0.04574534 0.15201047
0.17105435 0.79017675 -0.23095858
-0.11090930 0.61170179 -0.47647434
-0.15303716 -0.14741872 0.66157800
-0.16393453 0.36132741 0.09400153
-0.32129529 0.05108191 0.42343751
-0.07313902 -0.27096671 0.03132921
0.51530492 0.70441318 0.01705405
0.14640613 0.49372393 -0.29425469
0.19604605 -0.34689921 -0.11930797
0.32270536 0.01399410 -0.31786197
-0.62071061 -0.16177075 -0.00881098
0.32300469 0.29385802 -0.49747336
0.07766737 0.35753715 -0.00085291
0.38999626 0.04079984 -0.56499684
0.43183917 0.83360356 -0.00614811
-0.03777377 0.31373370 0.13245670
0.06175257 0.51218909 -0.18566956
0.34049696 -0.09293415 -0.42576098
-0.09609737 -0.10130377 0.32088816
-0.27478155 -0.29386634 0.39957675
-0.26422000 0.43185127 0.29154235
0.34567502 -0.44189715 0.03775205
-0.19022819 -0.16404428 -0.19912843
0.08192065 -0.21447657 0.04151455
0.06651448 0.01867454 0.58547670
0.35484037 -0.03388388 -0.01769074
0.05088416 -0.15688382 -0.14982562
-0.53157258 -0.29410070 -0.02960387
0.28786388 0.06797671 -0.45400602
0.23683032 0.74472117 -0.17509675
-0.01065498 -0.08288686 0.70300835
-0.05470505 -0.03111486 -0.02341879
-0.48565015 -0.39896017 0.22421940
0.41365406 -0.10785435 0.20018007
-0.39430732 -0.34157401 0.29006654
0.38472307 0.09034847 -0.36462480
-0.29349208 -0.28383261 0.36556143
0.30139720 0.05614676 -0.46295476
-0.38546941 -0.00113888 0.38924789
-0.13788328 -0.22207998 0.66662973
-0.17870951 0.45417863 0.21583831
0.26570025 0.82450593 -0.16925882
0.25838140 0.58936983 -0.27764657
-0.06470098 -0.03427365 0.00938739
0.54320037 -0.15419023 0.13375990
0.17051914 0.04487172 -0.29572961
-0.15991741 0.59763783 -0.52718920
-0.34222743 -0.01829228 0.36581206
0.01325392 -0.02259433 -0.09371187
0.31322294 0.40899724 -0.30162147
0.25163597 0.35944444 -0.41292867
0.22983769 0.17819840 -0.17577355
0.28412652 0.22093318 -0.44661567
-0.36452255 -0.06662770 0.27022883
0.14287317 -0.23135771 -0.27505261
-0.66800278 -0.28773880 0.14791164
-0.42286086 -0.18639760 0.46753940
0.12911968 -0.13402124 0.65390313
0.43687016 -0.14979596 -0.54147369
-0.02887176 0.70072430 -0.40600005
0.38754302 0.42858940 -0.43718904
-0.04426279 -0.20329846 -0.54520339
-0.34317571 -0.25006038 0.33985287
-0.42854953 0.15549612 0.42309701
0.40140650 -0.11429681 0.20468871
-0.60316956 -0.04643114 0.23109235
0.20344228 0.12536559 -0.34305257
-0.09088942 0.81891882 -0.45156604
-0.09362225 -0.05997293 0.03825118
-0.67708254 -0.26180166 0.18193892
-0.40241122 -0.00262885 0.40449041
0.03525944 0.47248983 -0.38628691
0.03883370 -0.01964574 -0.10861869
-0.01092622 -0.44629401 -0.40203831
0.24019077 -0.34700114 -0.09945802
-0.04899691 -0.10112537 -0.20090485
-0.16469854 -0.29263771 0.42258877
0.02511634 0.03497168 0.58076108
0.33224565 0.05287413 -0.49352521
-0.00642109 -0.22015400 0.14162070
-0.43780136 0.16781014 0.43261281
0.02558763 0.31336534 0.00258458
-0.00759064 -0.10054438 0.14398974
0.06403211 -0.22622998 0.05697673
-0.21974242 -0.20450731 0.18849833
0.41617066 -0.01255699 -0.58566302
-0.32159001 -0.20082234 0.00402271
0.32175297 0.50927818 -0.38250482
0.09941892 0.75273073 -0.28425917
-0.63526750 -0.14707901 0.27734661
0.20983720 0.50700438 -0.37933210
0.08486180 0.74349797 -0.30828360
0.43886861 -0.09165557 0.16832662
-0.14277986 -0.00473310 0.47069678
0.03461769 -0.17871006 0.08228080
-0.62757391 -0.24513255 0.01986573
0.10722350 0.47821552 -0.24482593
0.12593256 0.70256847 -0.26772985
0.31259471 -0.29195398 0.21287747
0.29294300 -0.28726780 -0.17492320
-0.22149621 -0.39200902 -0.38939604
0.45382059 0.66751760 -0.01708836
-0.20935017 -0.10411985 0.17354596
-0.62471557 -0.33258194 0.22244604
0.25789174 -0.08940469 -0.20933732
0.23081574 -0.08288042 -0.27587798
0.13838652 -0.22772087 0.63685608
-0.01900036 -0.32716447 0.37965178
-0.17718026 0.44686645 0.22628084
-0.22953691 -0.22376598 -0.21990249
-0.06612674 -0.05453981 0.18055104
-0.22960477 -0.22758986 0.47655642
0.07299970 0.71337086 -0.34933764
-0.23415755 -0.24885707 0.42770869
-0.32839975 -0.09576480 0.28156653
0.10536018 -0.32820660 0.52602386
-0.37035525 0.21148111 0.57277709
0.26614967 -0.08400624 0.13853785
-0.39223650 -0.11495690 0.33197874
-0.07506012 0.48002744 0.10052916
-0.05707366 -0.04140058 -0.37796235
0.48561007 0.66080505 -0.02940120
-0.20637700 -0.25424325 0.53538597
0.27800190 0.54066944 -0.17468248
-0.22340108 -0.39988154 -0.30895075
0.22534046 0.01491183 -0.31335154
-0.00295020 -0.05691548 -0.36609530
-0.48174444 -0.02857865 0.52816802
-0.18530442 -0.04672413 0.24967448
0.39306220 -0.09441645 -0.13037848
-0.10469687 -0.19478618 -0.54265815
0.10513011 -0.35700399 -0.42107287
0.41594896 0.09527653 -0.59040046
0.05299519 -0.20150594 -0.16225886
0.06426691 -0.10914053 0.04993078
0.35779595 0.15059650 -0.52399123
-0.34319478 0.09240799 0.40208778
0.16893335 -0.09990387 -0.28062153
0.18313280 -0.33253300 -0.06471451
0.14475282 -0.36276662 -0.17200023
0.04368526 -0.42853290 -0.30991045
0.42875734 -0.04263015 -0.02531556
0.30119738 0.33599660 -0.47768849
-0.19121887 0.25384271 0.28855366
0.11709552 0.02776696 -0.23719361
0.40275732 0.11900559 -0.59081906
-0.46750391 -0.39808655 0.23879288
0.47306633 -0.06198351 -0.05914639
-0.20540603 -0.08671664 0.57280052
-0.26069927 -0.24824326 0.14908466
-0.15155122 -0.07708214 -0.25691426
-0.16741157 -0.23857154 0.63702184
-0.41114521 -0.40708262 0.17326093
-0.01638165 -0.35326022 0.42825663
-0.06372982 -0.02073860 0.09489655
0.17272440 -0.14689834 -0.27915183
-0.11294407 -0.36164248 -0.52882814
-0.28963941 -0.20448004 0.05179397
0.42230642 -0.10835971 -0.13088818
-0.13281780 -0.16971742 0.08437921
-0.63874179 -0.09536000 0.20820615
-0.00865018 0.48461920 -0.44932961
-0.05408284 0.55311018 -0.43969929
-0.15169460 -0.17692442 0.66793323
0.35888401 -0.02607194 -0.34558827
-0.31642622 0.07316531 0.51026213
0.08118701 -0.04816984 0.66196704
-0.17370763 0.30900055 0.12393804
0.25373620 0.03566001 -0.38185620
-0.52572072 -0.11344506 0.33992940
-0.60067177 -0.16859041 -0.01008058
0.43822938 0.06331646 -0.61435777
-0.36160129 -0.08248998 0.35005993
-0.00712390 -0.29749036 0.09251946
0.14587167 -0.20060878 -0.05546770
0.49670750 -0.14105003 -0.11528215
0.21348152 0.64858061 -0.24462417
0.07045737 -0.00099239 -0.07044886
0.37885311 0.12504521 -0.54916030
-0.15486541 0.42387739 0.24580812
-0.18935896 -0.11612989 -0.23807847
0.19838339 -0.31087613 -0.07375110
0.27606601 -0.25316083 -0.25625527
0.04288249 -0.09256826 -0.12779632
-0.58393711 -0.18762548 0.32067013
0.49975646 -0.28395927 0.19336331
-0.40304345 0.09263343 0.39719230
-0.11356382 -0.27382576 0.36491939
-0.04163868 0.47205943 -0.06595110
0.33862311 -0.10145880 0.18487813
0.21760595 -0.16710143 -0.29695824
0.27438053 -0.11477293 -0.21351105
0.03116089 0.65273458 -0.35661039
0.48867947 0.63497663 -0.03341228
0.13565989 -0.33031726 -0.04123590
-0.45517230 -0.03680666 0.28595847
-0.18154275 0.44840580 0.25242546
0.44866168 -0.41406220 -0.05379865
-0.42083076 -0.37450254 0.05575809
0.17841320 0.78213322 -0.26269585
0.33590490 0.70660239 -0.15151277
0.43090522 0.76968253 -0.06083358
0.17774679 -0.10449810 0.48538566
-0.15304813 -0.23258780 -0.15002917
-0.43831804 -0.06238534 -0.01138849
0.08032948 0.53667450 -0.36032158
0.04640026 -0.33152807 -0.16889863
0.24292481 0.04467903 -0.37153688
-0.17915921 -0.26299095 0.15547609
-0.05669773 0.03214097 0.44913653
-0.46330538 0.01023081 0.57155073
-0.22059344 0.24561490 0.25946844
0.13494052 -0.19504531 -0.03591149
0.26963609 0.64973772 -0.20425436
-0.41601029 0.29086357 0.40005043
0.38815889 0.68379092 -0.08370464
0.27355778 0.12512028 -0.22466120
0.11354466 0.83875626 -0.28754583
0.31697786 0.34978479 -0.49091280
-0.41470426 -0.04893942 0.58892107
0.12983638 0.82277471 -0.25023428
-0.18116972 -0.30673170 0.27346408
-0.03633712 -0.13363917 0.18357091
-0.01876840 0.69157815 -0.42538279
-0.10040008 -0.31801850 -0.53755480
-0.08104769 -0.28676170 0.06368446
-0.09408154 -0.27894962 -0.13208756
-0.54795241 -0.20049362 0.34193042
0.32447988 0.57113951 -0.11878410
-0.10472377 -0.04922841 0.65776604
-0.03478456 0.61038488 -0.43491793
0.37108812 0.04206955 -0.54887325
-0.41749287 0.16715074 0.42131799
-0.60164064 -0.37025100 0.15740170
0.27160826 0.44008768 -0.24214172
0.39949691 -0.36439282 -0.14144269
0.05162034 -0.32103926 -0.11977468
0.27941111 -0.05558456 0.04174398
-0.33321029 0.17458822 0.38804656
-0.02899819 0.00034325 0.37394676
-0.32441053 0.36613661 0.29833770
0.53906798 -0.28480566 -0.10927123
0.50480324 -0.09807785 0.13834602
0.10173860 -0.18133064 0.02936299
-0.08527310 -0.23979805 0.03925747
-0.37305960 -0.04875608 0.38192752
-0.25755331 -0.23101045 0.19550462
-0.02114429 -0.23944123 -0.12491162
0.35725209 0.31855673 -0.54163593
0.08326811 0.31237763 -0.21412873
-0.15324000 0.26899657 0.29258335
0.49304312 -0.18481795 -0.13783391
0.33034509 -0.07061340 -0.48709047
0.40983984 0.57403952 -0.06052282
-0.27585953 -0.29930484 0.34644157
-0.60746741 -0.12348776 0.28960419
0.17935883 -0.24043442 0.10513169
-0.04487836 0.66383439 -0.46151799
-0.23860635 -0.18054862 -0.45269382
-0.28419030 -0.03529999 0.37193498
-0.16955940 -0.13174312 0.64436775
0.17622264 -0.12534253 -0.07592452
0.33151847 0.49719262 -0.40180764
-0.11400376 -0.15496747 0.30065754
-0.02542344 -0.30220693 0.10463929
0.58460224 -0.27161795 0.01709915
0.11294733 0.13578589 -0.22038767
0.44457865 0.84056062 -0.03564284
-0.59965914 -0.31784540 0.01239795
0.08684812 -0.28058624 -0.47491080
-0.06910815 -0.02813438 0.34929162
-0.27879900 -0.28983241 0.18351544
0.33138552 0.33061594 -0.31958207
0.39119509 -0.00062141 -0.37890011
0.25513360 0.58682305 -0.24887124
-0.33623824 -0.19171481 0.32744312
0.40212440 0.74128819 -0.09269969
-0.40077111 -0.33720076 0.01938560
0.21291590 0.08282631 -0.35247716
-0.33377570 -0.35222501 0.14446253
0.31670889 0.47350448 -0.45288932
0.25145164 0.11098459 -0.19411607
0.36083433 0.61710459 -0.14756979
-0.20037213 -0.09966017 -0.31137505
-0.14964810 -0.32572085 0.47459075
-0.23195097 -0.36213934 -0.25845939
0.39861774 -0.29923058 0.23180836
-0.13092110 -0.03199001 0.22408234
-0.61855745 -0.08512460 0.04608172
-0.26699716 -0.32103765 -0.31763625
-0.46345016 0.02314861 0.47786757
0.01200560 -0.24245013 0.69682646
-0.13592365 -0.05252989 0.36979795
-0.01622863 -0.01252675 0.65899909
-0.13637199 0.54786420 -0.50726461
0.44608533 -0.21521436 -0.17271070
0.12686676 -0.12433498 -0.24233136
-0.13190855 -0.14368136 -0.51675808
0.17330718 -0.26458597 -0.05375456
0.53808892 -0.11999543 -0.04004779
0.33581924 0.15674788 -0.50033128
0.21014678 0.34411293 -0.16522013
-0.18463086 -0.43284953 -0.37804812
-0.56239706 -0.16428722 -0.04099262
0.47536236 -0.07000498 0.11529841
-0.08985105 -0.00101894 0.39004728
-0.46839812 -0.39942741 0.08484644
-0.19110411 -0.31306034 -0.17588641
-0.14087775 -0.09504093 -0.22556129
0.30493346 0.44301507 -0.29516438
0.22390428 -0.16185741 -0.12411474
-0.35661867 -0.23006685 0.39345503
0.08474264 -0.07117690 0.35802194
-0.26404727 0.23345488 0.38246506
-0.24730700 -0.26237750 0.23829073
-0.47839811 -0.04513614 -0.00466818
-0.08956953 -0.13032310 0.31236812
0.13025942 0.01784182 -0.24834588
-0.30886754 0.35411024 0.27129716
-0.08148696 -0.06051345 0.02248933
0.22249991 -0.31836683 -0.11731151
0.03818250 -0.26912791 -0.52688622
0.39828399 0.56430340 -0.11786275
0.09435675 -0.35171545 -0.07566614
0.30164683 0.46735823 -0.28522047
-0.14405204 -0.30054104 -0.15417127
0.27819011 -0.17908721 -0.15199783
0.21194068 0.76451772 -0.22312158
-0.32163414 0.08777276 0.51374298
-0.27849948 0.39953858 0.23786068
0.46736419 -0.01763053 -0.60399163
0.07975386 0.56332028 -0.16973069
0.05302989 -0.21896927 0.07704304
-0.09228674 -0.02164564 0.36282969
0.02427974 -0.19081341 -0.52351803
-0.20796224 -0.31996697 -0.48969775
0.33035958 0.07711624 -0.49077404
-0.38478535 0.36608285 0.43010962
0.14749101 -0.13756011 0.63505799
-0.12466235 0.34957993 0.24481951
-0.29188353 -0.27137387 0.05989881
-0.03318513 -0.09491812 0.31792244
0.53320634 -0.37030083 0.08705423
-0.27309906 -0.22522865 -0.29333493
-0.34943247 0.21378933 0.53566015
-0.45322600 -0.05442376 0.30665699
-0.62766522 -0.06625490 0.12000570
0.23012480 0.63741088 -0.24620172
-0.44214579 -0.07795216 0.56218511
0.25413477 -0.16880573 -0.15570930
0.17608169 -0.02250955 -0.27753407
0.21458280 0.26142907 -0.36735168
0.33282557 0.21000300 -0.30357471
-0.00286407 0.49550825 0.03204023
-0.06766181 -0.43839049 -0.45090824
0.37902355 0.11642785 -0.36688259
0.27118066 0.52666831 -0.19266909
-0.45230359 -0.36378121 0.27961260
0.20750931 -0.31640184 -0.25575384
0.17372701 0.43384010 -0.32536015
0.36962599 0.05544554 -0.34596792
-0.36044642 0.19514768 0.56676906
-0.18277107 -0.07481162 0.60160494
-0.06197133 -0.36267555 0.51737791
0.25006735 0.46093953 -0.23536268
-0.29778999 -0.28761792 0.24661557
-0.13314085 -0.40703988 -0.47455436
0.42881328 0.02427247 -0.61052817
0.35486707 0.11288325 -0.32551971
-0.04422530 -0.23185466 -0.02699061
0.06842980 -0.00169246 -0.02553048
-0.65992802 -0.10005845 0.12702668
0.17923756 -0.20271750 0.02795181
-0.10462400 -0.25316888 0.34576035
0.33997336 -0.05313228 -0.07654893
0.00330118 0.47468984 -0.44877568
-0.46624607 -0.16125412 -0.05354204
0.13556941 0.36258304 -0.28380364
-0.14449564 -0.04773553 0.13130729
0.05184380 -0.32918829 0.61704195
-0.41376373 -0.11000322 0.56679767
0.04814477 -0.17651312 -0.48972589
-0.32705784 0.19658574 0.51044685
-0.08785185 0.46195573 0.14508289
-0.50172472 0.01074544 0.15426201
-0.43143722 0.29858088 0.42400807
0.03102194 -0.08881252 -0.27016559
-0.26709065 0.25764805 0.24901861
0.39648920 0.01711740 -0.36627394
0.14064808 -0.26298308 0.41868365
0.13854684 -0.03568633 0.46472752
0.02952697 -0.18722843 0.10497397
-0.66561460 -0.27751505 0.09425832
-0.05853728 -0.04062840 0.15678570
-0.45277676 -0.39813662 0.12085102
0.32884827 -0.44007510 0.02941708
-0.40324354 -0.25111037 -0.04822753
-0.43734869 0.21968785 0.43869129
-0.15073785 0.70009553 -0.51003057
-0.14830196 0.30299664 0.08642076
-0.26090819 0.26916176 0.42531735
0.23232618 -0.14953469 -0.08285198
0.13682353 0.75824547 -0.25375664
0.03022374 -0.23033796 -0.14493595
-0.18830228 -0.26287198 -0.16809532
-0.27436775 -0.29243279 -0.35838336
0.37167764 0.56051445 -0.08741918
-0.64761287 -0.08879517 0.09470038
0.35024643 0.68835491 -0.14156565
0.39384428 0.11539240 -0.56834066
0.35358611 0.01259001 -0.33425865
-0.03131598 0.42904228 0.12310363
-0.58435267 -0.23760559 -0.02525814
0.29598719 -0.05185874 -0.02973798
-0.21061213 -0.29379410 0.23217179
-0.47926515 0.11954303 0.54051435
0.38108766 -0.12556599 0.20789576
-0.03419435 -0.24228965 -0.11968614
-0.34427688 -0.08453925 0.33774492
-0.19400518 -0.06341420 0.56463921
-0.10906214 -0.04360081 0.36005273
0.17407706 0.58293998 -0.20617142
0.58693594 -0.25918174 0.01627712
-0.34127736 0.23786068 0.33264065
-0.09261880 -0.20910881 0.26432893
-0.43678805 0.00266753 0.59171230
0.19090670 -0.01845700 -0.28496537
-0.39568797 -0.23755987 0.43393186
0.17792615 -0.26853979 0.07010181
-0.60470301 -0.27609289 0.29837403
-0.45304021 -0.03857900 0.48263374
-0.00241621 -0.31865954 -0.03340796
-0.11856596 -0.30619574 0.62679392
-0.23045804 -0.34424669 -0.24417025
-0.07133213 -0.13814257 0.01795522
0.25870544 0.51272643 -0.18283449
0.31591696 -0.06208633 -0.43693098
0.22125873 0.28049746 -0.37903199
0.08525506 -0.03695422 0.01905473
0.01971233 -0.45089257 -0.36075374
-0.00691858 0.70074117 -0.42031381
0.23028001 0.35686862 -0.19597062
0.12636295 -0.32734323 -0.23944142
0.17803660 0.08019078 -0.12144902
0.02989724 -0.14186655 0.09387940
0.36578342 -0.39208096 -0.11684965
-0.06210744 -0.01392812 0.65169543
-0.11980772 -0.13629337 -0.50719249
0.54388040 -0.35148466 0.10192281
0.33916071 0.26520619 -0.32153812
-0.06262532 0.36423135 -0.02911295
-0.61608857 -0.17662583 0.00230508
-0.42980421 -0.00116345 0.20588753
-0.31976491 -0.18829720 0.00954346
-0.51923966 -0.03384405 0.03197913
0.24594188 0.42477554 -0.22726268
-0.08679348 -0.35356867 0.47319227
-0.13945299 -0.29398555 -0.53917396
-0.59280485 -0.32369715 0.27388638
0.06352218 0.53658450 -0.35084054
-0.37417191 -0.15888922 0.34059888
0.18191321 -0.34729922 -0.21770012
-0.24245094 0.38217407 0.18802169
0.57217133 -0.32172292 0.00479187
-0.01567122 -0.28392327 0.67552936
-0.46709147 -0.03175838 0.28305960
0.04608394 0.33540305 0.03894684
-0.28455168 -0.28742427 0.07948543
0.32887107 -0.02953471 0.03889138
0.08501793 -0.12272437 -0.28430247
-0.09915832 0.33415097 0.21925960
0.00304401 0.38463327 0.08591770
-0.33065394 -0.06710769 0.24416341
-0.46160373 0.20342237 0.47198355
-0.14984725 -0.12389009 0.33540031
0.27500179 0.13193224 -0.42923778
0.03415576 -0.01771618 0.06633945
0.09257436 0.01734260 -0.20684317
0.43487787 0.63165838 -0.02936611
-0.59591007 -0.25900656 -0.01680404
0.39154512 -0.12780319 -0.54526353
0.07090750 0.80060178 -0.30093569
0.20898414 0.40872777 -0.16669837
0.53019762 -0.33285022 0.14081743
0.07494524 0.55235916 -0.34998369
-0.11435167 0.70674056 -0.50209868
-0.54592317 -0.00031847 0.11851166
0.13795799 0.28791943 -0.10364060
0.40007544 0.06490515 -0.58582002
-0.04914169 -0.43237036 -0.46307153
-0.20024280 0.44644925 0.25652876
0.18744989 0.52552968 -0.14048266
-0.00733350 0.52978414 -0.41299817
-0.47151914 -0.05522268 0.30794483
-0.31325629 -0.08628337 0.06525122
0.27791804 0.09170587 -0.42945805
-0.06567106 -0.07387827 0.33213380
0.49197406 0.77957749 -0.00362384
-0.02951622 -0.27999061 -0.12284251
0.47554523 -0.16832744 0.20281209
-0.44186679 0.00381836 0.45742404
-0.16182292 -0.28362417 -0.15416846
0.05075540 -0.25794405 0.33267829
0.16849859 -0.19828512 0.42684937
-0.04126013 -0.29602611 -0.54165596
0.46423852 -0.14047550 -0.45782077
0.36848179 0.17832559 -0.34627631
-0.05399979 -0.37633312 -0.17945394
0.05310369 0.31636924 -0.17419787
-0.40512010 0.04633184 0.42864516
0.16555455 0.53732431 -0.33470261
0.02198915 -0.26027673 -0.09333932
0.18245907 -0.02560292 -0.09464872
-0.02630082 -0.30097198 0.08547120
0.11666954 0.19072892 -0.22594067
-0.14055741 -0.10754190 0.07963132
-0.57797754 -0.15707816 -0.02542807
-0.03015424 0.05036055 0.49697825
-0.10308680 0.02508253 0.47529840
0.12410663 0.78359181 -0.30433834
0.17230535 0.26442960 -0.11765534
0.34373257 0.27531821 -0.52341634
-0.14524141 -0.07640330 0.28490862
0.23674577 -0.14592300 -0.15167676
0.46468437 0.27449518 -0.49167997
0.39568710 0.32748353 -0.39414623
-0.05038843 0.28984213 -0.00377064
-0.39067537 -0.03913051 0.57288402
0.17448246 0.35266709 -0.11861524
-0.17518589 -0.09344430 -0.25485942
-0.24062897 -0.27010536 0.42558199
-0.13595149 -0.43758667 -0.25994983
0.42984504 0.52145523 -0.07082411
-0.50035524 -0.31158763 -0.02272027
-0.37386540 0.34962285 0.34687051
-0.28543442 0.27824777 0.24969664
0.37966615 0.28001186 -0.37371171
-0.33460087 0.39359128 0.41811419
0.14523154 -0.17516105 0.63775414
0.13798209 -0.13912453 -0.24849811
-0.59760028 -0.23868637 0.31796661
-0.30327821 -0.18744199 0.02509516
0.10075654 -0.06214084 -0.00674939
0.44665104 -0.08140166 -0.09954254
0.14666641 -0.12072550 -0.04955370
-0.48564261 0.03446695 0.51085430
-0.35175690 0.35254169 0.32650712
-0.00077748 0.01395382 0.04037695
0.27784434 0.65290850 -0.15479478
-0.07919507 -0.05538334 0.34410018
0.37404230 -0.31074125 -0.16253008
0.54821682 -0.10697861 0.03836463
-0.26923233 -0.15579502 0.14198798
-0.10319442 -0.07380535 0.33908525
0.01127741 0.36552629 0.07316430
-0.06947803 0.58560526 -0.47489160
-0.53458047 -0.40028334 0.11517054
-0.26784807 -0.06722124 0.33185977
0.04188103 -0.39626193 -0.45450139
0.23158044 0.49559051 -0.39781719
0.36984184 0.36080930 -0.37945434
0.01923197 -0.16910397 0.30792069
-0.11133969 -0.13337283 0.28199708
-0.37895292 -0.09601550 -0.00344807
0.44351625 0.71810418 -0.01286565
0.32157755 0.58700562 -0.16309816
-0.32881367 0.30907536 0.30868566
-0.33985338 -0.22264482 0.33393678
0.40291849 0.87537640 -0.04575617
-0.54017222 -0.07009037 -0.01475895
-0.01766535 -0.36879539 0.54468578
0.06707196 0.80457330 -0.31307626
0.35579583 0.02958749 -0.51772916
0.23589286 -0.11918138 0.10957855
0.08520319 0.32630515 -0.03151318
-0.23850040 0.28287452 0.18728054
0.50756574 0.05557193 -0.51392585
0.16114429 0.22446227 -0.13771959
-0.09357248 -0.06888299 -0.22673711
0.16666982 0.40497220 -0.31289619
-0.63652414 -0.20989077 0.01966564
-0.25631151 0.31608430 0.41324210
0.40239847 0.27157405 -0.56683064
0.36340368 -0.43889964 0.01836541
0.48066634 0.23411421 -0.50817907
0.16449718 0.11267609 -0.28792652
0.38066894 0.81726998 -0.08779834
0.03019319 -0.28475338 0.35247022
-0.22997102 0.36318713 0.17162184
0.04150188 -0.11912967 -0.46174634
0.36879709 0.68449503 -0.08753212
0.56632626 -0.15872155 -0.02869384
0.22364524 -0.12224965 -0.04530836
0.11496221 -0.12920456 -0.00461694
0.42728922 -0.43131876 0.08374014
-0.52563351 -0.06871085 0.30519015
-0.05041184 -0.26430523 -0.54731792
-0.26990476 -0.04145677 0.36650535
0.46454376 0.67119014 -0.04184631
0.28552106 -0.31443268 0.19445346
0.48331910 -0.13081779 -0.51685369
-0.18235889 -0.26586372 0.40363389
0.08725326 0.36173093 -0.02132277
-0.44427776 0.17036603 0.45934993
-0.04659940 0.50204688 0.02116856
-0.08258742 -0.33952808 -0.54427946
0.09600919 0.82943743 -0.29703775
-0.32415950 0.31312501 0.50559348
0.51969880 -0.26087791 0.18528923
-0.08451703 0.45109937 -0.00994720
-0.21980993 -0.40026635 -0.29177937
0.15232442 0.48216343 -0.08983189
0.46821684 -0.07528271 -0.58909035
-0.04607709 -0.43745297 -0.44403756
-0.22680447 0.27270520 0.36414021
-0.02003921 -0.24919607 0.16367441
0.29597071 0.19679432 -0.45288289
0.09871173 0.50246048 -0.04275680
-0.61512858 -0.10228880 0.26614174
0.41427904 -0.05422227 -0.38966432
-0.57884991 -0.27857804 -0.02030260
-0.49772274 -0.41137683 0.13282794
-0.54631066 -0.07941137 0.31168115
0.21812856 -0.14933224 -0.07173385
0.40113658 -0.03171417 0.08717711
0.26860869 -0.39733738 0.10072921
0.31110993 -0.34466749 0.18520081
-0.23305640 -0.08718391 0.42963830
0.32969651 0.09864751 -0.29400170
-0.63224185 -0.31523025 0.23541301
0.14821994 -0.18496598 -0.05363791
0.10051936 0.37797183 -0.03169168
0.12405159 0.32159638 -0.25760987
-0.31231633 0.16024666 0.49514717
0.00076409 -0.40247041 -0.47646797
-0.16714230 0.33750039 0.09851799
0.24805257 0.68680567 -0.17315799
0.41223037 -0.41559088 0.14280146
0.20964855 0.52985865 -0.37014440
-0.33669221 -0.05811013 0.22848859
0.44246364 0.76163381 -0.04105625
-0.29349065 -0.02526562 0.48249161
-0.11041227 0.61875248 -0.50503522
-0.18514946 -0.27519602 0.56144226
0.56863290 -0.16442932 0.09159179
0.41309920 0.65632683 -0.08274056
0.15888311 -0.14913876 0.40165392
-0.05705030 -0.13444887 0.71118546
-0.10418068 -0.13521911 -0.51097196
0.23609790 0.03279354 -0.34243849
0.21084288 -0.34065741 0.10084272
0.13071242 0.33493975 -0.26952046
-0.11454973 -0.09756853 0.05371335
0.18918397 0.43540972 -0.34238204
0.13532685 0.47032356 -0.06948893
-0.05989058 -0.44659424 -0.44387195
0.24739221 0.16986309 -0.19208455
0.40618983 0.60670871 -0.07510974
-0.36943817 -0.11387454 -0.01332569
0.13306691 0.00354445 -0.08387823
-0.32838631 -0.04721047 0.34440035
-0.48105305 -0.21348716 0.36307871
-0.26236069 0.39753518 0.21629004
-0.43313897 -0.00198857 0.07325524
0.22584385 0.05617237 -0.15965590
0.40385419 0.10767562 -0.39738142
0.06830756 -0.34327924 -0.12881096
-0.03992249 -0.01621822 0.04997045
0.38907227 -0.02126321 0.01588269
-0.40976873 0.27160570 0.40367210
0.30432257 -0.15634249 0.19989395
0.19598523 0.42629719 -0.14828032
-0.56887555 -0.05453147 0.27347493
-0.07753488 -0.46515608 -0.29456994
0.22987261 0.41186833 -0.38980192
-0.06231080 0.45586127 0.13634515
-0.14966755 -0.07060780 0.37695011
0.26695946 0.55601764 -0.37635043
-0.60008937 -0.04593207 0.07818452
-0.02201842 -0.05731352 0.14084496
0.39796144 0.08852582 -0.56941706
-0.38998851 -0.11644493 0.40606093
-0.16329873 -0.41102380 -0.23863775
-0.15633310 0.36173099 0.28751433
-0.00957903 -0.18991484 -0.14456932
0.51047283 0.11989412 -0.55430007
0.45485181 0.59823817 -0.01892748
-0.39655936 -0.26685929 -0.02704455
0.13847291 -0.02839282 0.48197985
-0.16424400 0.44157922 0.18696551
-0.28710952 0.18118176 0.45666075
0.12065269 -0.00174995 0.48645061
0.42523012 0.87548018 -0.02560522
0.17927764 -0.12616302 0.44905102
-0.00389517 -0.29259157 0.34405041
0.13529058 -0.25951451 0.62066674
0.33470273 -0.00320673 -0.32808042
-0.28874597 -0.26154613 0.27310115
0.29095629 0.00391828 -0.44030958
0.37716165 0.05005744 -0.36177835
-0.37490627 -0.22640778 0.33328214
0.12199773 0.47352690 -0.26735550
-0.01131585 0.58523744 -0.44002637
0.29352292 0.57999760 -0.18924910
-0.51425570 -0.03611392 0.28143114
0.02575652 -0.11705826 0.09899601
-0.22044933 -0.15692823 0.46623626
-0.06325521 -0.35507113 -0.15696499
-0.45529988 -0.09232818 0.49026009
0.06167557 -0.43105906 -0.34611142
0.21611592 -0.16802122 -0.08694556
0.35178161 0.72658712 -0.12227716
0.23557276 0.79370183 -0.16669989
0.30654764 -0.11434145 -0.13136919
-0.33941671 -0.10385831 0.30256185
-0.16814816 -0.15595292 -0.50339764
-0.06619120 -0.24112679 0.21182162
-0.14437443 0.33605862 0.08147136
-0.22227393 -0.07547961 0.37967283
0.39493254 -0.42261338 -0.04731040
0.40457579 0.82788384 -0.06970538
-0.04171541 -0.46821499 -0.33029544
-0.49739397 -0.10980599 -0.04277948
0.37876850 -0.41253471 -0.09460595
0.18557410 0.23002429 -0.13985655
-0.28879374 0.01556626 0.47288629
0.15541659 -0.19860645 -0.04465374
0.19018920 -0.34481364 -0.10839885
-0.05264215 0.02062230 0.60780156
-0.23644222 -0.30589724 0.30810317
0.02982438 -0.31134820 -0.09380244
0.31434590 -0.31365585 0.20391399
-0.10243116 -0.05643697 0.23844141
-0.22050504 -0.11413066 -0.39814660
0.04386347 -0.27145201 -0.12236610
0.49160194 0.69298559 0.01511746
-0.05621105 0.00978816 0.61512399
-0.18640333 0.26256782 0.17300975
0.44397569 0.51151848 -0.06733475
0.48013926 -0.07473184 -0.46651298
0.49889433 -0.29125500 -0.13607167
0.55251384 -0.34219539 -0.02539614
0.53759408 -0.31769395 0.14710796
-0.39158204 -0.07348053 0.30070499
0.21763059 -0.10244055 0.03165944
0.08868489 -0.16348322 -0.44505140
0.41850266 0.02515753 -0.41336501
-0.02373755 -0.02121259 0.09814498
-0.04498122 -0.06801753 -0.24985102
-0.32723767 0.01591760 0.51445127
-0.02316144 -0.26551515 -0.13401224
0.31337920 0.19102120 -0.29062775
-0.38884023 0.04776491 0.40323761
0.14774458 0.56657594 -0.18986019
0.52179605 -0.38500524 0.00652268
0.03280409 0.54344290 -0.41312915
0.07541257 -0.08715411 0.34714091
-0.05000124 0.42264274 -0.06095294
0.36540475 0.46347272 -0.41367623
-0.44704649 0.10485121 0.58587462
-0.35794663 -0.16308881 0.33707488
0.45938921 0.28214127 -0.50111389
-0.57837176 -0.03719223 0.21869522
0.45744133 0.07487224 -0.44981590
-0.05000102 -0.22397052 0.31082317
-0.07766096 -0.07980902 0.01409964
-0.47292107 -0.11812930 0.34595883
0.16484930 -0.26688242 -0.26258117
0.37506580 0.47953731 -0.12030792
-0.12393385 0.82362616 -0.46819890
-0.21887803 -0.11444758 0.45169696
-0.32764694 -0.10414942 0.53170049
0.06038431 -0.12042148 0.69761032
0.12824483 -0.04448928 0.42438334
0.23645559 0.31960708 -0.19467071
-0.08139224 -0.04489240 0.67137992
0.08426787 0.54216802 -0.21147487
-0.02156683 0.49989206 0.02664404
-0.33984050 -0.23627217 0.34969768
0.09315602 0.29839048 -0.10744873
-0.43756217 -0.14377208 0.49834976
-0.21029510 -0.41798973 -0.35336709
-0.06631798 -0.25514531 -0.13118516
-0.24184172 -0.15228851 -0.39703220
-0.05859196 -0.25756252 0.33047003
0.02268489 -0.15803100 -0.49902105
0.12118539 -0.28243691 0.00308254
0.00234662 -0.26552576 -0.53887719
-0.08422110 0.30315256 0.19208683
-0.53068662 0.00326662 0.17969789
-0.20697077 -0.34558409 -0.47172767
0.29480484 0.35292077 -0.47038347
0.36648852 -0.00968564 -0.34018812
0.02032048 -0.34234649 -0.16699456
-0.39472669 0.26271632 0.40030873
0.31525794 0.23315458 -0.48800057
0.00591996 0.47381121 -0.12906104
0.08092014 0.01032977 -0.17546399
0.21394482 -0.17980872 0.14331141
0.49509972 0.15251082 -0.50824887
-0.38126388 -0.27666229 -0.02511226
0.43098208 0.27492842 -0.42488065
-0.27613893 -0.25484288 0.25755647
0.14403298 -0.09310634 0.40121406
-0.47350368 -0.27141905 -0.04489512
0.29096019 0.51986033 -0.38638586
0.14094284 0.40152657 -0.06451167
-0.60613012 -0.05450685 0.21776186
-0.19967654 -0.28070796 0.53402555
-0.02315661 -0.18416290 0.29876280
-0.23023793 -0.08510734 0.22451542
-0.55108786 0.00170588 0.16130814
-0.22260031 0.42017555 0.16915756
-0.40426666 -0.20129044 0.42824838
0.20367059 0.69267762 -0.21392047
-0.13605432 0.32479590 0.07557529
-0.25265086 -0.34348851 -0.28256235
-0.26784784 -0.03403771 0.38647464
0.33172786 0.21913922 -0.49234581
0.40821809 0.72790003 -0.04006834
-0.23811707 -0.13716413 0.42922905
0.33482319 -0.19191833 0.22707000
0.21578625 0.10334933 -0.15262358
0.02043259 0.36053967 0.05985352
-0.27724710 0.36560851 0.43316266
-0.42995673 0.03544393 0.44839039
0.16540575 0.66326618 -0.29227668
0.19502205 -0.32084036 0.06063651
0.49401098 0.14697836 -0.49699593
0.20334446 -0.33507586 -0.01606151
-0.61374962 -0.17964680 0.30390355
0.21161324 0.54903430 -0.18684058
-0.14495569 -0.17884894 0.10115777
-0.18324372 -0.04015601 0.52795541
0.37432420 0.39969951 -0.36825597
-0.32648990 0.12997147 0.41601384
-0.46789101 -0.21745752 0.36363813
0.38782448 0.84037703 -0.04280274
0.55868793 -0.33239716 -0.01206067
0.53373659 -0.36866224 -0.00735479
0.09064816 -0.35164642 -0.12456745
0.31083351 -0.08448772 -0.09378026
-0.15560016 -0.14664723 -0.49747306
0.14078008 0.63223046 -0.26692390
-0.23805089 0.25018522 0.26345319
-0.25597107 0.23908426 0.35329556
0.33854097 0.74598885 -0.13219981
-0.28484297 -0.17779793 0.48867449
-0.37509647 -0.19044097 -0.03360517
0.07102145 -0.14182599 0.69961578
0.16067086 0.18530455 -0.29506969
0.35645154 0.50229591 -0.15584901
0.10343084 -0.22890694 0.35302320
0.18416078 -0.17697395 -0.29628444
0.23504877 0.12619758 -0.17163132
0.19966435 0.76833433 -0.24129075
0.45001179 0.21996446 -0.57972139
-0.36093771 -0.12568818 -0.01373756
0.39690983 -0.31830937 -0.16355503
-0.14565571 0.27541941 0.15609869
0.31957316 -0.01344784 -0.33792254
0.53762621 -0.24901663 -0.10593067
0.34602562 -0.43616927 -0.02443769
-0.09935321 -0.17936806 0.30416253
0.04152283 0.32392192 -0.11374359
0.06448841 0.48664051 -0.19163504
-0.20105051 -0.39437193 -0.24490216
0.14480731 0.58639830 -0.25210658
0.40090892 -0.44083333 0.00617551
0.51554352 -0.39503646 0.03987178
-0.43008533 -0.16403450 0.50192088
0.06618010 -0.19430713 0.05579621
0.07450049 0.48450083 -0.19948222
-0.04646391 -0.09930266 0.70310813
-0.20949362 -0.25383985 0.49667147
-0.19064409 0.41873860 0.30943155
0.10367472 -0.14168383 -0.25964060
0.20756152 -0.15347545 0.11823981
0.05712914 -0.08638372 -0.34027007
0.41195875 -0.03124219 -0.39291596
-0.60331529 -0.20398088 -0.01771335
0.02218571 0.52682042 -0.41157097
-0.16348824 -0.28798181 0.33104986
-0.30686560 -0.22635426 0.49752313
0.40720558 0.37543687 -0.49075407
0.03567167 -0.37433505 -0.47976977
0.30440623 0.38577092 -0.47820288
-0.18210143 -0.07979901 -0.27488631
0.24137205 0.35287476 -0.20235041
0.13718274 0.46468562 -0.08769107
0.25098348 0.09216417 -0.39794877
0.28694919 0.03192692 -0.27555582
-0.06328519 0.42154089 -0.03090914
0.12583379 -0.29921263 0.55905193
0.26436332 0.07682231 -0.41017827
0.09679247 0.41114855 -0.22696948
-0.04294365 -0.40799087 -0.48349684
-0.43695793 -0.38394964 0.24687304
0.45487142 0.11297838 -0.61120099
-0.24722192 -0.35665351 -0.28838161
-0.08093582 -0.23197062 -0.55651754
0.34911230 0.21111611 -0.52100694
-0.68317759 -0.17420559 0.19584484
-0.47373185 0.05872698 0.49533689
0.35191751 0.79108369 -0.10452773
-0.15325910 -0.09208016 -0.25471696
0.01648729 -0.24145626 0.12203065
-0.27299207 0.33446395 0.42282662
0.49726260 -0.14874993 0.18451895
-0.41486213 -0.40293497 0.19407432
-0.05403820 0.49893475 -0.00476110
-0.62841541 -0.09826927 0.03634563
0.25366411 0.79893905 -0.19946750
0.00086769 0.35447478 0.09036629
0.13583782 -0.02659476 0.57798797
0.00470199 0.41136330 -0.12372798
0.22654471 0.31254995 -0.38299713
0.26956275 -0.25605321 -0.17106710
-0.09520626 -0.15534891 0.30859065
0.34771439 0.31895536 -0.52815670
-0.33289754 -0.26631129 0.44844839
-0.58044422 -0.02011396 0.10890482
0.14578323 0.41532040 -0.08576824
-0.67685837 -0.25352865 0.11981204
0.03824631 -0.33579856 -0.05118655
0.28095958 0.43303955 -0.26795486
-0.00092408 -0.35672027 0.57616919
-0.26426581 -0.29251927 0.27795959
0.01623507 0.04459658 0.49330127
-0.12880611 -0.28984207 0.13421479
0.42282274 0.14895383 -0.41343158
-0.38025522 0.18032616 0.58032578
-0.20715109 -0.24317850 0.44765010
0.02222092 -0.26255596 0.32986897
0.28334573 -0.41796875 0.06466907
0.34322187 -0.34097099 -0.15181731
-0.11041977 0.69599527 -0.51447272
0.07264245 -0.41919476 -0.34189746
0.19686380 0.23549873 -0.14708650
0.01909707 -0.27588785 -0.53849214
-0.26389885 -0.33370626 -0.34617472
0.00253639 0.34795731 -0.10890363
0.17979966 0.31360674 -0.32874355
0.12729548 0.56004167 -0.31008518
0.24315840 0.57110131 -0.19231768
0.01569863 -0.08248509 0.32405698
-0.64738619 -0.21497442 0.04165431
-0.20660646 -0.09088199 0.43949652
-0.05583692 -0.28170037 0.15567529
0.00866464 0.52166820 -0.09420592
-0.57931054 -0.33766145 0.02749304
0.43996152 -0.29482871 -0.15912937
0.31356165 0.73993009 -0.13414913
-0.39899796 -0.20993076 0.34718090
0.44313699 -0.42714036 -0.00311679
0.37778053 0.45206016 -0.41134140
-0.36521241 0.38546011 0.40461048
0.01974611 -0.11155514 0.10946035
0.19512603 -0.16171031 0.00204223
0.42216602 0.84165269 -0.04587956
-0.06854373 -0.30393618 0.64788705
0.20197755 -0.26405239 -0.28996709
-0.38023382 0.30244124 0.35786662
0.25088844 0.38993996 -0.41141853
0.14793171 0.69595915 -0.29090378
-0.29293174 0.08045115 0.47091973
0.36894602 0.14575981 -0.34746706
-0.47686997 -0.39677835 0.07409532
0.09767109 0.00973009 0.49820644
-0.00727794 0.50552970 -0.08457229
-0.04870299 -0.17797814 0.29924175
-0.47894427 -0.08461265 0.32931781
0.12212287 0.12524542 -0.17783484
0.47914809 0.72908181 0.00316680
-0.25086337 -0.26751035 0.22172342
-0.27891129 -0.10770486 0.13913059
0.05730249 -0.34296852 -0.06743242
-0.30049241 -0.29381275 0.36179620
0.09311305 -0.04148549 -0.19844046
0.48018253 0.75716281 -0.02119569
-0.19608174 -0.28659153 -0.51473820
0.25132421 -0.05758299 -0.19401717
0.00634214 0.76391083 -0.40338939
0.49085909 -0.09536038 -0.56444848
0.29195005 -0.02693574 -0.38647565
-0.11564103 -0.27236831 -0.13891374
0.06096070 -0.34327227 0.45472243
0.36672032 -0.41539377 -0.08806674
-0.23665522 -0.06296383 0.30131775
-0.45527130 0.16086370 0.56871057
0.14643019 -0.26739937 -0.26536044
0.03630092 -0.08407934 0.32445166
-0.38629326 -0.20500197 0.51453507
-0.52819777 -0.03852905 0.27404881
-0.28361675 0.40079921 0.40037420
0.22088349 0.19177018 -0.36184642
-0.30079952 -0.03899848 0.49585840
-0.42104942 0.27848923 0.50974411
-0.40629092 -0.11154915 -0.02523907
0.14629623 -0.32571119 -0.22089157
-0.20966424 -0.07627641 0.21237569
-0.43586305 -0.06321801 0.45573786
-0.38709155 0.27345929 0.54693699
0.44784540 -0.20645393 0.22709644
-0.13338478 -0.13278030 -0.17856199
-0.17011599 -0.25144148 -0.15798275
0.54987097 -0.26276243 0.14955917
0.49420989 0.83969718 0.01157321
-0.00066372 0.51251912 -0.10056357
-0.46452761 0.07574020 0.49424946
-0.11485469 -0.00124414 0.59055239
0.48047805 -0.03275193 -0.46378213
0.24476787 -0.19884683 0.19030833
-0.30886772 0.04802968 0.50080127
0.37054616 0.76533538 -0.10992546
-0.14206567 -0.45792514 -0.33787593
0.50265199 -0.16963308 0.18710545
0.25293681 -0.31960005 -0.11999965
-0.46113920 -0.29480481 0.33791247
0.37298560 -0.33598882 -0.15128751
0.43041125 -0.24056883 0.23619381
0.38392064 -0.14823376 -0.49674243
0.09933357 0.46117932 -0.03442957
-0.02381970 -0.34123850 0.60888201
-0.19291754 -0.37189329 -0.47159761
0.02828556 0.62024081 -0.41102803
0.41646230 -0.10716029 -0.58642650
-0.47845784 -0.35918194 0.01143982
-0.15717578 -0.12561159 -0.49163437
0.44066414 0.66569334 -0.04949576
0.55757397 -0.14921923 0.11162954
-0.01489649 0.61694658 -0.44279379
-0.20651208 0.44323522 0.15231127
-0.45405561 0.18396950 0.55389738
0.21184683 -0.23876275 0.16029140
0.01297680 0.03616232 0.57204455
-0.18684554 -0.08396013 -0.36894539
0.11020121 0.12725089 -0.22898683
0.05978550 -0.30133945 -0.15653194
0.13715349 0.58439612 -0.22523451
0.14852670 -0.07373910 0.43185502
-0.05978910 0.45502734 -0.03435274
0.23730165 0.11987647 -0.18719772
0.23481399 0.64386809 -0.22823724
0.46498001 0.05910513 -0.47161698
0.11029936 -0.04747616 -0.00891911
0.33523345 0.58390719 -0.16889440
-0.04074156 0.59252477 -0.42575511
0.06144115 -0.25322491 0.67846149
-0.30944061 -0.24973820 0.48362526
-0.05080342 -0.36810732 0.54455769
-0.55271101 -0.27700561 -0.02983280
0.07107449 -0.36238229 -0.45103306
-0.14793506 -0.24797918 0.35221419
0.12820499 0.14574437 -0.25607887
0.15742736 -0.30184019 -0.06682550
0.20324600 0.66915762 -0.26067254
0.31683117 0.71016490 -0.13225812
0.08880079 -0.10886873 -0.18152012
-0.24812065 0.42862508 0.33644241
-0.06847933 -0.18505196 0.70282710
-0.28000838 -0.15301602 0.07421161
0.17801595 -0.22261943 0.46787718
0.18791947 0.70902014 -0.26545388
-0.44871649 -0.05096973 -0.00222000
-0.36949891 -0.38731706 0.18161158
-0.17892855 -0.19156863 -0.51856595
-0.39703143 0.04213628 0.58738536
0.44123581 -0.04980762 0.11394786
-0.55640435 -0.35029191 0.27817243
0.10561921 -0.03874257 0.39876404
0.35111460 0.48213798 -0.41545445
0.57987076 -0.20990889 0.08483825
0.37002644 0.76192945 -0.08913013
-0.04337978 -0.21247165 -0.01574671
0.12854515 -0.15986706 -0.26115158
0.51444757 -0.34061253 -0.08934171
-0.05636089 -0.23196249 0.20424202
0.18773176 -0.19966431 0.53645754
0.21142825 0.40278685 -0.19082803
-0.05568895 -0.15894996 -0.15620986
0.10345335 -0.17261232 0.01787576
0.12201874 -0.34638071 -0.38098449
0.39438486 0.87274265 -0.03398421
0.10288173 0.76873958 -0.27817634
0.45320755 -0.15022574 -0.49048150
0.40398866 0.70227242 -0.07476404
0.09709279 -0.34029281 -0.22922102
-0.08083742 0.63148469 -0.44673854
0.00508550 -0.31567699 0.63757652
-0.18918909 -0.12159292 0.37040398
-0.21876413 -0.23764648 -0.48243755
0.30600467 0.12810612 -0.25890782
-0.41058812 -0.31789625 0.31329039
0.03494975 -0.24939300 0.09239848
-0.15529001 -0.14704750 -0.18127801
0.28750452 0.49808663 -0.21254236
-0.33553341 -0.06117086 0.05977683
0.02547136 -0.05752866 0.08784193
0.48323739 -0.21564238 -0.15595806
0.15005083 -0.14693742 -0.26361954
-0.04731790 -0.28774929 -0.12629309
0.38222641 0.69861197 -0.10772738
0.05988133 0.53125536 -0.36183760
0.31807265 -0.04713289 0.11790844
0.06289317 0.57246542 -0.33993030
-0.47882354 0.01072486 0.14173737
-0.23122737 -0.26591349 0.40667239
-0.17726755 -0.02754009 0.52598649
0.45298868 0.17642988 -0.44963196
0.25499126 0.41454005 -0.23808751
0.10421909 -0.20666318 0.01275430
0.11694556 -0.06618683 -0.02102920
-0.22592473 -0.07477577 0.27425578
-0.16073132 0.43034542 0.08138572
0.36906883 0.52087039 -0.12168035
-0.19770174 -0.21712445 -0.49937880
-0.20854414 -0.06822188 0.18266127
0.09178787 0.00398754 -0.06085344
0.04377053 0.50908464 -0.01428648
-0.10618123 0.73778504 -0.44471610
0.07687758 -0.13889115 0.32600099
0.21896455 0.58283943 -0.32987916
-0.43835667 -0.03880522 0.28529757
0.50139391 -0.06995983 0.08461326
-0.56011409 -0.02193746 0.23565137
0.31486741 -0.03382441 -0.01166810
0.47672796 0.15927273 -0.46996230
-0.50989461 0.00091878 0.10307973
0.30050144 -0.39685023 -0.08243686
0.09141397 0.29283807 -0.21550420
0.20370319 -0.02003068 -0.28052443
-0.07724910 0.60697752 -0.44767904
0.06325372 -0.33710736 -0.18166548
-0.24074151 0.25283653 0.36425701
-0.25308478 -0.07087736 0.31290430
-0.55552387 -0.31523257 0.31025141
0.19130658 -0.30743355 0.08683024
0.25040042 -0.31587541 -0.20031117
-0.21058147 0.34940815 0.35770559
0.10030510 -0.32725853 0.48076960
0.38505483 -0.22557284 0.24316810
-0.53807378 -0.33048522 0.30420923
0.01092437 -0.17244379 -0.08882438
-0.50241923 -0.07646553 0.32035905
0.47327858 0.59289598 -0.00593279
0.34720382 -0.40687519 0.13566786
0.48077619 0.00528520 -0.59672630
0.32652450 0.44450608 -0.31917256
0.22425178 0.59112126 -0.19660421
0.43997037 -0.37175554 -0.12082823
-0.00826590 0.67424279 -0.42279190
0.45649028 -0.42469662 0.09571612
0.44039866 -0.03992242 -0.42240441
0.15909624 -0.06685390 0.46614170
0.43543923 -0.07641520 0.15354013
-0.14736953 -0.06770556 -0.40582415
0.05314372 0.44690582 -0.16590193
0.38564250 0.73926365 -0.09130487
-0.11588140 0.77229947 -0.49965042
0.19531780 0.79727757 -0.24101293
0.21120623 0.20325020 -0.16194530
-0.10334806 -0.35004175 0.54677576
-0.00337033 -0.05940054 -0.08336321
-0.49710962 -0.40604013 0.18464433
-0.48124677 0.18121131 0.50072420
-0.16501780 0.27161309 0.15924051
0.51506782 0.04168639 -0.51124406
-0.07993607 -0.09444718 -0.21077397
0.36284980 0.09007376 -0.52802026
-0.16092332 0.23791893 0.21324627
0.25282487 0.73417354 -0.15964523
0.29511327 0.05069889 -0.26054621
-0.11325613 0.31468022 0.03512432
0.06481341 -0.25409615 0.33918867
-0.53107679 -0.13475071 -0.04614422
-0.36522740 -0.29357374 0.31005600
-0.19550024 -0.26038456 0.40669850
-0.29977673 -0.00694525 0.48670629
-0.07894298 -0.25839055 0.33812153
0.02666323 0.78908485 -0.35914308
0.16860151 -0.30670464 -0.24888197
0.21460155 0.49769485 -0.17616361
0.37792021 -0.43958610 -0.00416687
0.07775857 0.43504885 -0.00918668
0.04816022 0.64232224 -0.38475797
0.11003651 0.21687150 -0.22597039
-0.53890383 -0.11644922 0.32228181
-0.30810225 0.06351481 0.49798188
-0.67494732 -0.13720493 0.16241041
0.03540967 -0.32961619 -0.04055064
0.22763339 0.74419290 -0.22967514
-0.18284708 0.26677001 0.15635109
-0.19095767 -0.18294843 -0.49396509
0.10890661 0.35216153 -0.04332221
0.15308386 0.85152149 -0.23285154
-0.08504646 -0.25522399 0.05032947
-0.44153732 -0.36452186 0.02549990
-0.26623356 -0.02902602 0.44243944
0.22461453 -0.12651147 -0.13282482
-0.35361823 -0.03606878 0.08463942
0.29700315 0.21507540 -0.27123749
0.48235291 -0.00450227 -0.47702903
0.26985437 0.02003679 -0.24249503
0.22246522 -0.33293349 -0.22133878
-0.30438280 0.22382529 0.33851787
-0.22612731 0.34795985 0.37849057
0.10691112 -0.20785223 0.67388541
-0.08897353 0.74722266 -0.43189278
-0.49190772 -0.39392662 0.24500829
-0.26438630 -0.16343568 0.46274838
0.35038912 -0.12457846 0.20567566
-0.22995202 0.40066162 0.18182173
-0.28129715 -0.13466261 0.20031688
0.10273129 -0.25596970 -0.47530359
0.19410741 0.09991176 -0.33515096
0.33393097 -0.02854013 0.05034357
0.26817101 0.02749537 -0.31801283
0.26014897 -0.22045399 0.19938448
0.28719190 -0.19691826 -0.23369506
-0.08977471 0.57014662 -0.51121455
0.29353201 0.11889026 -0.25348061
0.47766304 0.71727538 0.00647728
0.12839349 -0.31842929 -0.31488219
-0.45489606 0.15351753 0.46260330
0.03893999 -0.36620981 -0.18745711
0.37325147 -0.44890809 0.03080769
0.11779584 -0.29228264 0.60829419
-0.03897112 -0.18656005 -0.53302163
-0.47120687 -0.40993118 0.16755304
0.18707304 -0.26951617 0.10578982
0.00793912 0.49370116 -0.00495574
0.25876689 0.51447809 -0.42192793
0.21868491 0.23171534 -0.35968697
-0.29939899 -0.12445848 0.05280101
0.15971909 0.42822731 -0.10769707
-0.00923362 -0.36599213 0.56604934
0.26379526 -0.10371418 -0.09520032
0.08164945 -0.28766847 0.64654088
0.26092732 0.55131590 -0.22821531
0.01656847 0.39236826 0.07498679
0.21903571 0.00493260 -0.15125577
0.25731039 0.73147154 -0.19827656
-0.31776640 -0.31806606 0.07089913
0.27861515 0.21534462 -0.24767661
0.56240082 -0.13546889 -0.01651796
-0.14689758 -0.36180502 -0.18271379
0.29255539 0.31423259 -0.27994892
-0.10532898 0.42493337 0.03060067
0.27518436 -0.26600480 -0.18872862
0.43855605 0.63056594 -0.06662600
0.01289831 0.54581827 -0.42524368
0.00503593 -0.30689692 -0.06141527
0.29000098 -0.19183074 0.20955159
-0.01981283 -0.05518059 -0.05779959
-0.06739263 0.27611798 0.01821781
0.05327744 -0.17977040 0.30726668
0.04951053 -0.08311008 0.68368369
-0.03586959 -0.15479361 0.17534629
0.02782752 -0.29520160 0.35889041
0.42255038 -0.13454448 -0.56709635
-0.02124928 0.01496042 0.39448187
0.49030763 -0.32943356 0.18078920
0.07513626 -0.31366897 -0.47953600
0.38118002 -0.13540252 -0.44529864
0.25459722 0.48013252 -0.22630692
-0.55854684 -0.38756776 0.12502527
-0.24823153 0.41215792 0.35760701
0.01843669 0.31981421 -0.07974876
0.30015200 0.64867127 -0.18232167
0.32701272 -0.38666975 -0.10356313
0.23055667 0.19334072 -0.38051209
0.07668628 -0.16648255 -0.19139208
-0.61539412 -0.05002342 0.12819324
-0.32302806 -0.26742226 0.31728750
0.45623606 -0.33841163 0.19928825
0.42614827 0.75285876 -0.02303745
-0.05347353 0.26835981 0.04952523
0.34057537 0.02586645 -0.49890268
-0.51898813 -0.09120844 -0.02436753
0.04139519 -0.35505885 0.56178010
0.02020993 -0.04707663 -0.11420767
-0.15115497 0.45379370 0.12910762
-0.36566263 -0.10617723 -0.00071712
0.27950051 0.57703340 -0.31856731
-0.41636360 -0.02817729 0.02373011
-0.13386731 -0.24901314 -0.14199685
-0.00174498 -0.40919685 -0.20327058
-0.05248742 -0.01186354 0.36910409
0.07866754 -0.25256044 0.35074997
0.46875519 0.71055007 -0.03827507
-0.26174966 -0.06983857 0.44407853
0.26738867 0.55851281 -0.36197451
0.02621125 0.45873290 -0.42598543
0.28214493 0.47565150 -0.18299131
0.10760446 -0.17177619 -0.41199663
0.29614505 0.01058902 -0.34386027
-0.21819931 0.40232283 0.33859402
0.12566686 0.11396179 -0.16531920
-0.37514001 0.22448659 0.56202322
0.32246372 0.42941710 -0.29840013
0.18448721 -0.21682914 0.55182230
-0.10579030 -0.40232569 -0.19880825
-0.33517346 0.32262212 0.31208816
0.06238945 0.55214781 -0.15879531
0.10830969 0.06305875 -0.19829066
0.50019473 -0.25219434 -0.14421920
0.18497834 -0.20471354 0.10289751
-0.35433492 0.28356051 0.32944098
-0.40614152 0.34549564 0.40076634
0.20324025 -0.05227770 -0.12850733
