-0.35384563 0.18639553 0.14045444
-0.47165197 0.06600231 0.26165032
-0.22278698 0.24745207 0.02927475
0.61399138 -0.09816621 0.22372589
0.56609178 0.16555025 0.23422346
-0.30458543 -0.08164221 0.25382766
0.08954857 -0.35185635 -0.15364324
0.05324743 -0.35344556 -0.33122402
0.20334274 0.30944839 0.25511616
-0.67477155 0.00007082 -0.31532097
0.04273386 -0.30636397 0.25205591
0.22959882 -0.20574936 -0.13207173
0.32797322 -0.11218823 -0.08875617
-0.11423033 -0.47183028 -0.37456515
-0.16227067 -0.51963520 -0.36251557
-0.67780042 -0.00500895 -0.21204562
0.56626236 -0.17980827 0.15822679
0.35540938 0.15975410 0.08549246
-0.28530568 -0.31486645 -0.39311713
-0.63321221 0.11121505 -0.11018177
0.61316562 -0.05779633 0.07786210
-0.32903293 0.00048601 -0.45455828
-0.43366054 -0.13676971 0.12722461
0.42057547 -0.36969277 0.16257170
0.60796523 -0.32937554 0.18155178
0.54849410 -0.04034164 0.24691221
-0.47598174 -0.00497506 -0.45163900
0.08542280 0.04478148 0.25624275
-0.45247015 0.10083084 -0.10138045
-0.48329073 -0.09928305 0.19818372
0.41958097 -0.33215055 0.15470502
-0.09740540 -0.58565795 -0.35072541
-0.29564965 -0.27284956 0.25684106
0.21481529 -0.10293828 -0.25487852
0.61564207 -0.12030670 0.02918008
-0.30331546 -0.57212377 -0.11597297
-0.67064989 -0.08888397 0.07588461
0.42762211 -0.17889616 -0.00687993
-0.13734552 -0.55451369 0.25617689
0.59426439 0.76090670 0.19306567
0.60554123 -0.06797841 0.00329705
-0.09391519 0.08350430 -0.32262141
0.48285469 0.22343048 0.18634239
0.13605808 -0.09443648 -0.42155325
0.26096061 0.06045834 -0.01036511
0.50265658 0.69814229 0.11945349
-0.60467792 -0.10203563 -0.02083486
-0.00856082 0.25274783 0.02895087
0.01840346 0.30948702 0.25688440
-0.67174470 -0.01098531 -0.35373145
0.30838972 0.16898048 0.25196365
-0.13294467 0.06826536 -0.36048612
-0.13406381 -0.59958899 -0.34159461
-0.36473575 -0.08355552 -0.43996051
0.59508801 0.09920293 0.25981316
0.56821167 -0.15516639 0.14081183
0.45680228 -0.37639859 0.18620181
0.49942735 0.58473110 0.25081897
-0.05054710 0.47393477 0.11939254
-0.31357211 -0.47579077 -0.33345944
-0.67653668 0.05883840 -0.11386970
0.39119309 -0.23571664 0.26268721
-0.31489253 -0.43943098 0.24602619
0.14702791 -0.17960480 0.25298867
0.25774893 -0.16077824 -0.17130333
0.48484483 -0.16567063 0.10314348
-0.39321187 -0.22007713 -0.38387454
0.47316542 0.05217040 0.04658973
0.59636784 0.16772750 0.18559924
0.55309522 0.71958554 0.11949521
-0.04777596 0.27899843 0.24272743
-0.67099977 0.06343572 -0.38507026
-0.33307511 0.05631441 0.24887791
-0.12146923 0.16718343 0.25346133
0.40609497 0.56784487 0.25720161
-0.25033116 -0.62360454 -0.17780592
0.17056052 -0.08230831 -0.39829710
-0.28998354 0.07752644 -0.29330379
-0.15184130 0.17367202 0.00099482
-0.06205300 0.31144360 0.24674040
-0.35811403 -0.03525569 -0.45007324
0.37385243 -0.17124513 0.05156927
-0.33584833 -0.01488940 0.24225682
0.43782341 0.15834510 0.16863722
-0.58321059 0.12751040 0.04364130
0.37503830 0.08677877 0.06198369
-0.21218579 0.09330350 -0.24279507
-0.60419059 0.08629769 -0.33285210
-0.18144251 -0.18417509 -0.41702333
0.60790706 0.05263750 0.09636016
-0.00761588 0.19038001 0.01393751
0.17151116 0.13249511 -0.02329539
-0.14607275 0.11459656 -0.08777762
0.28874338 -0.02280755 0.25123408
0.04680599 -0.41845241 -0.33804157
-0.67621839 -0.05770628 0.07291721
-0.65600669 0.02028424 0.25509816
-0.19701573 0.17465436 0.25401330
0.55809641 0.62319946 0.12463513
-0.36660984 -0.19134852 0.24897215
0.53952217 -0.37681815 0.19747314
0.04557466 0.13856578 -0.04168706
0.59994721 -0.16915388 0.15052927
-0.29647049 0.08025261 -0.37016907
0.34718731 -0.17439781 -0.05759981
-0.61366510 -0.10057527 0.04074670
0.05956643 -0.00894699 -0.44247144
-0.06377415 -0.24266505 0.25126207
-0.36649543 0.19678484 0.16063595
-0.46010169 -0.06018463 -0.43666551
-0.08375269 -0.63787317 -0.31506073
0.35232425 0.26407963 0.14326084
0.02052656 -0.43372571 -0.01519283
0.39272490 -0.23752904 0.11608814
-0.15157831 0.02294437 -0.45906487
0.07000241 -0.43343183 -0.14415671
-0.17775699 0.29833812 0.25297779
0.43996143 -0.12512195 -0.01582434
-0.19475210 0.12673998 0.25368306
0.46207234 -0.01090999 0.25550780
-0.23014435 0.07347871 -0.34240657
0.11332591 -0.42395824 -0.09051653
0.12413357 0.10195635 0.25084740
-0.31458473 -0.38252839 0.00967136
0.19456910 -0.03327300 -0.32246077
0.35847059 -0.15481791 0.04795270
0.24153692 0.13679847 -0.01767605
-0.03751515 -0.55949581 0.21777564
0.51509893 -0.05136006 0.25403592
0.42723179 0.73672986 0.18914708
0.10065192 0.17881915 0.00650959
-0.02820397 -0.49372450 -0.04037435
0.13091077 0.35454458 0.25454032
-0.31651416 -0.51507652 0.18406770
0.35296211 -0.18070981 -0.04742929
0.06379065 -0.27491415 -0.33690190
-0.07737955 -0.20587531 -0.42045364
0.48314390 0.38972566 0.25118685
0.11983375 -0.35410637 -0.11005789
-0.11016618 -0.60066164 -0.02102142
0.54256499 0.16508666 0.13268261
-0.66740334 0.04569824 -0.40410370
0.51747632 0.15089235 0.24421304
0.03274009 0.55070800 0.25519171
-0.08512557 0.34620312 0.25773743
0.23437828 0.66760659 0.14244857
-0.00576463 -0.43218794 -0.11792116
0.61052084 -0.16868117 0.03761353
0.62090528 -0.08478634 0.12217374
0.27309832 0.23803329 0.09826565
0.07866126 0.60347831 0.22619939
0.51859820 0.44801539 0.14729640
-0.48016733 0.06401489 -0.41251498
0.18366992 0.18426833 0.24995425
-0.02686330 -0.52530825 0.05623680
0.19356878 -0.03923132 0.24839395
0.12325273 0.14849630 0.25251123
-0.27104062 -0.58472550 0.23785049
0.36890221 0.46363571 0.11504783
0.42067727 -0.21884230 0.24709168
-0.22513826 -0.49291226 -0.37112385
0.58550978 -0.11629087 0.25299713
-0.02485907 -0.47539112 -0.08312582
0.61953533 -0.01809483 0.14085796
0.56522262 0.74749267 0.11767000
0.11533007 0.20146216 0.25236058
-0.12764007 0.04367835 0.25207981
-0.27484980 -0.60200667 -0.06579904
0.50336671 -0.34881026 0.25493026
-0.32090944 -0.38553885 0.20188752
0.57540298 0.65894973 0.11975104
0.02695489 0.09264179 -0.20029457
0.01820457 0.12275518 -0.05508915
0.54445207 0.38624221 0.16448238
-0.37549567 -0.19226924 -0.03426820
-0.12381216 -0.32466057 -0.39808887
0.07760324 0.40898246 0.25520331
-0.19096416 -0.60530388 -0.18077162
-0.53720105 0.06271815 -0.45856905
-0.14331397 0.27228892 0.04254881
-0.12709793 -0.59931612 0.24436870
-0.66404951 0.07851220 0.00345521
0.26514101 -0.17897068 -0.13256243
-0.04288024 -0.15630524 0.25250319
-0.44654623 -0.14289232 -0.09019791
-0.35800198 -0.25497451 -0.40174162
-0.45336181 0.16147333 0.05498272
0.11892851 0.36428040 0.04953711
0.54141486 0.20472524 0.24382830
0.37702525 -0.38182163 0.22130528
0.13093026 -0.41332087 0.06937015
-0.42988253 0.14327572 0.01446403
0.16808668 0.38572645 0.05358012
0.61352444 0.70737290 0.13324149
0.05733829 0.06085814 -0.29644814
0.27127072 0.14514570 0.00964689
0.53008401 0.19731385 0.19804263
0.32875296 -0.38782290 0.16483301
0.03280246 -0.11984968 -0.43037453
0.08657105 0.59392083 0.25688162
0.14118455 -0.41965047 0.00479516
-0.24306633 0.12142739 -0.06233662
-0.32073978 -0.40851238 0.24872124
-0.67635155 0.09650718 0.10507178
-0.23989396 -0.20633760 -0.41655970
0.41637096 0.04743668 0.00625122
0.41934526 0.16481489 0.15665695
-0.66925776 0.04969741 -0.35503834
-0.17678910 -0.24001774 -0.41307589
-0.39868718 -0.03620460 -0.44690835
-0.50299144 0.06524815 -0.45432705
-0.50371933 0.04063728 -0.45903414
-0.30440819 -0.33317119 0.24510637
0.40563983 0.74850297 0.14704648
0.61700535 -0.20395958 0.22365358
0.45610112 0.36911318 0.24440238
0.61213326 -0.31184286 0.19286317
0.25171915 -0.12741642 -0.17582181
0.53379810 0.73347735 0.12359838
0.54563189 -0.32011867 0.17381501
-0.67902899 0.01443880 -0.08958203
-0.58894157 -0.14010306 -0.36209148
-0.37046412 -0.25323981 -0.39304018
0.46431074 0.07127544 0.24838167
0.48458984 0.05965659 0.06695396
-0.31722990 -0.44722882 0.19569135
-0.31851414 -0.41092557 0.20078927
0.60849488 0.13675882 0.25230551
0.56519115 -0.30724484 0.24974436
-0.02866431 0.51056421 0.24606887
0.42451137 -0.32314429 0.25236446
0.35386297 0.04451061 0.24930307
0.44011542 0.17758086 0.18716305
-0.06455731 -0.06299634 0.25124016
-0.39393526 0.06485781 -0.38434136
-0.26788986 0.03498869 0.24573705
-0.55672193 0.07411249 -0.34989336
0.46090743 0.76548803 0.21265307
-0.35513136 -0.22887805 0.16290921
-0.32084274 -0.35421562 0.12662767
-0.57059574 0.09873121 -0.21261796
-0.67513621 0.07290950 0.25356826
0.22614694 0.10232034 0.24860650
-0.55852306 -0.10282409 -0.08063166
-0.66458559 0.00297745 -0.35399562
-0.30890176 -0.22785416 -0.41191626
0.49124798 0.08877814 0.25702870
-0.67676187 -0.01088507 -0.09277208
0.28108355 0.69977975 0.15918672
0.18194945 0.10816988 -0.07285737
0.27420828 0.05232695 -0.00412180
0.60776925 -0.36660638 0.20740256
0.25864100 0.25324893 0.08343053
-0.60823739 0.09192052 -0.14651960
-0.00482767 -0.31492114 0.24703774
-0.51466519 -0.10338546 -0.43307143
-0.02688802 0.16496268 0.26076078
-0.42184532 0.06187651 -0.36027500
0.35499543 -0.38243154 0.12915039
-0.13592021 0.07668637 -0.39044410
-0.32345760 -0.52119112 0.09009634
0.02839749 0.55128491 0.11846031
-0.35136300 -0.27660465 -0.32292318
0.17486183 -0.01485191 0.24874392
-0.53829527 0.09464445 -0.09881847
-0.55306840 -0.08765538 0.06014468
0.18113059 -0.13385198 -0.38343316
-0.33442464 -0.02552946 -0.44709030
-0.17157531 -0.59313524 0.19108722
-0.62990546 -0.10469142 -0.15758006
0.50127435 0.44176334 0.15359935
-0.25456917 0.07657666 -0.31277120
-0.67812181 -0.02382192 0.10321163
0.55697405 0.73360920 0.11961818
0.07017626 0.07945462 -0.27283490
0.23305833 0.39967611 0.05937690
-0.12271336 -0.59003556 0.16025323
-0.65490520 -0.13479033 -0.35675034
0.40561408 0.05607865 0.01506102
-0.32252601 -0.38678434 -0.24302098
0.42368713 0.20841141 0.18348572
-0.67333663 -0.01018027 -0.39682361
0.20271733 0.14026643 0.04617703
-0.10014058 -0.12896456 0.25452080
-0.19105490 0.07004087 -0.37653857
0.06789390 0.50677598 0.07778846
-0.67593515 0.07235581 -0.37785435
-0.55953181 -0.13335270 -0.33339214
-0.06698768 0.43006721 0.25921810
-0.31720501 -0.42251846 -0.15621959
-0.02421610 -0.44996431 0.21464387
-0.10620011 0.04252655 -0.45419082
-0.31966764 -0.44595388 -0.11252328
0.04442415 0.06554355 0.25203681
0.03911002 -0.45237938 -0.20565377
-0.01533842 -0.39081758 0.26136178
-0.38952893 -0.21932638 -0.33696601
0.31790173 -0.04423113 -0.11038885
0.06645274 -0.41796532 -0.05296087
-0.56601071 -0.10741204 -0.16908750
0.25064245 -0.17589055 -0.06282125
-0.40497735 -0.04559492 0.25182980
-0.12748744 -0.50926173 -0.36406365
0.26939800 -0.03976266 -0.16913846
-0.02282626 -0.45660195 0.12325682
-0.05316063 -0.49579045 -0.34566116
0.58072221 0.32090330 0.25081226
0.43682083 0.64832103 0.10448715
-0.59372652 0.09643449 0.25070024
0.41436175 -0.11158107 -0.03425591
0.28062603 -0.23381948 0.04742488
0.00867557 0.13509598 0.25390989
0.04661942 -0.36675683 -0.36424199
-0.48730290 -0.12787220 -0.22424692
0.55856001 -0.35455337 0.18798220
0.43224117 0.32824701 0.26242664
-0.63253891 -0.14486815 -0.40490603
0.04601282 -0.14314115 -0.42279860
0.52487540 -0.37947467 0.21868727
-0.23230579 0.27976632 0.12617831
-0.27792376 -0.07158543 -0.43619516
0.23713255 0.32733423 0.07560159
0.17590605 0.24129678 0.04236646
0.10894132 0.62226999 0.20507845
0.27925193 -0.33806160 0.06809275
0.14874230 0.48936686 0.07781306
0.51614273 0.10283519 0.24934673
0.42249456 0.61635387 0.24002564
0.56821179 0.75358009 0.13740255
0.48268548 -0.10459444 0.25722972
-0.43746132 0.06796408 -0.38552392
0.00209004 -0.42601404 0.15621081
0.08759995 -0.06291214 0.25836629
0.39002672 0.72693646 0.17501056
0.38779932 0.05428012 -0.02324540
0.15514086 -0.10095669 0.25113639
-0.66379869 0.09576343 0.23474404
-0.67171896 0.05950481 0.13568948
0.59788144 0.02734292 -0.01451372
-0.06863863 0.25876066 0.25467250
0.52088594 0.76554966 0.20134687
0.60598886 -0.03174482 0.03207701
-0.45417055 0.07503796 -0.32019100
0.55061662 0.25528917 0.25486934
0.17025903 0.55871642 0.25681749
-0.19892545 0.10183506 -0.10205557
-0.67117882 -0.04746036 0.15419245
0.56013238 0.08201867 0.10018469
-0.16944422 0.33199364 0.05869111
-0.65177321 0.04418895 -0.41136709
0.09830496 0.61917138 0.23049697
-0.63057697 -0.08472452 -0.04066020
0.40345594 -0.16946605 0.01037306
0.51173747 0.05017319 -0.00390355
-0.24469675 -0.18686378 0.25184140
0.49252191 0.76229799 0.22836247
0.04904886 -0.19157046 0.24828768
-0.27289373 -0.32289240 -0.39319676
0.28998497 -0.19857603 0.05269553
-0.67557728 0.07071620 0.14177623
-0.02986457 0.08906054 -0.30126792
-0.63451028 0.10496902 0.00188324
-0.16837430 0.14025301 0.25838968
-0.03013795 -0.55038953 -0.10065372
-0.02378878 -0.55891776 -0.30970353
-0.36025587 0.07139660 -0.31709009
0.12026626 0.43705964 0.25600785
0.17849831 -0.09515548 -0.39428312
-0.01892273 -0.49494800 -0.36910287
-0.50947291 0.08929203 -0.29314888
0.33694559 0.49646074 0.10313623
0.60969627 0.57128334 0.23757702
-0.22465390 -0.63312674 -0.25165415
0.60388219 -0.35608241 0.24979201
0.25804916 0.02659494 -0.13341710
0.19177286 0.11741242 0.25700727
-0.52237386 0.07977422 -0.20278883
0.09030060 0.09301481 -0.22327566
0.46228877 0.74525881 0.15348580
-0.40015450 -0.19412801 -0.21758607
-0.60202765 0.08898436 -0.27397302
-0.37395778 0.19729155 0.20101929
0.50175321 0.12374788 0.09788387
-0.67631292 -0.05976308 -0.40469995
-0.22009493 0.09826542 0.25291038
0.16400866 -0.17059141 0.25687370
0.28371149 0.67978859 0.10946813
-0.03589011 0.04756566 -0.44240484
0.61070943 0.26999909 0.22630298
-0.24017408 -0.55036473 -0.35239279
-0.01740516 -0.37606192 0.25095189
-0.55580056 0.10863276 -0.00970414
0.27378312 -0.19586545 -0.14014734
0.27754036 0.36758083 0.24981344
0.56028521 -0.27001867 0.25501812
-0.05599248 -0.44677308 -0.37424311
-0.67223895 0.08318080 -0.00510073
-0.67218709 0.07754198 0.03748447
-0.14862925 0.03542054 -0.45414773
-0.12703902 0.33720696 0.05765076
0.32722169 -0.28829178 0.09072518
0.19479612 0.50277269 0.08080788
-0.38181946 -0.19773668 -0.09039373
0.00475356 0.07126374 -0.40173459
0.35123339 0.07599212 0.04963040
-0.07570824 -0.39021903 -0.37952375
0.15699033 -0.22365162 -0.07573906
-0.33162200 -0.23428518 -0.41187641
0.40460789 0.34882385 0.14189443
-0.32069579 -0.46693185 -0.15924725
-0.18220015 0.32661611 0.16332707
0.52605140 0.76180840 0.17251366
-0.42365035 0.15310587 -0.00397187
-0.67637050 -0.08543459 -0.24612942
-0.65802646 -0.10751030 -0.11199147
0.52488744 0.06942329 0.24520639
-0.31405741 -0.49875042 -0.22061524
0.26636538 -0.21120927 0.04171786
-0.05813511 0.47155961 0.10595243
0.16783227 0.04956990 0.25291783
-0.07473773 -0.46924910 0.25083449
0.11575814 0.23252405 0.25086600
0.18889110 -0.16184597 0.25261953
-0.62674797 0.12549542 0.09002645
0.07730885 0.20182005 0.01155148
-0.27240157 -0.09743057 0.25272122
-0.36050901 -0.18969694 0.22291234
-0.03498978 -0.49227718 0.05977061
0.06627060 -0.37613648 -0.23024759
0.18819855 -0.40086442 0.19098604
0.28313842 0.15242730 0.06533739
-0.44412205 0.14867765 -0.00478157
-0.31655651 0.03056761 0.25512892
0.61444962 -0.13315794 0.15930870
0.56663942 0.15216421 0.18613616
0.60847688 0.68919802 0.23372796
-0.56528020 0.07847948 -0.24335641
0.32992405 -0.39369515 0.21144477
-0.04503728 -0.54534936 0.24585792
0.51437867 0.06266064 0.24683940
-0.36236313 -0.17994578 0.23439330
0.22762531 -0.17870609 -0.20844948
-0.02905087 -0.50739682 -0.01201455
0.37523639 -0.37918186 0.16651681
-0.55437267 -0.12542507 -0.42757151
0.54940248 0.50011408 0.25258973
0.41232368 0.59147930 0.24068025
-0.65566897 0.05450329 -0.34196123
0.00964600 -0.39207849 -0.38726792
-0.21691565 0.30660474 0.24176052
-0.31894961 -0.51717460 0.16912162
0.18713151 -0.20019692 -0.29554459
0.18515114 -0.17297941 -0.39200741
0.59902894 0.06246142 0.06425564
-0.67700398 0.04018676 -0.31827664
-0.00863620 0.50800329 0.17741001
-0.05772814 0.46068445 0.25024790
-0.01992990 0.51357639 0.22022316
-0.62259007 0.00492600 -0.45824650
-0.66765833 0.02067541 0.25412726
-0.01126236 0.29386824 0.25121310
0.35388291 0.73964119 0.21057871
-0.58463192 -0.11357382 -0.11589774
0.18957345 0.01493753 -0.17149757
0.26070911 0.20662116 0.12089485
-0.15157306 -0.51029801 0.25785512
-0.21537077 0.12335279 0.25309837
0.37924063 0.10915586 0.24935478
0.31959885 -0.27031568 0.08990943
-0.20164931 0.07928492 -0.21856196
-0.25194231 -0.56910849 -0.35124427
-0.13735569 0.09878427 -0.22697198
0.61847878 0.20234583 0.23546630
-0.44100878 0.16975710 0.06886724
0.01511634 0.38440219 0.05382507
-0.26501530 0.02240456 -0.45051640
0.43103522 -0.31679043 0.14475963
-0.07515208 -0.59779227 -0.02206969
0.61518240 -0.10072596 0.07143405
-0.03540959 -0.56587756 -0.00475629
-0.39991257 -0.15075843 0.24599054
-0.18575642 0.29842129 0.04282586
0.36195251 0.62275219 0.10368332
-0.01592531 0.50862896 0.14819494
-0.24614421 -0.59089279 0.13775288
0.02953595 -0.42442361 0.12840860
-0.32032272 -0.41031376 -0.31796318
0.10014114 -0.42517880 0.01923285
0.12234654 -0.01903272 0.25430483
0.61553907 -0.01585750 0.07817182
-0.47627705 0.11796215 -0.10228034
-0.33105981 0.07899094 -0.23988365
-0.48714644 0.15592633 0.22764185
-0.07455839 0.44912991 0.25145590
-0.35351366 -0.22941801 0.14955828
-0.62891889 -0.08409567 0.09328869
0.08043076 -0.40306103 0.25170934
0.46263763 0.30970511 0.16739285
0.52496409 0.02292977 -0.02769548
0.09763063 0.21628852 0.24780625
0.40570652 -0.21512848 0.11682445
0.30802408 -0.11002368 -0.11559144
-0.00470057 0.05753861 -0.44459671
-0.48964804 -0.04981919 -0.44334555
-0.06642444 0.06564835 -0.34326902
0.48702058 0.20459642 0.20912439
-0.12469113 -0.59414339 0.18085709
-0.63309288 0.05476812 -0.43981162
0.50665176 -0.24269873 0.15714294
-0.42873591 0.12067677 -0.08507791
-0.28882635 0.01493625 -0.44845235
-0.12533440 0.32932344 0.04356603
-0.03697708 0.48259628 0.10248046
-0.32888401 -0.10411020 0.25840688
-0.57587528 0.08765701 -0.25125369
0.00780185 -0.42174250 0.24231392
-0.38747257 -0.21072006 -0.30960274
-0.56786728 -0.09714420 0.03660095
-0.13988757 0.08179235 -0.21091408
0.53444016 0.11365777 0.24862483
-0.20847920 -0.59500444 0.10745499
-0.40398216 -0.18518859 -0.13192762
0.01025531 0.10188426 -0.08742911
-0.18055129 0.20263077 0.01090506
-0.57645941 -0.10026500 -0.14759007
0.44159654 0.62049735 0.25039271
0.09254935 0.25174704 0.03544943
0.38861829 0.71044791 0.11516319
0.45659536 0.07624382 0.08439833
0.61268497 -0.00597931 0.15994549
0.22665367 -0.19989982 -0.11109342
-0.20661381 0.02748081 -0.44976684
0.05634665 0.25928998 0.03997506
0.61247122 0.45549285 0.24588940
-0.20447448 -0.59135795 -0.04880813
0.33848554 0.00974907 -0.12373590
-0.31087098 -0.24265021 -0.41114369
0.05256338 0.56495142 0.10186714
-0.34631565 0.07357997 0.24697655
-0.63646817 -0.08650295 0.07945780
-0.54273713 0.10779260 -0.12877387
0.08029123 0.00509876 -0.28119293
-0.44621018 0.12981522 0.25264889
-0.05430708 -0.04725472 -0.44512790
0.45270878 -0.17862357 0.13179161
0.18825488 -0.17893451 -0.30356026
-0.56204474 0.01063412 0.25400507
0.41111583 -0.28167295 0.12659256
0.10405961 0.00675635 -0.27887285
-0.06936432 0.24078977 0.25720221
0.32156634 0.05606304 0.24748337
-0.13442716 -0.37330478 0.25814772
0.61913633 0.08662701 0.20973650
0.25397044 0.40526372 0.25384852
0.55665588 0.22621714 0.20721713
0.01892868 -0.42867810 0.09643851
0.30208957 0.01405206 -0.11960291
0.32595280 0.39720103 0.10622332
-0.61829937 0.01799397 -0.45293975
-0.35833189 -0.21070835 0.03868414
0.38169479 -0.10560916 -0.04795362
-0.01890712 -0.44880870 -0.12912966
-0.39642021 0.15384588 0.24770758
0.40142187 0.05107954 0.05108958
-0.23164454 -0.57003951 -0.35478470
0.49056950 0.06139641 0.08735751
-0.02552787 -0.46580228 0.13530599
-0.20483212 -0.40602341 0.25637257
-0.28655475 -0.58731449 0.03051347
-0.51166415 -0.11009312 0.02203518
-0.33522451 -0.31763816 -0.31895876
-0.58051789 0.08656853 -0.14052497
0.10877448 0.53591996 0.25219163
0.35110432 0.70136595 0.25458583
-0.26238006 0.25193685 0.12739983
0.35355946 -0.12096782 0.25103426
-0.57785714 0.11648164 0.18869233
-0.02717909 -0.46761385 -0.21938296
0.02485545 0.42959431 0.25621992
0.17020266 -0.27438167 -0.03853153
0.40720561 -0.35765406 0.25399444
0.00399582 -0.32473049 0.24934298
0.09930083 0.51820427 0.25430602
0.51498592 -0.30423033 0.25144702
-0.21639352 -0.58060896 0.12108159
-0.41667032 -0.17723593 -0.27646309
-0.11855251 0.30348700 0.25660440
-0.45254418 -0.11229415 0.22892058
0.07496530 -0.03969111 -0.44069022
-0.33343193 -0.31196788 0.25024241
0.26663017 -0.05497060 -0.16621065
-0.67485547 -0.02829508 -0.11973044
-0.05213559 -0.32867205 0.25558183
0.04160038 -0.29332209 -0.39431539
-0.32256839 -0.31017333 0.15737015
0.29176480 0.56521618 0.25750312
0.01411830 0.08273030 -0.32339370
0.37865669 -0.37216631 0.23606619
0.16702859 -0.40953675 0.04331267
-0.00974717 0.08437460 -0.25914863
0.60464907 -0.06198552 0.10437536
-0.47960651 -0.07533054 0.25800619
-0.36214855 -0.22311944 0.24182951
-0.31806955 -0.38055134 -0.38621035
0.56746233 0.76550651 0.21512404
0.51895165 0.40727797 0.16582403
0.47593388 -0.05607465 -0.02092640
-0.43188712 0.07289281 -0.34528348
-0.36824796 0.13234021 0.25004986
-0.02026240 0.42857897 0.07333110
0.19062670 -0.17862833 -0.08620804
-0.31788248 -0.53059793 -0.31466916
-0.21870963 -0.53901768 -0.36112142
0.12639417 -0.19376594 -0.15174165
0.37428939 -0.01905074 -0.08177599
-0.40878698 -0.15569603 -0.00449879
-0.04107084 0.32600996 0.04311968
-0.55355978 0.12575430 0.18955496
-0.52728456 -0.09161355 0.07409669
-0.30253485 -0.05806169 -0.44383910
0.46994051 0.54203463 0.12577212
0.35647804 -0.16753414 0.09163094
0.56941295 0.11705206 0.25424173
0.19381596 0.00607958 -0.27844387
-0.04021938 -0.56737220 0.06858192
-0.19629420 -0.63941669 -0.32601535
-0.04530484 -0.61300778 -0.32097128
-0.56589413 -0.08145535 0.18837091
-0.29497758 -0.08188285 -0.44201019
-0.61897957 0.08251218 -0.18722787
-0.17564456 0.23430675 0.02962844
-0.50542742 -0.15446289 -0.40971231
-0.14996132 -0.47966990 0.25873101
0.00940150 -0.33213761 -0.39699268
0.03877002 -0.29158771 0.25503841
-0.39390522 0.06971460 -0.31536764
-0.55219162 0.09871572 -0.17010614
-0.53643119 -0.10196128 -0.00315891
-0.35042453 -0.25270027 0.25250241
0.30767855 -0.17805408 0.24963510
0.02613275 0.53993100 0.09821162
0.06936950 -0.41097841 0.08173996
0.41589981 -0.31418100 0.26356456
0.00016468 -0.27203909 0.26039726
-0.26970059 -0.01291973 -0.45556921
-0.31519848 -0.54357541 -0.02883900
0.31829956 0.15525427 0.08279902
0.46682444 -0.10211754 0.24877140
0.01733336 0.04055349 0.24522081
0.41842005 0.15377988 0.13130474
-0.25019813 0.08231848 -0.33555272
-0.16041210 -0.59665549 0.05819243
0.02565330 -0.29387718 0.24952295
-0.32435569 -0.26833087 -0.40628901
-0.31684920 -0.57548070 -0.29259843
-0.30578402 0.15085350 0.24741668
0.46272036 -0.17310604 0.26127994
0.21332151 -0.38797843 0.10472086
-0.65365767 -0.13069645 -0.42464325
0.25070390 0.10080147 -0.02973822
0.17539133 -0.19581255 -0.11631157
-0.36021560 -0.15987195 0.23706463
-0.22163886 0.01007715 0.24873298
-0.64915705 -0.02152934 -0.43624559
0.22213176 -0.34760377 0.02801995
-0.08468260 -0.30439335 -0.40230879
-0.28885975 0.23513003 0.17919067
0.54626489 0.20806457 0.18865326
-0.42624071 -0.15488940 -0.42292720
0.61760104 -0.06271052 0.12589900
-0.40129951 0.08584903 -0.17883262
-0.00306642 -0.48862764 -0.34622824
-0.46282291 0.08389316 -0.27414620
-0.14863163 0.00601771 -0.45512244
0.21135384 0.65583408 0.25890747
-0.28510478 -0.41006210 -0.37328333
-0.04983635 -0.60969710 -0.26065928
0.04756864 -0.25450084 -0.40946817
0.48988119 0.65003097 0.25270426
-0.30108723 -0.54570186 -0.34468773
-0.42280671 0.16258800 0.08877517
-0.20464014 -0.60268474 -0.13376993
-0.12766412 0.28432813 0.03658469
-0.57198954 0.07063793 -0.31317002
0.09787422 -0.31724551 -0.15246478
0.03326357 0.10951111 -0.07272804
-0.44067833 0.15299457 0.10346378
0.06804118 -0.25135976 -0.27842739
-0.04602712 0.22863236 0.25625709
0.12562318 -0.15098117 -0.42325577
-0.54003668 0.08703621 -0.16688436
-0.18967529 -0.61916101 -0.15857080
-0.50250727 -0.12195021 -0.21241325
0.60287559 -0.24093631 0.17024076
-0.21393290 -0.05186170 0.26187858
0.53516722 0.58975983 0.25674608
-0.16549388 -0.60101986 -0.00595734
-0.62502575 -0.10529046 -0.12427375
0.03949070 -0.42588386 -0.08601281
0.59238517 0.20355284 0.21550822
0.50963843 -0.38041186 0.24018320
0.32621017 -0.15401326 -0.07991822
-0.11780962 0.39564487 0.08889604
-0.65492725 -0.08441199 0.00970295
-0.38535568 0.08243427 -0.33597207
-0.00311254 -0.42600608 0.25439233
-0.24617252 0.06779731 -0.37992287
-0.08435288 0.23261595 0.02734403
0.38164175 0.06252439 0.01555958
0.00307423 -0.21144131 0.25666741
-0.28285325 -0.57659328 0.05342270
-0.12237532 0.06346336 -0.34093308
-0.32160458 -0.10320386 -0.44168150
-0.06290500 -0.11334974 0.24914551
0.08485357 -0.30769184 -0.21851557
0.12978686 0.22271724 0.01956131
0.03806075 0.03926650 0.24668539
0.52164745 0.00270135 -0.02221509
0.61518681 0.66716886 0.17232779
0.08952360 -0.00422972 -0.36264119
0.18925452 -0.38631600 -0.01326910
-0.14123756 0.36435303 0.12063685
0.26802868 0.68270779 0.24875733
-0.61458683 0.10892221 0.00421318
0.37281254 0.05326141 0.02979578
-0.57408571 0.12886196 0.17897457
0.51223731 -0.17162505 0.06184974
0.35911956 -0.31140563 0.11901642
-0.13099709 -0.59714913 0.13821949
0.19682154 0.23835424 0.05691686
-0.11667464 0.03533468 -0.45332760
0.38816619 0.11325330 0.06339537
-0.52961838 0.12265369 0.25264797
-0.31587395 -0.54158783 0.10722740
0.12934120 -0.27924228 -0.10105668
0.45954069 -0.14691544 0.12103602
-0.05596825 -0.58576941 0.02342899
0.21619299 -0.27588999 0.25223765
0.30703768 0.00157134 0.24299020
-0.63857853 -0.09438440 0.20850858
0.49782655 0.14658317 0.25050741
-0.31953502 0.21579738 0.21335921
-0.57453668 -0.10210449 0.01615237
0.15169679 -0.05228180 0.25491676
0.45120883 0.06615565 0.08254474
0.55073738 -0.01747057 -0.00741339
0.23782372 0.07928018 -0.03761371
-0.07097584 -0.43830818 0.24520460
0.61185682 0.04861860 0.17350700
0.01269111 -0.03643195 -0.45172063
-0.14082175 0.37609306 0.17899725
-0.28261647 -0.03666761 0.24661061
-0.27945650 0.21422310 0.02357367
-0.22475965 0.06457373 -0.44634455
-0.17357914 -0.58671808 0.24345556
-0.66211390 -0.07812385 0.08901475
0.15860803 -0.07917070 0.25963721
-0.58551538 0.12852809 -0.01789025
-0.44729435 -0.03273731 0.25529566
-0.30386034 -0.46822187 -0.37644780
-0.34725967 -0.22876018 -0.41862044
-0.35179681 -0.26307210 -0.21252459
0.11303996 0.60966182 0.11722836
-0.26888573 0.24511111 0.13686821
0.25633031 0.04743075 -0.02105810
-0.32361981 -0.51605058 -0.35580647
-0.27396297 -0.58035445 0.21296024
0.12722093 0.15885392 0.01281936
0.11750714 -0.41024163 0.15064931
-0.41078365 -0.18434484 -0.23075888
0.05504774 -0.43900317 -0.29096228
-0.01463949 -0.14401776 0.25606930
0.12235712 -0.12532662 0.24596930
0.14379849 0.37870124 0.24965638
-0.41037792 0.09185264 -0.30274099
0.40744123 0.19748639 0.26024994
-0.02092041 0.47148797 0.24526301
0.09682482 -0.15790841 -0.41919306
-0.31281343 -0.24357113 0.25365269
0.52906513 -0.17670876 0.24941558
0.04241540 0.55541492 0.15063399
-0.45625687 -0.14300382 0.25766084
-0.31954655 -0.34355184 -0.14102484
0.25147036 0.63003647 0.10925005
0.04396485 0.01767658 0.25239322
-0.17867459 0.33201349 0.23672020
-0.62757194 0.08449575 -0.23922394
-0.31654260 -0.45350102 -0.37120298
-0.32187331 -0.45570835 -0.21287775
0.29334545 -0.10691033 -0.12716703
0.51972830 0.67497933 0.11607021
-0.56156003 -0.09768240 -0.01514987
-0.02878916 -0.39911789 0.25125512
0.23365653 0.53592336 0.25165161
0.30900598 -0.13155924 0.25490114
0.37645692 -0.18487573 0.10988602
0.39212200 0.06637378 0.25819939
0.13386966 0.60869753 0.11606686
0.28252587 0.64907956 0.24539953
0.09285340 0.50451243 0.25351983
0.61231411 -0.00842832 0.14192113
-0.41370061 0.13416889 -0.03730573
-0.03104532 -0.28774858 -0.40190655
-0.32750565 -0.11511265 -0.43352661
-0.31251141 -0.42324403 -0.34531349
-0.33408326 0.19941226 0.17061204
-0.10544913 -0.41779774 -0.38362694
0.53546000 0.75755501 0.21642852
-0.64919496 0.12055391 0.16495219
-0.39475501 0.15319046 -0.02626184
-0.35084519 -0.24682823 -0.04888976
0.49633226 0.05776996 0.06985004
-0.17809390 -0.60419464 -0.09781200
-0.48632661 -0.13140222 -0.26077211
0.33635193 0.66921926 0.10166886
0.12440623 0.13934320 -0.01820084
-0.34176612 -0.20061266 -0.42236432
0.17369048 0.01740042 -0.23795301
-0.51233315 -0.13016166 -0.27193868
-0.31966460 -0.36750123 -0.03967588
0.03846298 -0.20815131 -0.41306621
-0.34639734 -0.15226462 -0.42158857
-0.17228256 -0.60158217 0.04259349
0.40057608 -0.08308120 0.25423551
0.22349858 0.02492419 0.25102034
0.09232180 -0.28980839 0.24690804
-0.28368908 -0.35802880 0.25169718
0.26337817 0.17192787 0.10480534
-0.11088923 0.20269531 0.01471813
-0.10763016 0.06761937 -0.32722759
0.19270688 0.11708326 -0.05417823
-0.09523728 0.24688937 0.03758962
-0.29416788 -0.24926946 -0.40212122
-0.34772378 -0.10424057 0.24515551
0.38986084 0.13220191 0.24799848
0.18242204 -0.29342267 -0.02571513
-0.23601347 0.06134160 -0.43068662
-0.26854891 -0.55323148 0.25263682
0.42348167 0.00067548 0.25415537
0.00968475 -0.43352273 0.04941629
0.05681772 0.04986297 -0.35736585
0.27156523 -0.18040736 -0.04033913
0.34564942 -0.19239470 0.09113158
-0.37533832 -0.19628179 0.14926302
-0.61256230 0.09572928 -0.07155395
0.51932025 -0.06769553 -0.00349101
0.05887400 -0.41317081 0.08642495
-0.09197725 -0.37849554 -0.37681895
-0.18111664 0.08004937 -0.30790007
-0.31794026 -0.52666855 -0.19856668
0.19503324 0.55596864 0.08791652
0.39897725 -0.32491472 0.25187713
0.51480997 -0.26225933 0.15588242
0.38250718 0.41504738 0.12923655
0.41808599 -0.18788013 0.12254488
0.48063543 -0.13649344 0.25934476
0.07607105 -0.42855322 -0.06757344
-0.67566121 -0.04322331 -0.33497024
-0.57787800 -0.08126803 0.14188346
0.19071382 -0.16144310 -0.31716740
-0.18463324 -0.06931001 -0.44389448
-0.21246052 0.08227178 -0.35665816
-0.09688307 -0.15501495 -0.42202708
-0.00794186 -0.44133314 -0.18040308
-0.59859276 -0.12444907 -0.32889664
0.50355923 0.38365325 0.25792202
0.45062247 0.41850325 0.25156111
-0.40154949 0.16693269 0.06407724
0.41666088 -0.16857786 0.06005192
0.34637061 0.51331019 0.25992066
0.12779048 0.00357767 -0.24617879
0.57422054 0.16604669 0.20003840
0.37033460 0.57121563 0.25291809
-0.64423215 -0.09055470 0.18281224
0.07325375 -0.02018773 0.24628344
-0.16585658 -0.36981696 0.24585357
-0.31194133 0.09533988 -0.16761890
0.28248525 -0.37753645 0.24726555
0.52205789 0.23543766 0.20049340
-0.06304589 0.31649712 0.04804075
0.32962397 0.62349451 0.24907380
0.48965082 0.43350339 0.15245631
-0.08349237 -0.52410805 -0.36247140
-0.14076972 -0.61356020 -0.14034268
0.15115404 -0.05868699 -0.44286847
-0.37340024 0.20053190 0.22369504
-0.54266810 -0.10216363 0.03586175
0.54797888 0.53691512 0.25550452
-0.31167582 -0.38539094 -0.00964043
0.17577237 -0.00220410 0.24872175
-0.28903335 0.24045338 0.23575434
-0.21307857 -0.13374333 -0.42044678
-0.07739903 -0.60788047 -0.07637960
0.28286323 0.43027386 0.26102728
-0.63961053 0.07039063 -0.22955312
-0.04346193 0.35043836 0.24989516
-0.67034149 0.06697336 0.02137063
0.24467164 -0.19705105 -0.11312903
0.55012155 -0.17981330 0.15003639
-0.28652778 -0.56286478 0.24617913
-0.25269425 -0.24054384 -0.41067955
-0.21450672 -0.07739416 -0.43115345
0.11017056 -0.30990824 -0.17119741
-0.02694484 0.07595800 -0.38160741
-0.67656648 -0.09414393 -0.34340203
-0.31846690 -0.53337848 0.13432555
0.01683548 -0.47320661 -0.31481233
0.57545257 0.39636695 0.24699208
0.13770868 -0.24395716 -0.09793783
0.19281913 -0.36842167 -0.01092166
-0.32221323 -0.42746195 -0.14689705
0.28338715 0.63799822 0.10929640
0.32237241 0.50046873 0.08637616
-0.56058991 0.11192237 0.24908313
0.24647442 0.45877883 0.06810139
-0.31556192 -0.57616413 -0.24424498
0.14376256 0.62989366 0.22930878
-0.19053796 0.09632406 0.25058007
0.13240659 -0.17779797 0.24616209
0.10713518 0.45137498 0.25638530
0.60268307 0.40792957 0.16351560
-0.18592325 -0.62069833 -0.17456475
-0.03523571 0.49295121 0.14965492
0.26857972 0.43206280 0.25955334
-0.64205492 -0.10927890 -0.43313313
0.26350796 0.61096358 0.25850442
0.36819753 -0.15067394 0.07087761
0.11161636 0.12598154 -0.03108512
-0.08980857 0.04277328 0.24843791
-0.02474031 -0.50720835 -0.24685623
-0.25691187 -0.50565064 0.25776684
-0.37734920 -0.18708070 -0.41177353
0.18164225 -0.20727232 -0.35915542
0.61810338 -0.28562242 0.20990196
-0.52946162 -0.11297847 -0.12120900
0.05861382 -0.00097341 -0.37097275
0.25440365 -0.17907573 0.25049666
-0.54058290 -0.08906287 0.15869087
0.16587865 0.00219528 -0.24897422
-0.11568289 0.05063175 0.25301912
-0.65273249 -0.12067041 -0.34336743
-0.15434155 -0.59304953 -0.01204727
-0.30349457 0.23311549 0.17961463
-0.08756521 -0.60532701 -0.13659160
-0.36980262 -0.10638656 0.24551108
0.29149032 0.17292203 0.10501570
0.52175331 -0.17349321 0.04340652
0.05849434 -0.42816517 -0.07588464
-0.47396839 -0.14684583 -0.30110067
0.08460969 0.55238897 0.25685003
-0.41416541 -0.16542000 -0.07114735
0.16847274 -0.20460933 -0.05084090
-0.26545131 0.05958794 0.24727231
-0.32576472 -0.28838831 0.17571819
-0.05431409 0.37436989 0.05331947
0.05384893 0.40260538 0.06508493
0.13010405 -0.41285422 0.18017623
0.07793431 -0.43211368 -0.11829991
0.07117157 0.07759016 -0.23632392
-0.29446027 0.10596190 -0.15789029
-0.04926441 0.08663754 -0.31382906
0.25244442 -0.33427724 0.04545566
-0.06861046 -0.59364021 0.01772630
0.30913988 -0.17538804 -0.10493977
0.40537348 0.01162548 -0.05864424
-0.32159328 0.16647667 0.25934634
-0.17941311 0.10024475 -0.09382945
0.25337037 -0.20195383 -0.15151298
-0.23866104 -0.57928836 -0.35307038
-0.48993084 -0.15482891 -0.37990722
-0.61704481 0.01065925 0.25686523
0.37851593 0.62290215 0.10126814
0.45525807 0.58503950 0.11666524
-0.37419409 -0.20278776 0.00238749
-0.66416526 0.05983348 -0.41963062
-0.43342242 -0.16337746 -0.24319141
0.39061090 0.02799017 -0.06142425
0.39151180 0.04050555 0.25073403
0.02674676 0.50230169 0.25344065
0.20521300 0.58683455 0.25738591
-0.64383030 -0.14401351 -0.40680447
-0.48883316 -0.10214740 0.15687650
-0.66177332 -0.07168709 0.24906433
0.13978378 0.12711558 -0.02903964
-0.20748547 -0.63358152 -0.29398757
-0.67007160 -0.00424835 0.07983711
-0.38671899 -0.20676956 -0.40660980
0.31959316 -0.39242730 0.14591199
0.22186407 0.17412418 0.08442517
0.39399251 0.23198125 0.16662946
-0.33412623 -0.30593643 -0.12106924
0.25552884 0.04363814 0.25071391
-0.32006088 -0.39185536 0.11053227
-0.20703657 -0.60275483 -0.05711785
0.15078260 0.61422539 0.11110164
0.34786335 -0.35695621 0.13693179
0.10033536 -0.10051547 -0.43420184
-0.37289903 0.07144013 -0.31364194
-0.32120651 -0.43261412 0.12645793
0.03622761 -0.43498650 0.23687857
0.34525967 -0.28852493 0.10655151
-0.38351408 -0.20375982 -0.12055220
-0.05858302 -0.14586854 0.25936973
0.27686435 0.08550365 0.25072691
0.61838484 0.49376631 0.23218235
-0.26729548 0.22980432 0.25574204
-0.63974082 0.10636698 -0.13473476
-0.28476426 -0.58694732 0.04321453
0.19938812 0.59713268 0.09542295
-0.66711044 0.09719061 0.24814886
-0.12098436 0.22759221 0.03093705
-0.26835859 -0.53156519 0.25908974
-0.07529130 -0.49115506 0.25651392
-0.39200184 -0.19814041 -0.23533455
0.35571855 -0.28806591 0.25666678
0.43446711 0.12732626 0.25452295
-0.31697470 -0.46721444 -0.10820106
0.11081973 0.00576416 -0.26773846
-0.40017337 -0.20708042 -0.36235455
-0.50279576 0.04453240 -0.44629455
-0.30637559 -0.07181264 -0.43119115
-0.35322449 -0.23660570 0.02341035
0.00574121 0.28720677 0.03340469
-0.04584742 0.07957204 -0.23994395
-0.44559711 0.10751949 0.25009015
0.39733726 -0.26617959 0.13411741
-0.32419613 -0.33080259 -0.34195113
0.53712404 0.07413810 0.10389438
-0.32104456 -0.39409924 -0.11601777
-0.16812639 -0.53856957 0.25708956
0.38982388 -0.18665755 0.11677374
-0.67641115 -0.10654923 -0.34469447
0.03660950 0.42030293 0.06135537
0.39782959 0.05277943 0.03861634
-0.28391981 -0.26414391 -0.40303758
0.25019518 -0.36528733 0.06751303
-0.64437294 -0.08525592 -0.11013056
-0.19017249 -0.61189044 -0.13490433
0.11011969 0.47914273 0.07569589
-0.09653737 0.05679888 -0.38313875
-0.31807426 0.21531017 0.06573971
0.50761712 -0.16884957 0.07610327
-0.22526830 -0.39577442 -0.38565165
-0.32161528 -0.54260349 -0.31402481
0.34555161 0.13896680 0.24401459
0.57554603 -0.28527594 0.25298220
-0.34445298 0.08693623 -0.31278557
0.61083663 0.05760835 0.13833323
0.37018356 -0.17433463 0.24935099
0.55211997 -0.26192930 0.25773519
0.06790235 -0.26252094 -0.37283692
0.45318586 0.15812927 0.18241221
0.33051801 0.59302557 0.09412295
-0.00845333 0.05500473 -0.39765802
0.18324588 0.29588610 0.05025218
0.31400603 0.31883764 0.24677685
-0.25059533 -0.15134235 0.24968645
-0.58061659 0.06398229 -0.40510076
-0.35849971 -0.26045889 -0.25036818
0.61810541 0.67784846 0.21317816
-0.24399537 -0.62302279 -0.35390985
0.19555719 -0.21162584 -0.21710479
-0.02057524 -0.08921310 0.25198069
-0.34294140 0.15565023 -0.01193953
0.23160183 0.53895140 0.08262819
0.21538356 0.63233840 0.09827723
-0.29989392 -0.50271380 0.24881864
0.54636550 -0.10266006 0.00485158
-0.02408272 -0.22439608 -0.40540048
0.33515215 0.68038690 0.11082007
0.16207269 -0.12391965 -0.42655292
-0.63762307 -0.05442098 -0.44958934
-0.31238300 -0.34857234 0.13227984
-0.23887755 -0.59187770 0.01702708
-0.24445935 0.09553869 -0.16650343
0.27240300 0.00092168 -0.16319898
0.35894838 0.15712813 0.25074789
-0.45614934 0.06213747 -0.39905038
0.27444261 0.07224210 0.25401047
0.47234944 0.32358563 0.24918765
0.00402880 -0.40460926 -0.38743353
0.18766661 0.65108871 0.21009523
-0.66655028 0.08418795 -0.30625963
-0.04799499 0.43257087 0.25584212
0.22441512 0.25061125 0.07959113
-0.28083307 -0.11019911 -0.42986253
0.55833685 0.58474326 0.25221038
0.17181291 0.60658431 0.25603381
0.61071706 0.04843797 0.03835732
0.42407459 0.06417757 0.25586826
0.09184743 -0.24982902 -0.37301141
0.57764280 0.37380314 0.24894756
0.42907268 0.56422710 0.12182944
0.59714031 0.35340998 0.17855540
0.37587491 -0.35728434 0.23532638
-0.40366915 0.16538453 0.11331969
-0.65183961 -0.11565347 -0.22853515
-0.16878207 0.22969362 0.25012761
0.14318679 0.17331225 0.25494286
-0.09653190 0.22625688 0.25748810
0.08535388 -0.40842807 0.06312267
-0.54857898 0.07938062 -0.21785063
0.23865193 -0.09083715 0.24359220
0.07042839 0.49110219 0.25269023
0.07347699 0.27137434 0.03483823
0.03490235 0.47142228 0.07461546
0.30708551 0.71413350 0.22394934
0.41017914 0.28196904 0.24817786
0.34550813 0.72485435 0.19764379
0.58281040 0.75945628 0.12473992
0.18894084 -0.26897755 0.24937394
0.23818326 -0.00048448 0.24625602
-0.32203636 0.21382180 0.16660890
0.40101239 0.03185433 -0.04117952
0.04716574 -0.24472487 -0.39609462
-0.55075431 0.12433285 0.01524879
-0.68131292 0.01134419 -0.18082520
0.14944080 -0.21733892 -0.23991440
-0.13800886 0.19650294 0.02055046
0.61838329 0.61665034 0.13824430
-0.49832758 -0.11846805 -0.42706752
0.17936616 0.20514503 0.25213894
0.09496662 0.12694839 0.25537041
0.19741525 -0.16413522 -0.28576064
0.58152151 0.44347966 0.16076452
0.61644590 0.11333898 0.17398053
0.01428112 0.32390821 0.04581459
0.18866411 -0.07539029 -0.33241373
0.31773689 0.68750501 0.11743568
-0.30163556 0.21745837 0.01730298
-0.34303918 0.19297436 0.00758610
-0.33060631 0.00688766 0.24798176
-0.21629788 0.28731132 0.25549513
0.57806075 0.06796303 0.04215732
0.60780096 0.02589377 0.12632705
0.21455577 -0.39474961 0.17911655
-0.14664748 0.14079857 -0.02458754
-0.05559644 0.18766087 0.24861318
-0.36033773 -0.11194573 -0.43486598
-0.67539537 -0.03198821 -0.06147174
0.34187967 0.14644514 0.09147933
0.28430030 0.69252324 0.14719743
-0.31833455 -0.42244506 -0.29839307
0.22877827 0.31024572 0.06188764
0.38976455 0.15352404 0.09597200
0.00119059 0.22804092 0.24957770
-0.53837240 0.06452648 -0.36753356
-0.66683555 0.08030447 0.11199035
-0.50641751 -0.10080983 0.08977975
-0.67439818 0.01206957 -0.16777807
-0.48399052 -0.12579726 -0.15062711
0.10448992 -0.40947649 0.20653665
-0.29267788 0.23911586 0.19047546
-0.27100015 -0.08129720 -0.44040126
0.45239770 0.75441062 0.24139833
-0.54979551 -0.09115280 0.12466504
-0.41179267 -0.13782333 -0.43306971
-0.05540376 0.04815036 -0.46084914
-0.27216578 0.19890648 0.00636804
0.22722140 0.15644306 0.25267112
0.08363670 -0.13105120 -0.42873076
-0.24355471 -0.41341549 0.24580586
0.56165195 -0.37669694 0.24328092
0.32645896 0.32010588 0.24987990
-0.46101463 -0.15096757 -0.28705224
-0.53833109 -0.13425761 -0.42251095
-0.17534626 -0.47519144 0.24988091
-0.31775600 -0.34471390 -0.16582385
-0.64811456 0.12648323 0.11107641
0.40349007 0.07122529 0.06728467
-0.24893302 0.05458805 -0.40004227
0.45777473 -0.20865232 0.13771175
-0.28128129 0.07947995 -0.25608373
0.14992648 -0.40448382 0.17699108
-0.04086268 0.47689655 0.17036161
-0.56673539 0.08226783 -0.34854078
0.25613746 -0.16728362 0.25010675
0.23619080 0.21272776 0.26160640
-0.20108190 -0.59881282 -0.11842740
0.26562738 -0.02295328 -0.17906898
0.14960048 0.43210572 0.06398894
-0.58698535 -0.12361471 -0.43216687
0.15403210 -0.34519690 -0.05725739
0.46386412 0.56165969 0.24396414
-0.28311884 0.10329848 -0.12464441
0.40234256 0.19323842 0.25002423
0.53379416 -0.11745302 0.01473955
-0.05891373 -0.58556771 0.15555114
0.26518065 -0.27874744 0.25245148
-0.33712971 -0.30845895 -0.35036775
0.35981408 -0.27144271 0.24591994
0.41210750 -0.16057543 0.25155550
-0.66197503 -0.07466808 -0.09929340
-0.30258396 0.05728568 -0.42632592
0.07921893 0.23102708 0.25483078
-0.37009647 0.06240540 -0.37171903
0.41164127 -0.17315170 -0.00477614
0.19424787 -0.39264745 0.01443307
0.06454285 -0.13427958 0.24726003
-0.47078902 -0.10762422 -0.43134022
-0.23776954 -0.59255958 0.22162679
0.13390358 -0.30439094 -0.09353041
0.00767148 -0.48007455 -0.32589930
0.53526545 0.68583417 0.25473595
0.49188986 0.30578408 0.17715916
-0.23570867 -0.61322391 -0.11444122
-0.07627041 -0.59127915 0.15456042
0.48241732 0.23074806 0.24718529
-0.64716578 -0.13945338 -0.38280243
0.06953604 0.11437753 0.25180703
-0.66960955 0.10820642 -0.08737402
0.57781827 0.72528076 0.11283082
0.12883940 -0.41251042 -0.08458330
-0.36744076 0.04524093 0.25120869
-0.21522199 -0.58484495 0.18502939
0.40032893 0.63334227 0.11401621
-0.00659117 0.39615622 0.25068796
-0.30748218 -0.61320662 -0.32503495
0.09864435 -0.41419268 0.22775468
0.02183071 -0.47938505 -0.33583319
-0.02540761 0.48811740 0.08529894
0.22921854 -0.26315266 0.00952920
-0.53656435 0.12347127 0.06861229
0.48876217 0.13972247 0.09068552
0.60595250 0.16981319 0.22077164
-0.13792187 -0.62578011 -0.31784937
-0.21730256 -0.26005241 0.25845632
0.48851761 -0.07848424 -0.01042611
0.04869030 0.02812571 -0.39379340
-0.64895022 0.01421533 -0.44861007
0.04898382 -0.39634612 -0.31612301
0.60911870 -0.05011330 0.24216452
-0.13018845 0.09434408 -0.13156307
-0.16241224 -0.58270001 0.19431546
-0.16509145 -0.06412505 -0.44305450
-0.09364737 0.44934037 0.24829477
-0.60731959 -0.07157017 0.15648419
-0.04396357 0.07619683 -0.35861772
-0.01489704 -0.46259722 -0.15123759
0.06978343 -0.30178875 -0.23000491
-0.57881367 0.07617585 -0.25812832
0.03883851 -0.44179258 -0.15086904
0.20635119 0.03151456 -0.08034857
-0.62078345 -0.09250599 -0.09254441
0.18587768 0.18352872 0.06508361
-0.02807750 -0.46744820 -0.12094243
-0.27815294 -0.50076008 -0.36819780
0.61194932 -0.28415978 0.24485087
-0.03095701 0.10064845 -0.20053408
-0.07264958 -0.19444346 -0.41455004
-0.20797230 -0.58658361 -0.35523617
-0.02455720 0.09328930 -0.12007702
-0.31746429 -0.41121942 0.18327221
0.43205923 0.14678887 0.07856347
-0.28539953 0.09321617 -0.11485124
0.00928489 -0.44682679 -0.11139949
0.39919627 -0.38882783 0.20242694
0.38388732 0.59819102 0.10340056
0.28931156 0.03938382 -0.06686332
0.02565737 -0.27563867 0.24937204
-0.31515971 -0.54278326 -0.00845847
-0.56853437 0.05056856 -0.43018901
0.42347935 -0.22762659 0.13090287
0.60858011 0.03928693 0.01279195
0.37112755 0.65717840 0.10305306
-0.09331603 0.09645148 -0.26601064
0.46566847 0.63013697 0.10659724
0.12077181 0.62951314 0.14769089
0.33664691 -0.17866129 -0.08086360
-0.21962035 0.14001204 -0.03235864
0.61969185 0.09723915 0.17843592
-0.12783082 -0.62287855 -0.34607130
-0.07522880 -0.50472438 0.25354359
0.54784191 0.16273223 0.18865594
-0.31746835 -0.44372383 -0.07573104
0.05069092 0.23950605 0.03138663
0.44256258 -0.07012030 0.25388756
0.38059381 0.72451735 0.15397140
0.03625476 -0.43278635 -0.01425934
0.16391313 -0.18335660 -0.07681638
0.59611273 -0.28160155 0.19842359
-0.33893737 -0.27742624 -0.00001296
-0.64812875 -0.07549393 0.15785056
0.19490919 -0.14081630 -0.29954284
0.00332330 -0.46834001 0.25380895
0.23334530 0.47772563 0.07113853
-0.45198971 -0.12152793 0.23934296
-0.31519628 -0.51846814 -0.03568936
0.47626778 0.73734617 0.21671981
-0.02638392 -0.47281548 0.04810677
0.33103064 0.70174229 0.13649331
-0.66720057 0.09929992 -0.20593396
-0.32835847 -0.34430134 -0.35269630
-0.01743511 -0.47002283 -0.20284523
0.26833892 0.65543580 0.11802197
0.11277686 -0.40109080 0.24492961
0.24314100 -0.17320170 -0.18580477
0.19418313 0.22087412 0.05433409
0.16656019 -0.20473641 0.25093701
0.40410727 -0.02717685 -0.06296316
0.54035676 -0.16466132 0.25346690
-0.15402278 -0.28612933 -0.40694302
-0.01852918 -0.44508275 0.19625300
-0.53733188 -0.09537677 0.20854786
0.61461401 0.13477474 0.18229765
-0.52315068 0.06726459 -0.30982521
-0.06008752 0.05996277 0.24979937
-0.30518642 -0.42123049 -0.35970095
-0.34837711 -0.26950151 0.25344998
0.34090310 0.01470260 0.24494690
0.04962604 -0.37247995 -0.33331415
-0.39475507 0.11849393 -0.06877153
0.34913245 -0.39331412 0.21565112
-0.32492679 -0.08525546 -0.44063741
-0.36951649 -0.20430422 0.11180303
0.02387219 0.19258994 0.26352116
0.41579965 0.11732903 0.08214359
0.07426389 -0.39111757 -0.21700974
0.52626133 -0.28431180 0.25241444
-0.55311930 0.07025096 -0.38829181
-0.18317436 0.34159988 0.19191036
0.58151197 0.68434465 0.11353087
0.56422508 -0.03459955 -0.00847418
0.10542287 -0.22255182 -0.16141704
0.43000370 0.05702892 0.02315865
0.35407197 0.53228974 0.09443186
0.06950594 0.08302730 -0.26057875
0.31577244 0.27340618 0.23992601
0.20645460 -0.08791348 0.25559032
-0.49004602 0.08371355 0.24887940
-0.57798135 -0.10479376 0.13552080
0.42278337 -0.38312301 0.16532150
-0.08156002 0.43047887 0.06545877
-0.51645231 -0.10342884 -0.11785836
0.55630207 -0.20285881 0.25877982
0.16677211 0.63360262 0.25962502
0.20855759 0.67250776 0.21984309
0.01827901 -0.43400431 -0.37491885
0.45460221 0.52561742 0.12786347
-0.05135219 -0.59689891 -0.34864438
-0.56016147 -0.08599286 0.00670382
-0.08530124 -0.17555560 -0.41575518
-0.23112206 -0.51853025 -0.35606200
-0.16821742 -0.53936028 -0.35839084
-0.52845478 -0.08185901 0.20874301
-0.33629709 -0.27982336 0.25673297
0.33828044 -0.17580134 0.04166341
-0.28412378 -0.38985807 0.24977034
0.26610234 0.12366054 0.24943218
-0.23079787 0.11832026 -0.05992115
0.51131105 -0.37899500 0.21872541
0.47979268 -0.03829466 0.25171527
0.12959942 -0.23457995 -0.33539161
0.53290844 0.51551628 0.25208786
0.58391356 -0.20040786 0.15274024
-0.20589738 0.16758803 0.26268008
-0.02096549 -0.50806105 -0.29971233
-0.65113866 0.11891969 0.23453736
0.61056256 -0.19934860 0.17496625
-0.02971726 -0.40879115 -0.38513196
-0.32012799 -0.36826447 -0.17018880
-0.66963732 0.09610754 -0.10164209
-0.01063260 -0.29626632 -0.40348202
-0.30744994 0.04158469 -0.44606516
-0.14816757 0.16628788 0.25048783
-0.54531491 -0.00554009 0.25048873
-0.10711505 -0.32831562 -0.39416340
-0.66633654 -0.11372118 -0.21305256
-0.30887249 -0.57208407 -0.20442112
-0.68053555 0.00741419 0.22368494
-0.49063376 0.14278705 0.03836049
-0.02891232 0.05953725 0.25282559
-0.33826119 -0.24304041 0.10315773
-0.36298579 0.16217050 0.25123087
-0.13197055 0.13465708 0.25677618
-0.02309044 -0.24000129 0.24939531
-0.67775762 -0.02130776 -0.21226020
-0.20208533 0.26323107 0.25228587
0.13396241 -0.20452678 0.25743839
0.24371102 -0.35156810 0.05160224
0.05225456 -0.34251580 -0.34326535
0.26618332 -0.20208204 0.25320828
-0.03028368 -0.46001402 0.05999777
0.22700602 -0.19116959 -0.08838749
0.23466167 0.62956131 0.25424069
-0.67240477 -0.02940933 -0.01440158
-0.59341455 0.05239509 0.25138307
0.56667197 0.20514391 0.20724639
0.61419487 0.03382378 0.21921968
0.34692618 -0.04105042 0.24888670
-0.21675816 -0.23044798 -0.41720793
-0.18536009 -0.21876001 0.25186604
-0.17601207 -0.33037233 0.24885008
0.60303271 0.05176869 0.01564957
