0.72912645 0.07707334 -0.20410848
0.57248181 -0.26033571 0.23860084
-0.44244742 -0.04688214 -0.11455499
-0.19554672 -0.35830024 -0.37919858
-0.35239729 -0.00921707 -0.22182798
-0.10535048 -0.49221951 -0.35694534
-0.71568936 -0.04487349 -0.02271159
0.70720088 0.08375017 -0.11339472
-0.01673169 0.38181266 0.29738316
0.33739936 -0.41850424 0.05310977
0.41395774 -0.31733313 0.29980367
0.16958916 0.80808312 -0.12773699
0.87680852 -0.25167271 -0.13330701
-0.08880737 -0.39792478 -0.14313896
0.00607230 0.32936025 0.46606609
-0.18877077 -0.35146701 -0.37784648
-0.06377068 0.65395856 0.14770555
-0.52790630 -0.06400971 0.28944212
-0.79746836 -0.19082272 -0.29529661
-0.52102357 -0.11181524 0.00305119
0.52636647 0.21234196 -0.07177393
-0.55403543 -0.14755881 0.27773374
-0.82487816 -0.37121528 -0.06064816
0.43990970 -0.08788767 0.38109857
0.19782662 -0.14161438 0.40371841
0.84734845 -0.21801075 -0.08345674
-0.68611199 -0.01800255 -0.01492213
-0.05425296 0.78597426 0.00596689
0.04986008 -0.35182458 -0.18235672
0.75119305 -0.28238392 0.05945316
0.56651700 -0.11047374 0.05329293
-0.00293178 0.50697970 0.03183831
0.44352499 0.49757674 -0.22878730
-0.02707149 -0.07742289 0.59753764
-0.11623269 -0.56949943 -0.28054291
0.27460760 -0.32806966 0.29237288
0.00824142 0.34736592 -0.26619157
0.65105265 -0.51034564 -0.31999913
0.49012536 0.27041519 -0.36537325
0.59184837 -0.09127857 0.12565972
-0.76581496 -0.11422351 -0.05982864
0.25939554 -0.37773627 -0.38548014
-0.17751978 -0.15913534 0.52991104
-0.55299217 0.25720173 -0.15819812
0.33794701 -0.39549017 0.26105011
0.23454744 -0.34348336 0.33556482
-0.36185783 -0.48056197 0.06251046
-0.02303216 0.34231544 -0.34873226
-0.38643968 0.40717259 -0.05937551
-0.06279071 0.34553576 0.32545453
0.11937018 0.45821747 -0.07825975
0.06663498 0.48136228 -0.38951129
-0.63982505 -0.07766503 -0.36103946
-0.25326172 -0.03217764 0.52982378
-0.57082486 -0.57453376 -0.17430505
0.24289972 -0.58808869 -0.28836033
0.32125816 0.21347237 -0.18174028
0.26400241 0.20072301 -0.34043220
-0.64749098 -0.22905096 -0.37986529
-0.42618167 0.01125224 -0.14851677
-0.26052678 -0.25904152 -0.18899378
-0.74571294 -0.17083496 0.04194592
0.32880259 0.11032350 -0.34512541
-0.04066413 0.58597404 0.23331121
-0.46398148 0.36835736 -0.19619513
-0.48654953 -0.17493594 0.07197411
-0.59928894 -0.43410873 0.08330216
0.65392703 0.04989768 -0.34982261
0.73755252 0.04463736 -0.12329149
-0.17505969 0.40428886 -0.38941732
0.13659021 -0.28438467 -0.28786108
-0.22102326 0.60837680 0.02314892
-0.83062637 -0.20864892 -0.10138614
-0.54576415 -0.05444981 -0.38359970
-0.28291863 0.38493857 -0.07649910
-0.00287027 -0.22304034 0.51469874
0.26632237 -0.59144896 -0.13353895
-0.12895454 -0.37122655 -0.37484238
0.23766372 0.02634550 0.42969179
-0.29652628 0.52723587 -0.03753845
0.71680003 -0.53891760 -0.17523137
0.41157165 -0.35442054 -0.38709974
-0.83548105 -0.41482997 -0.11883754
-0.36167237 -0.13868073 0.31703055
-0.42813608 -0.05379090 -0.38297713
0.42328238 -0.18993947 -0.11583419
-0.10726225 0.74553370 -0.32964918
0.12309914 0.60025531 0.18994330
-0.24241500 -0.60224730 -0.14505698
0.64388800 0.15057710 -0.30752218
-0.29131985 0.49285886 -0.01251706
0.13150252 0.43895361 -0.37896025
-0.82161522 -0.16876274 -0.17963433
-0.57442838 -0.48054057 -0.34624192
-0.51114732 0.26883572 -0.26979107
0.28010821 -0.04005417 0.51822990
-0.34231681 -0.10790333 0.33993399
0.20773871 -0.34010628 -0.15453032
-0.16411787 0.78566033 -0.20674348
0.02615945 -0.47136676 -0.08249617
-0.50244123 0.31625223 -0.12550180
-0.33189231 0.52407539 -0.27109340
-0.31258661 0.54122102 -0.29324263
0.44994211 -0.27398545 -0.38527960
0.38010129 0.03339138 -0.34527126
0.09279170 -0.55367547 -0.31857720
0.19582669 0.04387584 0.55994588
-0.01870287 0.37360412 0.30291474
0.61740798 0.07416810 -0.36686668
0.84595138 -0.29540709 -0.06695308
-0.52674186 -0.50250602 0.02061388
0.13978344 -0.05468638 0.59052557
0.52422386 0.27823830 -0.34042332
0.32724214 -0.09742405 0.48109350
0.56068176 0.28687042 -0.10204937
-0.57987648 0.00551333 -0.01340368
-0.30151567 -0.59302688 -0.25492185
-0.67071849 -0.10891338 -0.35620844
0.43298787 -0.25980031 0.04724956
0.23787516 -0.36171910 -0.11247383
0.34319517 -0.18666556 -0.26467204
-0.54585725 -0.53649706 -0.30145115
0.06779815 0.40311858 -0.15981638
-0.05832449 0.22958712 0.52336121
0.18516117 0.03133614 0.57308710
-0.50332201 -0.22889179 0.30337501
-0.72509474 -0.10089040 0.01611058
0.19470434 0.22037444 0.47627482
-0.61105227 -0.14494619 -0.37919730
-0.32319590 -0.18643650 -0.20706177
0.70145971 0.09425667 -0.27152383
0.09412992 0.86305296 -0.23441121
0.13163573 0.61341804 0.16654488
0.66647780 -0.37750131 0.08655226
-0.47776803 0.08903976 -0.37523428
-0.08141883 -0.27612129 -0.33819810
0.28319135 0.45158195 -0.04290335
0.24020363 -0.39387035 -0.38379231
-0.43195003 -0.26595080 0.10942440
0.25240272 0.14813860 0.43578902
-0.50810641 -0.25112656 -0.38200751
-0.55416805 -0.50703365 -0.33485579
-0.11189082 -0.02758643 0.59802097
-0.10795364 0.86011916 -0.19091663
-0.55109149 0.26661474 -0.13441692
0.09499814 -0.15539116 0.44718277
-0.01906112 -0.58806705 -0.10225172
-0.08949371 0.50706792 0.06276353
0.15350616 0.28080669 -0.30491638
-0.38706917 -0.54351288 -0.31460360
0.35102642 -0.18486121 0.29543343
0.35398516 0.29467553 -0.38492775
0.20276213 -0.24718693 0.38073200
-0.52523685 -0.53009170 -0.03810176
0.11947675 0.50733757 0.15374532
-0.14530949 -0.58014309 -0.08269332
0.58625454 -0.45455563 0.07413709
0.14896286 0.39491200 0.36778423
-0.36998242 0.02039039 0.42145118
0.15412000 -0.40517175 -0.38083172
0.15513988 0.55829144 0.20357430
-0.10113412 0.29080287 -0.32297146
-0.73698014 -0.16055492 0.05339924
0.01893667 0.16519701 0.44982153
-0.02154489 -0.33877158 -0.20031667
0.32923129 -0.59878576 -0.16668406
0.04860571 0.04764353 0.47958630
-0.03343120 0.09048992 0.60770321
0.14585082 0.08495487 0.45265839
0.44550896 -0.11526062 0.37636051
0.13372393 0.20064019 0.43567318
0.40439448 0.03737697 -0.37533060
0.13823658 -0.11920714 0.57125223
0.25973442 0.29762688 -0.37845135
0.28135204 0.70217365 -0.21663496
0.20575535 0.18010239 0.50239313
-0.15699288 -0.07958041 0.45374727
-0.39862713 0.43450651 -0.27848929
0.59264755 0.27919224 -0.21601349
-0.23797497 0.54332912 0.03821453
-0.15609983 0.38583803 -0.38412058
-0.77317148 -0.50698024 -0.20172206
0.10667367 0.33821923 0.43426770
-0.35843673 -0.34623909 0.31142819
-0.20341237 -0.19841570 0.49444696
-0.23751333 -0.53455466 -0.33644155
0.82506144 -0.13292781 -0.10790880
0.66440481 -0.44365603 0.03516947
0.09168014 -0.58361381 -0.09856239
-0.80526900 -0.44147575 -0.10863204
-0.25553182 0.61446166 -0.04861031
-0.27987114 -0.36953443 -0.07849534
-0.62927163 -0.03339803 -0.34684911
0.11523660 0.77109796 -0.33928221
-0.00167762 0.21386963 0.42559278
0.21041745 0.63693744 0.05826133
-0.24979112 -0.06898192 0.52953058
-0.34654108 0.48260733 -0.31359825
-0.09328858 -0.57901305 -0.26458362
0.02496967 0.36299163 -0.35212004
-0.37356362 0.48031300 -0.25520474
-0.48946232 -0.56892616 -0.24813873
0.33967727 -0.55427915 -0.05821818
0.20515908 -0.33230263 -0.16175944
-0.17546166 -0.56009299 -0.06826013
-0.12431659 0.51095450 -0.38581344
-0.87409061 -0.35242122 -0.17195165
-0.05637040 0.37327468 -0.36410096
-0.43047297 0.40403983 -0.11374904
0.30514389 -0.30209553 0.37946057
-0.45079094 -0.30966914 -0.38897526
-0.79047334 -0.13534698 -0.23756614
-0.69976902 -0.49385190 -0.06307301
0.67909741 -0.38490099 0.07131733
0.89053988 -0.32564732 -0.27162328
-0.39965075 -0.22967210 -0.07916749
0.42300862 -0.34697533 0.27107194
0.05284788 0.42637211 0.26122910
-0.26754379 -0.23716944 -0.22618550
0.32351476 0.18589681 -0.37311634
0.30259115 0.66683960 -0.26878953
-0.47048646 -0.46742612 0.10491945
0.21728966 0.21860194 0.41002738
0.09126393 0.76981395 0.01038229
0.30876493 -0.38284558 0.22702600
0.17837779 0.80005920 -0.12828390
-0.35302690 0.08879179 -0.36767733
-0.21687007 0.32462567 -0.38727745
-0.79701424 -0.44344199 -0.11216526
0.23142366 0.76037878 -0.20066378
-0.01439962 0.29476362 0.37876937
-0.11467461 0.77039480 -0.31165686
0.22142212 -0.51041293 -0.34515962
-0.47932968 -0.24926311 -0.38587624
0.82603949 -0.41928464 -0.08315833
-0.24929175 -0.11324973 0.40451920
-0.15292631 -0.57427168 -0.26667997
0.11475111 0.51016021 0.01734850
-0.08308474 -0.20318907 0.45236686
0.43803588 -0.01190989 0.35431778
-0.21453924 0.17695025 0.50641596
0.05074358 0.30727705 0.37296098
-0.71784860 -0.11976776 -0.33280194
0.35438141 -0.22900090 -0.17450726
-0.06293617 0.66642249 0.14384931
0.31122330 0.32190737 -0.38146007
0.15555263 -0.46068341 -0.05635139
-0.11883949 0.80220997 -0.10884540
-0.42370006 -0.14869955 -0.11010003
-0.76081717 -0.07901306 -0.10545258
-0.19472219 0.38547879 -0.38689768
0.45105520 -0.57877946 -0.23503071
-0.16589798 0.29528815 0.45469719
0.12412103 -0.29294989 0.43432325
0.04909144 -0.60328358 -0.21663767
0.51387554 -0.05050939 -0.09159784
-0.72610664 -0.11588497 0.02218053
-0.65547758 -0.52963221 -0.08572486
-0.41007710 -0.30970782 0.06448518
0.24228781 0.57942140 0.05285330
0.52958339 0.13883942 -0.06727314
-0.76775169 -0.11911458 -0.26383758
-0.28409776 0.05889087 -0.31935152
-0.39818725 0.27069789 -0.36867937
-0.04514712 -0.33762324 -0.20116198
0.68513405 0.14304578 -0.19745380
0.29708415 0.66459125 -0.11821026
-0.24822766 -0.47540820 -0.36947742
0.08941346 0.26865280 0.38449660
-0.39588737 -0.02643505 0.38003594
-0.00791567 -0.12427554 0.46687296
0.17925102 -0.11217724 0.55551326
0.35697088 0.61162961 -0.24499407
-0.03712792 -0.16997159 0.55996680
0.52168357 -0.53275591 -0.31205404
0.08859366 -0.40385741 -0.11239998
-0.49909616 -0.21140963 0.30308139
-0.73285711 -0.46007174 -0.04807442
0.27906924 0.69121069 -0.28332794
-0.62105179 -0.34571198 -0.37651283
0.16059461 0.52649164 0.24681607
0.48611838 0.25756496 -0.07627551
0.16849926 0.62660366 0.11996494
0.37424654 -0.19615492 -0.17829767
-0.57993603 -0.54095584 -0.29576713
0.21912844 -0.47873890 -0.36462241
0.58949101 0.28391737 -0.22294274
-0.66633916 0.06126659 -0.16785184
0.17940649 0.48738962 0.19671884
0.50276732 -0.46446794 0.09006585
0.08006404 0.29178214 0.38850936
-0.01388726 0.56630445 0.24094850
0.58359796 0.17689444 -0.06417611
-0.82668781 -0.26080287 -0.28153792
0.14616933 -0.12083644 0.43221238
0.18889269 -0.58905196 -0.27121001
-0.47144261 -0.21529549 0.04480728
-0.06299184 0.67971039 0.13148865
0.82564944 -0.27701959 -0.03108601
-0.57703823 -0.38881075 -0.37092245
-0.28369287 -0.16677624 0.36434522
-0.11502384 -0.03864923 0.60200763
0.44643077 -0.24316052 0.04924557
-0.22329180 -0.46190357 -0.06206736
0.30419263 0.23926103 -0.37917915
0.00594539 0.87992495 -0.21442413
0.47077966 0.03142034 -0.13655482
0.86099976 -0.18448612 -0.24815992
-0.84236002 -0.44606435 -0.18343636
-0.62671149 0.13467281 -0.21688896
-0.42840144 0.39726064 -0.25702801
0.26428580 0.52539963 -0.37764812
-0.53393090 -0.51305395 -0.00334382
-0.38442969 -0.30292305 -0.02984628
-0.45246676 -0.08868462 0.37810826
0.01976943 -0.59591597 -0.21854120
0.17423590 0.36284757 0.31828317
-0.19709504 0.57903069 0.12200235
-0.18790743 -0.10354827 0.44098595
-0.04096910 0.32997522 -0.34797606
-0.31735593 -0.19998315 0.31098145
0.47046724 -0.08073558 0.37017277
-0.09493636 0.36507902 0.31683016
-0.36354691 -0.11541928 -0.18976325
0.07539442 0.49438590 -0.02998292
0.89389688 -0.38951451 -0.20050901
0.42082578 -0.04299845 -0.37142283
-0.09349810 -0.00764781 0.59861892
-0.37087396 -0.33665609 -0.37937114
0.51643354 0.29420272 -0.09778985
-0.73199767 -0.44243544 -0.02348638
-0.19453909 0.63626188 -0.34041050
-0.27106741 0.11644103 -0.34120733
0.31661266 0.34412789 -0.09752217
-0.13208485 -0.26749560 -0.27077326
-0.56712288 -0.43480223 0.10070985
-0.67292106 -0.33078748 -0.37233898
-0.53977251 -0.11889413 0.09535352
-0.36412951 -0.50921112 0.02565571
0.08784238 -0.57550502 -0.10554770
0.61682749 0.24274427 -0.25264820
-0.10886703 0.82277733 -0.26071376
0.03009764 -0.18260229 0.45026371
-0.51480275 -0.19923332 0.29864812
-0.00776907 -0.26533002 0.45023257
-0.09527137 0.03773899 0.59902894
0.26079926 -0.59274584 -0.26697609
0.50209153 -0.14565694 -0.38891488
0.09804437 0.50102776 0.12942588
0.06439701 0.46619135 0.20027936
0.09391319 0.41028661 0.27466634
0.73084491 -0.40917104 0.00792908
-0.31315845 -0.51089984 -0.01688743
-0.25072747 -0.31171778 0.38639534
-0.22057031 -0.15295961 0.39486340
-0.35927260 0.39733014 -0.05716203
-0.44395763 0.03178084 -0.12667432
-0.19604509 -0.16988683 0.40423149
-0.52978122 0.21666236 -0.29767275
0.05817664 0.86326778 -0.27323046
-0.09171610 0.25249875 0.50821710
-0.30054811 -0.37061340 0.28656298
0.60820574 0.19632977 -0.09966341
0.16694073 -0.51138610 -0.34589195
-0.32574782 0.23544990 -0.16060591
-0.40064648 -0.31438923 0.31550181
0.59795094 -0.56294256 -0.21330500
-0.49887067 0.09044218 -0.07932383
0.88550723 -0.27368361 -0.14402595
0.26132196 -0.03496675 0.52558625
-0.04534568 0.51676720 -0.38404164
-0.23472202 0.07687812 0.53079236
0.04426880 0.18215562 0.43725276
-0.38460591 -0.04935126 -0.36198020
-0.17595536 -0.47200632 -0.06654456
0.02881639 -0.53202260 -0.06985371
-0.18576278 -0.15130961 0.42285308
0.78084803 -0.00923882 -0.23744029
0.08079335 0.25536898 0.50965488
-0.41969019 0.04628494 -0.14832070
0.71223742 0.10225510 -0.17691484
0.59782356 0.08946668 -0.35627300
0.65401667 0.14329207 -0.30091107
-0.54026312 -0.43846571 -0.36722484
-0.13206926 0.21351309 0.51781344
0.69003880 0.03585257 -0.05852221
0.05063754 -0.33024880 -0.22863561
-0.48515189 0.29858562 -0.29457733
0.36990312 0.60026765 -0.16332969
-0.37877098 -0.30969343 -0.01688737
-0.11926781 -0.57956308 -0.27205467
-0.60042703 -0.05923176 0.09615163
-0.19060813 -0.12280706 0.42107165
-0.52367616 -0.11366209 0.15873951
0.10818965 0.63540190 0.14455087
-0.77078420 -0.10349600 -0.06394269
-0.30067372 0.40443486 -0.06079264
0.83112592 -0.26023093 -0.32820874
-0.72147328 -0.40702772 -0.33749697
0.64685953 -0.48784900 -0.01954776
-0.64346260 -0.31329849 -0.37687549
-0.62987536 -0.55465782 -0.20163399
0.10499912 0.54015374 0.26286176
-0.32774246 0.11414543 -0.36861229
0.72885680 -0.36912775 -0.36166230
-0.59796423 -0.51041323 -0.32397524
0.33543178 -0.18360570 0.44083205
-0.05721240 0.46839574 -0.38484618
-0.35879242 -0.44295418 0.12777543
-0.45166856 -0.57394242 -0.09754986
0.33328429 0.44269443 -0.04993340
-0.32245034 0.56310749 -0.24174002
-0.06199088 -0.46298963 -0.08701327
0.16751978 -0.18256748 0.41312790
-0.14979318 0.73359913 0.00372197
0.36769730 -0.28792295 -0.07839407
-0.21818846 0.47133446 -0.01132988
-0.14437604 0.20080385 0.53184521
0.60505557 -0.10044032 -0.38014233
-0.52827007 -0.47655308 -0.34818000
0.62820578 -0.48652434 0.00337318
0.01844986 0.69024414 -0.37931061
-0.27048349 -0.15992978 0.48663178
0.18765821 -0.51609069 -0.33884275
-0.03663921 -0.50935632 -0.07339899
-0.85692590 -0.27508283 -0.24974221
-0.09300103 0.84078866 -0.26831099
-0.73125583 -0.02386072 -0.20321378
0.23205504 0.34491819 -0.37848815
-0.17236182 0.71546322 -0.00742154
-0.50410455 -0.15990099 0.13696548
0.09640079 -0.29779646 -0.26983917
-0.58536094 -0.51385581 -0.32252762
-0.45906475 -0.58992594 -0.19561642
0.47699520 -0.18687108 0.14594515
0.34458870 -0.49587202 -0.35755077
0.37322831 -0.05405760 -0.28999442
0.48767358 0.35614693 -0.32796681
-0.08699954 0.28363460 0.39446408
0.17210320 -0.31230542 -0.37748855
0.40669924 0.46905625 -0.07016462
-0.27340159 0.30757907 -0.14996195
-0.37730941 -0.17198402 -0.15935236
0.35244450 -0.15681636 0.44683999
-0.70276088 -0.14675102 0.10413665
0.41303855 -0.56985307 -0.27531171
-0.07438275 -0.43990541 -0.37545860
0.40707785 0.48896420 -0.31153649
0.34836346 -0.27675474 -0.11032569
0.58170944 -0.10951859 0.13028321
0.07467248 0.75804973 0.02223851
0.27803230 0.63403493 -0.04641272
0.35563940 0.10357799 -0.23679930
-0.51078218 -0.13877931 0.13120161
0.19148320 0.67427456 0.02749179
0.41389191 0.25532410 -0.38478905
0.08385377 0.40628695 0.40342528
0.15335906 0.20694357 0.51119822
-0.19921204 -0.44661766 -0.38238502
0.12533492 0.78879952 -0.32668215
0.26588801 0.71385580 -0.28038543
0.70389509 -0.54333806 -0.20512950
-0.22392997 0.69866520 -0.26345274
-0.05029869 -0.25334066 0.44358855
0.70337671 0.06355642 -0.09460288
0.40314692 -0.04429819 0.42587948
-0.42740884 0.42203888 -0.15326539
-0.16116957 0.74333364 -0.06223704
-0.56128341 0.22468309 -0.11050433
0.37173373 0.35098720 -0.08545601
0.32912484 0.40581882 -0.06472230
-0.62818676 0.13047060 -0.22967497
0.37361911 -0.59369475 -0.24440646
-0.59029996 -0.38786089 -0.36780554
-0.48047474 -0.46657932 -0.35871166
-0.12751229 -0.58839417 -0.21159112
-0.74359012 -0.47515285 -0.29692981
0.08900125 0.40853649 -0.14996952
-0.77217913 -0.44282639 -0.06092058
-0.60535687 -0.55490053 -0.22243047
-0.44694003 0.20783927 -0.36917773
-0.30366051 -0.03658149 0.40175521
-0.57203668 -0.23341236 0.24179035
0.64781898 -0.24044722 0.16927829
0.58900315 0.02983486 -0.03450052
-0.05018098 0.55060720 0.25842077
0.21801814 -0.32766983 -0.37949684
0.06344606 0.05951748 0.46925768
-0.32818541 -0.11227268 -0.23083419
0.00760991 -0.59671408 -0.18676543
0.62143153 -0.18634522 -0.38808459
-0.61186904 -0.00537752 0.00691006
-0.20236628 -0.26194587 0.45059270
-0.19681180 -0.52211440 -0.04776764
0.16170728 -0.17473119 0.52937543
-0.27333334 -0.60162479 -0.14676327
0.37603140 -0.14453515 0.30816942
0.62369454 -0.24105313 0.19547987
-0.85454768 -0.30554894 -0.10146149
0.45130211 -0.17822877 0.36257461
-0.16590832 0.27811557 0.46445039
0.18913804 0.30265647 0.37372327
0.35840064 -0.37903267 0.09689060
-0.26384386 0.61615962 -0.31070516
-0.76226139 -0.40810758 -0.01140574
0.41055837 -0.28723320 -0.38785127
0.49030980 -0.17595258 -0.38905734
-0.61430353 -0.36110064 -0.37555596
-0.36634973 0.29794478 -0.37064308
-0.60902971 -0.03283796 0.03114483
-0.67541671 -0.48184699 -0.31878382
-0.44206715 -0.52830821 -0.00054237
0.35741833 0.19435284 -0.37812561
-0.21642135 0.58210367 0.04928953
0.47998551 -0.38133121 -0.38239315
-0.49729848 0.23078978 -0.06752215
-0.82812780 -0.31433803 -0.05585749
-0.55195016 0.19174545 -0.06884649
-0.15173310 0.17221648 0.53504586
0.20172036 0.26533753 -0.25065085
-0.07019243 0.40522060 0.28352600
-0.22223347 -0.30745378 -0.37199292
-0.03814433 -0.05193287 0.47175053
0.50468338 -0.15692103 0.12460312
0.05948539 0.73880947 0.06613129
-0.43628433 -0.19120750 -0.38208756
0.80601293 -0.42337763 -0.31958964
0.44411650 0.34634793 -0.07603028
0.60005760 -0.56522423 -0.25257722
0.35888135 0.25596452 -0.39063179
0.15118186 0.47913820 0.29191372
-0.20070903 -0.11419597 0.53835237
0.69586933 0.06301207 -0.08881174
-0.41149154 -0.03118727 0.40216190
0.21478096 -0.00027668 0.55835873
0.79313672 -0.47852755 -0.13231716
-0.22075051 0.19407441 -0.32846749
-0.22527009 0.03878818 0.44995058
-0.22672449 -0.57149351 -0.28807345
0.58545035 0.29682416 -0.15647131
0.58669621 -0.28515810 -0.38452435
-0.61501777 0.01515028 -0.34168270
-0.09767599 0.50286609 0.09971880
-0.30744690 0.52253312 -0.32355398
0.35589623 -0.44892907 0.14896533
0.48756275 -0.13153440 0.20922101
0.49339885 -0.11699870 -0.06968252
-0.03308299 0.28065044 0.38742709
0.11972708 -0.46784407 -0.07242194
0.31639206 -0.54699916 -0.31367245
-0.61762452 -0.52342141 -0.07593492
0.05798800 -0.56872493 -0.29539382
0.76004863 -0.49281383 -0.28963673
-0.03443684 0.42765713 -0.13668838
0.41920760 -0.18832010 0.22240433
-0.60471267 0.05838598 -0.32949510
-0.60547209 -0.07362226 -0.37059939
0.02759471 0.35971129 -0.24502090
0.17251147 0.40955642 0.28155422
0.32249531 -0.31284162 0.22674009
0.33180252 -0.43314916 0.13374430
-0.08401776 0.20854008 0.44201273
-0.21914221 0.19901893 -0.34516427
0.40452227 -0.02352239 0.41649747
-0.27381593 -0.26109937 -0.17673373
-0.39510712 -0.48037291 -0.36426336
0.30893233 -0.19850993 -0.27525511
0.26771230 -0.36367646 -0.38522404
0.60634017 -0.08959544 0.07141422
-0.53506267 -0.11403117 0.13798270
-0.18737984 -0.26111588 -0.34498519
0.38302210 0.47352478 -0.34455585
0.01587517 0.49843368 0.05649259
0.33612955 -0.17072183 -0.29859075
0.78634936 -0.18833786 0.00898359
-0.85069972 -0.42042464 -0.15901852
-0.52387673 0.25753793 -0.26233271
-0.44867548 -0.01466925 -0.11566961
0.02824548 0.36751980 0.31146887
-0.35199389 -0.08237699 -0.36086094
-0.06674149 -0.40572065 -0.13067091
-0.04192557 -0.50031734 -0.07791504
0.46776637 -0.23304239 0.06456353
0.28656420 0.15836678 -0.31278387
0.25498465 -0.46011937 -0.37241957
0.51021624 0.36946189 -0.28043079
-0.05063052 0.87232339 -0.15816242
0.09870774 0.36414894 0.32281944
-0.15040655 -0.48128688 -0.36123842
-0.17025866 0.28470144 0.45938620
0.11287087 0.44642916 -0.37377056
0.14278254 0.45853260 -0.07332079
0.17486922 0.52036482 0.10097621
-0.38633487 -0.29844573 0.17205238
0.10585362 -0.46747029 -0.07050948
-0.37678230 -0.33761489 0.14068277
0.50765008 -0.12606749 -0.38259172
0.47424832 0.09963021 -0.11833003
0.64439070 0.02004541 -0.36760223
0.59492058 -0.24102360 -0.38898048
0.67426974 -0.43216968 0.04406627
0.83687562 -0.33026189 -0.04743430
0.30385801 -0.05717225 0.37531188
0.69595516 -0.12316874 0.10118724
0.15156052 0.06918604 0.58021891
-0.49197295 -0.19352835 0.11352050
0.35574237 0.06459453 -0.27369297
0.66688615 0.12829542 -0.29942849
0.33007535 -0.38327879 0.27330101
-0.60980546 -0.11206551 0.21585362
0.54784167 -0.51003170 0.00446926
-0.43202531 -0.46384943 -0.36120060
0.04627063 0.31965059 0.47698951
0.37877610 -0.52596200 -0.00502115
0.18817888 0.28302330 0.37556767
-0.35109934 -0.54198092 -0.03063354
-0.41494003 -0.03388868 -0.14132121
0.44587845 -0.02766474 0.36495873
-0.14177351 0.43219364 0.35179853
0.01673399 0.69631022 0.11898354
-0.16626291 0.26243994 -0.30077758
0.01751965 0.57827175 0.22274005
0.72510493 -0.53611690 -0.17301023
-0.69784147 0.02715203 -0.15592402
-0.25631720 -0.32142785 -0.38293681
-0.14290632 0.55060679 0.23657431
0.17200485 0.49655667 0.16055314
0.05532183 -0.13041133 0.58686149
-0.16417888 0.56392360 0.19058526
-0.35179222 0.17219983 -0.38597155
-0.20859008 0.73078269 -0.17589656
0.08902746 0.50150263 -0.38237089
0.05054172 -0.34777245 -0.37525070
-0.04882348 0.74468297 -0.35458559
-0.78773129 -0.11384469 -0.12690748
0.34665135 -0.05290101 0.35777381
0.59691662 -0.52572715 -0.04947302
0.61746687 -0.33911476 0.15115505
-0.37992218 0.05741563 -0.18120772
-0.73014969 -0.13883486 0.05564359
-0.56895489 -0.53007919 -0.05556481
-0.07022927 -0.25861236 0.45028302
-0.71067303 -0.30195653 0.08413804
-0.58491427 0.04848569 -0.02398536
0.26191524 0.19662318 -0.26991343
-0.16337596 0.30064154 -0.24415830
-0.31287792 0.59078646 -0.18926933
0.02859919 -0.51561123 -0.35246024
-0.29527685 0.57955313 -0.26942691
0.68636525 -0.33106333 0.10086650
-0.29059461 0.50782633 -0.34325421
-0.07433062 0.02663244 0.60221964
-0.29399723 -0.55439812 -0.31541899
-0.15142690 0.79003829 -0.19072482
-0.60837275 -0.56524456 -0.17299670
0.15452254 -0.29764494 0.40216720
-0.22991812 0.52090573 -0.36781892
-0.45988473 -0.49253964 -0.34973884
-0.79246622 -0.19336045 -0.01886576
-0.12368166 0.46515632 0.21123770
0.45738316 -0.22442046 0.11430795
0.21832584 0.05092414 0.44479096
0.17161916 0.47121400 -0.04234356
-0.53781742 -0.21520296 -0.38454375
-0.65187085 -0.34843099 -0.36741343
0.08272170 0.35585564 -0.23119724
-0.12935530 0.50657868 0.06479729
-0.36368436 -0.38612854 0.03649727
0.65676409 -0.32848504 0.12870091
-0.06891309 0.42312035 0.38765061
-0.13407035 0.24570477 0.49732447
0.83320683 -0.20750552 -0.31147277
-0.27451524 0.26508150 -0.17199975
-0.16059025 -0.16951948 0.42476380
0.06559245 0.45558569 0.22406712
0.17296223 -0.03416130 0.57208252
0.31091961 0.57925189 -0.34366187
-0.11215442 0.47242785 -0.06165247
0.16911887 -0.59561282 -0.23643985
-0.57222807 -0.30472565 0.21641295
0.29846740 0.35175180 -0.10305798
0.65721411 -0.10119510 0.11586485
-0.05027087 0.09249458 0.47538757
-0.19033509 -0.23879737 0.37664554
0.55599654 0.26510960 -0.09376791
0.31293944 -0.57206070 -0.09088324
-0.35014486 0.04461545 -0.21771860
-0.11956240 0.80019653 -0.09710550
-0.71702874 -0.10335687 0.03811575
-0.55502105 -0.27124012 0.23521762
-0.29365146 -0.49270999 -0.00964831
-0.30781090 -0.47012413 -0.37289685
-0.46372643 -0.00530994 -0.11171377
-0.72367346 -0.12617123 -0.32663187
-0.21033928 0.07049974 0.46909165
0.42070910 -0.58736199 -0.17018154
-0.30496716 -0.16587612 0.34343299
0.49765229 -0.06546305 -0.38844776
0.38544223 0.05755688 -0.21506351
-0.24478281 0.32930699 -0.37714836
-0.23879039 0.65524560 -0.04799984
-0.01145495 0.25516754 0.40934178
0.79512185 -0.10646680 -0.31334794
0.55904877 -0.33695641 -0.38597718
0.72467560 0.03020173 -0.09097196
0.83820140 -0.28952992 -0.05639558
-0.41595396 -0.09408249 0.41565329
0.37005168 0.07509637 -0.35289103
0.16785422 -0.25307894 -0.29254794
-0.03609856 0.62036848 0.19511190
0.01416864 0.89551044 -0.23087937
0.43269745 -0.28933391 0.32172316
-0.86365187 -0.37328041 -0.22284070
0.44699472 -0.13485819 -0.38175938
-0.23199598 0.17517467 0.44857961
-0.54028356 -0.07305159 0.28959972
-0.11791687 0.84990638 -0.19435972
0.40096816 -0.18452126 -0.15250802
-0.11554138 0.81071687 -0.25797120
-0.05459696 -0.52059394 -0.08176537
-0.51277065 -0.04751492 -0.04339084
0.24605322 0.19631520 -0.28945446
0.60011894 -0.17995825 0.23755148
0.25486413 0.21994464 -0.24722368
0.43736312 -0.24977022 0.02328407
-0.25758892 -0.24016672 0.34132588
0.79250169 -0.18453234 -0.00447860
-0.58718693 -0.24742094 0.22595486
0.64927030 -0.09382364 0.13337922
-0.40388009 0.46087176 -0.19545138
0.05253282 -0.20504650 0.52799904
0.48742247 -0.16074455 0.16582762
-0.04265437 -0.11619245 0.59205800
-0.04333079 0.73511362 0.06855004
-0.04056937 0.05294809 0.47384289
-0.29387069 0.57523918 -0.27754134
-0.77449393 -0.11577123 -0.06924856
0.41551101 0.00413026 0.38935870
0.24954799 -0.29468447 -0.20880088
0.06630825 0.53671432 0.27237934
0.45817384 0.14238831 -0.38644487
0.77885497 0.00040849 -0.20645586
-0.12825020 0.48855162 0.09166385
0.24495551 0.07230350 0.43892998
-0.35696918 -0.36883771 0.01044071
-0.11223233 -0.47200078 -0.36895567
0.38392159 -0.08226164 -0.25684100
0.33599010 -0.23814422 -0.17208162
0.36243340 -0.58984524 -0.13607094
-0.02742063 -0.06871693 0.60721254
-0.78156435 -0.50158417 -0.21196166
0.32757688 0.14080933 -0.25111881
0.24002714 -0.30211157 0.39369291
0.15360233 -0.46996874 -0.36954984
0.46377784 0.46519631 -0.23884290
-0.34830296 -0.24310374 0.39961690
-0.57042193 -0.49554807 0.01886598
0.31610391 0.48504627 -0.37079030
0.51496798 0.26247853 -0.07168160
-0.40187895 -0.25539827 0.17935373
-0.18169801 0.73573679 -0.27673092
0.12982975 0.49781591 -0.01044778
-0.34889007 -0.27415645 -0.37865749
0.11960320 0.73810577 -0.35379118
-0.82209176 -0.20810890 -0.26665658
-0.21557984 -0.26180518 0.44799891
-0.43736804 -0.21242201 0.36032879
0.10807449 0.06070376 0.59267575
-0.17329748 -0.55172288 -0.06157966
0.57972294 0.05206059 -0.05243137
-0.47736049 -0.56657547 -0.27904236
0.33354881 0.09795357 -0.33420327
-0.07806546 0.57988226 0.24290083
0.10211956 0.83184993 -0.29478982
-0.12328658 0.26272053 0.49486673
-0.87044144 -0.34937465 -0.26608452
0.38884929 -0.58788258 -0.18288592
-0.80322629 -0.39548051 -0.31374666
-0.23980446 0.68535143 -0.19297647
0.10928249 -0.27568787 -0.34117928
0.09819644 0.37934256 0.42012349
-0.37758362 -0.35994455 0.04338250
0.16880405 0.81928086 -0.16341358
0.30342981 0.25663736 -0.38228151
-0.34779057 -0.45668221 0.04793392
0.23308808 -0.29517272 -0.21320656
0.67694831 -0.35052732 0.08936603
0.28202790 -0.23820373 -0.32463285
0.08190140 0.37321666 -0.20111403
0.83087754 -0.38228488 -0.06988086
0.30234084 -0.54651326 -0.04590316
-0.80273205 -0.43020254 -0.08068004
-0.29374704 -0.17717609 0.46916279
-0.25269133 -0.51048779 -0.03417423
-0.07132080 0.26552004 0.50897610
-0.28542218 0.32351941 -0.10772081
0.08829739 -0.19500077 0.53424561
-0.11753344 0.34527862 0.34806401
0.78066796 -0.45250630 -0.08110346
-0.86769742 -0.32816830 -0.26843706
0.02902121 -0.49258643 -0.07359837
0.66024745 -0.06828435 0.07420965
0.33895135 0.57368529 -0.32913378
0.41660151 -0.05528876 -0.19475740
-0.12284060 0.81824005 -0.24682513
-0.11647494 0.32581031 -0.24943495
-0.27285740 -0.16562405 0.49540296
0.39662090 -0.01576523 -0.36084095
-0.79557508 -0.43596357 -0.09547012
-0.34279123 -0.04872468 -0.35076368
-0.66912085 -0.16602644 0.15341502
-0.34401682 -0.33996254 -0.37723699
0.19098942 0.67094535 0.04147136
-0.67143500 -0.36019772 0.09381591
-0.24487558 0.23272121 -0.22278380
0.28078309 0.20416075 -0.24044752
-0.33162031 -0.33190298 0.22541249
-0.75431651 -0.07799284 -0.26013768
0.47544774 0.24121538 -0.37595597
-0.04492105 0.13949162 0.58310062
0.54052788 -0.40969694 0.13739115
-0.04476068 0.02953073 0.47336000
-0.00705361 -0.02540445 0.61669290
0.30728921 0.07842110 0.43281794
-0.20519279 -0.57501763 -0.27186352
-0.10043443 0.29151106 0.48399758
-0.09670493 0.60199440 -0.37672824
0.22155772 -0.46964031 -0.02882668
-0.36569762 -0.44644970 0.14426064
0.52439916 -0.18910867 -0.38183478
-0.30487007 0.50458741 -0.31946644
0.39129898 -0.28861469 0.15190661
-0.14678942 0.52012372 0.25757965
-0.59768057 -0.37590051 0.13923752
0.30481577 0.14781919 -0.34100369
-0.53319174 -0.24194589 -0.37965816
0.24789296 -0.27591971 -0.21367300
-0.66027832 -0.36547011 0.09701432
-0.41567788 0.31857681 -0.34819788
-0.64950299 0.07464242 -0.06827563
0.21706367 -0.45721924 -0.38123932
0.57612348 -0.42853498 -0.36310953
0.51291484 -0.55009663 -0.06547575
-0.05362079 0.84338450 -0.29715562
0.76134574 -0.02299203 -0.29964086
0.00584589 0.52336061 0.29375118
-0.53255892 -0.07761726 0.20707388
-0.31139708 -0.03715153 -0.28713807
-0.04438715 0.24698889 0.39979383
0.02406232 -0.59991300 -0.10282826
-0.46872559 -0.48554158 -0.35097355
-0.10395748 0.50386959 0.07830070
0.02947842 0.08744080 0.60910594
0.00271282 0.45493370 -0.09730916
-0.43413886 -0.54449356 -0.31378984
-0.10772312 0.70367384 0.05798296
-0.55878407 0.18618840 -0.28825471
-0.07983553 0.33740151 -0.35400590
-0.36904016 -0.34294307 0.15306839
-0.47117057 -0.30392027 0.27610856
-0.22734426 -0.39732659 -0.38739094
0.54774338 -0.57156324 -0.24939433
0.00112059 -0.56631166 -0.08126737
-0.24858662 0.64777440 -0.27451441
-0.07791341 0.80248183 -0.03167698
-0.56424886 -0.48083597 0.04296223
-0.85093325 -0.32746181 -0.28379890
-0.41177586 -0.19119662 -0.37302151
-0.11583083 0.03248023 0.59756100
-0.37837771 -0.36798805 0.06301303
0.35500947 -0.32594085 0.17632145
-0.17980520 0.48708415 0.24615952
-0.05611593 0.73084933 0.06040320
0.33784187 -0.56696963 -0.08185588
0.43437958 0.50073838 -0.14340355
0.03540061 -0.39902937 -0.39102346
-0.54876709 0.08257926 -0.05275826
0.11078587 0.34713370 0.31922895
0.12398885 0.50869644 0.10617513
-0.53218049 0.10099455 -0.05119109
0.01615935 -0.23009107 0.44262993
-0.46223277 -0.03657860 0.32360759
0.07656511 -0.56252927 -0.08590260
-0.49117249 -0.38043296 0.20323975
0.11025006 0.00817956 0.61338139
-0.68623459 0.05863113 -0.14485534
-0.31148484 0.59124863 -0.12662914
-0.38316932 0.15592128 -0.14021817
-0.54223287 -0.31577030 0.22191364
0.08647020 -0.27265844 0.44331259
-0.59465665 -0.40720540 0.11854191
0.09846982 0.35326979 0.43505570
-0.66084659 -0.17563590 -0.36809111
-0.19847032 0.48910484 -0.38499078
0.39366087 -0.38316399 -0.38278088
-0.04853095 0.49419901 0.32249263
-0.45268720 -0.24373510 0.33003044
-0.43031323 -0.13477939 -0.10844670
-0.53735286 -0.08551505 0.00714462
0.62860578 -0.20911708 -0.38464314
-0.32294244 -0.00718513 0.42817926
0.75517827 -0.17192656 -0.35585928
0.26268464 -0.59276360 -0.17368332
-0.33629054 0.03791454 0.45176896
-0.08105744 0.62159872 0.18759802
0.36994696 -0.29454067 -0.38237205
-0.30621988 -0.03495291 -0.30729473
0.10747140 -0.26609805 0.47744924
0.18678044 0.15466021 0.44007391
-0.73854339 -0.52003038 -0.17514026
-0.78973132 -0.49680269 -0.19198442
0.43671426 -0.06356728 0.39457825
-0.38472015 0.20958397 -0.12476282
0.05685442 -0.52734166 -0.06073530
0.06146637 0.27062082 0.50771308
-0.41564396 -0.49215215 -0.35304114
-0.21756239 0.65358591 -0.03855503
0.10828331 0.14074522 0.44936702
0.89382142 -0.28020871 -0.23849964
-0.30418238 -0.03323735 0.49715701
-0.29333386 0.17879736 -0.21881825
-0.11344669 -0.54013485 -0.33411500
0.22418928 0.74637294 -0.28941789
0.35706663 -0.24617770 0.23976423
0.55026174 -0.12959877 0.05548612
-0.15258838 -0.59838027 -0.21517262
0.00797160 -0.26898989 0.45368123
-0.00779436 0.86854136 -0.27328020
0.47256225 -0.33219877 0.25637421
-0.17379907 -0.56616855 -0.29535109
0.13451476 0.47747105 -0.03109926
0.34757119 -0.26050511 -0.37690228
-0.37000665 -0.36151528 0.29166669
-0.24709728 0.06147405 0.44805706
-0.39912164 -0.09548108 -0.15913010
-0.29195139 -0.00249396 0.50699234
-0.81522930 -0.25920665 -0.29911897
0.82837474 -0.39327037 -0.07660878
0.05749652 -0.07196398 0.46676973
0.57550907 -0.57454222 -0.17740598
-0.27724704 -0.41532058 -0.37889221
0.39283571 -0.56189311 -0.07145634
-0.42017385 -0.25214145 0.16410464
-0.11959547 0.17614433 0.54987770
-0.82896250 -0.20838329 -0.11748351
-0.37523019 -0.35033017 0.30136377
-0.47701234 -0.20164594 0.04370409
0.77794898 -0.48606104 -0.13910322
-0.09298670 0.12181284 0.46631888
0.45100352 -0.24877578 0.03593239
-0.12833729 0.05675910 0.47194609
-0.01780086 0.70771855 0.09942988
0.38741827 -0.46375591 -0.35770768
0.33267793 -0.20707926 -0.25757828
-0.29779515 0.23364541 -0.17205048
0.45029163 -0.56799078 -0.12387550
0.46175271 -0.09110323 -0.38377497
0.46796659 0.34625301 -0.07360235
0.55732435 -0.55531716 -0.29788014
-0.32393894 -0.55091375 -0.31790698
0.19647464 -0.30933616 -0.20338276
-0.46949282 -0.48601025 0.06818162
0.45652610 -0.02792554 0.33822340
0.07804864 0.21395719 0.41274044
-0.40867868 -0.06008007 0.32338905
0.62174112 0.19528559 -0.10506082
0.18725772 -0.36494669 -0.37759748
0.41561916 0.53640783 -0.21164092
-0.35349420 -0.08438995 -0.21959433
-0.43667597 -0.09018844 -0.37762460
0.02737378 0.43980837 -0.11807227
0.16483925 0.41148204 0.27561849
-0.65134233 -0.09260763 0.14842150
0.00739886 0.54751492 0.25071293
0.16555305 0.04722583 0.56488645
0.22633918 0.36748138 -0.14110476
0.50732911 0.27706355 -0.07430728
0.00004592 -0.45579666 -0.37148735
-0.33534575 -0.54663247 -0.01883009
-0.33171341 -0.19158515 -0.19170514
-0.80769110 -0.22933581 -0.30661544
-0.49774098 -0.57423639 -0.23750958
-0.73622471 -0.21491542 -0.34438202
-0.77110589 -0.23228589 -0.33720240
-0.33124959 -0.01032327 -0.24200726
-0.39999995 0.26926151 -0.08313844
0.23349716 0.18176432 0.42631242
0.41542739 -0.42915916 0.18312854
-0.07643078 -0.02850920 0.47382805
-0.24948987 0.47652581 -0.01822193
-0.40743583 0.39758626 -0.06472826
0.25783384 -0.35209265 -0.38640594
0.36119625 -0.51042092 0.01300666
0.15649141 0.12757707 0.55886757
-0.02446719 0.67558926 0.13849370
0.63668871 0.12377669 -0.32974514
0.33142790 -0.33564457 0.20084852
-0.11620615 0.26713961 0.42005846
0.39389390 -0.06441602 0.33587587
0.37091416 0.01699371 -0.35604620
-0.11016490 0.71093017 0.06687933
-0.29501468 -0.36532339 0.30095461
0.46124768 0.22035390 -0.38927475
-0.33407319 -0.09003408 -0.23336989
-0.22389109 0.05307060 0.45660672
0.54536480 -0.04533587 -0.05778597
-0.27807227 -0.59021223 -0.10057329
0.09481806 0.58262402 -0.38989183
-0.35743508 -0.03248522 0.38179928
-0.17687054 0.42194986 0.31987715
0.41964257 -0.26863375 -0.01194745
0.52819455 0.22684862 -0.07163268
0.85575497 -0.18766963 -0.26858535
-0.04139148 0.42632318 -0.37972698
-0.16304535 0.80427289 -0.19524917
-0.57209134 -0.33451250 0.18557495
-0.60249537 0.15631643 -0.23489207
0.27376011 0.28554350 -0.18144622
-0.36807525 -0.17433974 0.29151273
-0.26308376 -0.25804347 0.43295139
0.50686896 0.08747237 -0.09466931
-0.44954044 -0.23553389 -0.38209847
-0.14280672 -0.60238856 -0.14523788
-0.37785399 -0.17517996 -0.14685813
-0.71764231 -0.28380302 0.08595885
0.59670699 -0.27225354 0.21624738
0.69234306 -0.52055371 -0.28985661
0.31390572 -0.20917255 -0.32623488
-0.41243261 -0.26859012 0.15773541
0.44255018 -0.31843475 0.28422117
0.73356307 -0.31039393 0.07120003
-0.08486277 0.02554844 0.60411114
0.50906378 0.21275900 -0.07936886
-0.42184985 -0.58017278 -0.22904563
-0.32753834 -0.49834824 -0.00434452
-0.08393893 -0.16705069 0.55728364
-0.85580933 -0.34955332 -0.26893541
-0.32061842 -0.28376073 -0.11491373
0.40265900 0.54770386 -0.20393136
0.00404008 0.47251159 0.33558971
-0.25874168 -0.18474147 0.36848256
0.29367423 0.13696900 -0.28757742
-0.03294894 0.42434201 -0.37108523
0.53482318 -0.23961046 -0.39009717
-0.15749820 -0.39301598 -0.38519028
-0.64802140 -0.14344123 0.17443046
-0.77190149 -0.49823195 -0.24708006
0.37538740 0.52144277 -0.06880555
-0.05324022 0.28730738 0.50961792
-0.27849960 0.16723186 -0.24665496
-0.69919276 -0.06528229 0.00256661
-0.02780610 0.86607540 -0.12438855
-0.43710732 -0.58233446 -0.09267436
-0.16894153 -0.45246202 -0.08045013
-0.61808771 0.09676439 -0.28684616
-0.23525497 -0.23897666 -0.34078193
0.07941402 -0.33595049 -0.20564100
0.28647095 -0.25002491 -0.21554023
0.09882487 0.33719689 -0.26865736
-0.07620930 -0.59098494 -0.10841285
0.20812820 -0.29408327 -0.22131103
-0.40053016 -0.42041200 -0.37598854
-0.25073871 -0.15324244 0.38658679
-0.17142251 -0.60212737 -0.14237666
-0.40833154 -0.02616695 -0.15481797
0.67585623 -0.54036802 -0.15451825
0.35368472 -0.14459768 -0.28879055
-0.84001297 -0.21612617 -0.11604747
-0.84321100 -0.33768353 -0.08984299
0.73262566 -0.15645167 0.06513747
0.08251367 -0.30513439 -0.35413039
0.36957306 0.00007489 -0.33289376
-0.48289898 -0.04126927 -0.07499155
0.41057840 -0.03168927 -0.20738640
-0.25932187 -0.52368683 -0.35006821
-0.03067830 -0.30389839 -0.25186303
-0.38176340 -0.21361271 -0.11844791
-0.64518142 0.08954464 -0.24153563
0.16981094 0.04009371 0.57630980
-0.61611438 0.06361289 -0.31017843
-0.33294412 0.16575281 -0.18626350
-0.11986840 0.82140607 -0.20931721
0.05705244 -0.21402732 0.44408777
-0.49377453 -0.51226509 0.02534161
0.32497275 -0.36743921 -0.04597484
0.00030274 -0.11475535 0.46671829
0.34627292 -0.56356245 -0.08514439
0.44310361 0.29721978 -0.37356830
0.07573190 -0.27298006 0.44870484
0.10415404 -0.28728426 -0.28851300
0.02871677 0.48089021 0.17837904
-0.42895818 -0.26437077 0.04291994
0.70604944 -0.52760798 -0.13631278
-0.26829019 -0.58735758 -0.11566235
-0.75499827 -0.44235849 -0.32102931
0.53696930 -0.40589774 0.15463328
0.75473601 -0.02011730 -0.09424224
-0.12078275 0.22127917 0.52217007
0.19535242 0.52982414 0.10309703
-0.67890257 0.05065016 -0.10521658
-0.18354462 -0.53227198 -0.05579452
-0.65643305 -0.19135395 0.16306219
-0.31728750 -0.04775675 -0.32887709
-0.21234855 0.05218711 0.54884493
-0.20998763 0.45458564 -0.03709456
-0.41352391 -0.17419726 0.39355761
-0.62612891 0.14223117 -0.17464837
0.00064316 0.15275042 0.44762182
-0.02813759 0.68859839 0.11326751
0.09281111 0.39894703 0.27513066
0.28878731 0.66673017 -0.10626240
0.20094773 -0.32875204 -0.17470622
0.67311645 0.07025477 -0.06181793
0.07744136 0.73412895 -0.35901350
0.19123478 -0.57773995 -0.09419174
-0.46885327 -0.57356703 -0.26922849
-0.08679745 0.30555344 -0.32702756
-0.26348481 -0.07997185 0.51928347
0.81816733 -0.13395950 -0.08974233
0.68019116 -0.13415903 0.13866536
-0.26728651 -0.11518535 0.50850105
-0.32029855 0.04682728 0.42777190
-0.43673006 -0.29073158 0.30338958
-0.06010637 0.57430917 -0.38436884
-0.02676168 -0.10123317 0.46955046
-0.31056544 -0.53724432 -0.33247438
-0.21859628 0.27813637 -0.19998908
0.35969192 -0.12913150 -0.31674349
-0.40115380 -0.29511845 0.14630580
0.43494022 -0.26619667 0.07600428
-0.60485250 -0.04534125 0.03698977
0.08755134 0.45430836 0.19325446
-0.21435085 0.57719791 0.06629324
0.36314306 -0.32613701 -0.02920604
0.40104559 -0.49573654 0.05032235
-0.04554921 -0.16284910 0.45725963
0.50371265 -0.54372609 -0.07435881
0.08095878 0.52833664 -0.38118616
0.21410793 0.16706119 0.49891436
-0.18203640 -0.26696911 0.37557152
-0.02595409 0.28605127 0.39267629
-0.07843593 0.34291857 -0.24747229
-0.65668696 -0.54725742 -0.19838777
0.02232283 0.31300133 0.36234206
-0.21148169 0.61241090 0.03932371
0.32029155 -0.23661923 0.27865535
-0.47960168 -0.07192592 0.26059049
0.14034367 -0.26587605 -0.30724016
0.55071574 -0.56456709 -0.13603561
-0.13801005 -0.55210263 -0.30695954
-0.79208100 -0.21745172 -0.00404679
-0.64095569 -0.15199268 0.18941686
0.74484879 -0.53123921 -0.21753192
-0.58462673 0.18723653 -0.09498230
-0.29552525 -0.29169157 0.28558972
-0.64519793 -0.27883020 -0.37249416
-0.36363509 0.51675963 -0.12605861
0.30732208 0.63607347 -0.08421010
0.39140391 -0.44216931 0.16613555
-0.12921774 0.48741907 0.15434997
0.16429083 0.29497850 -0.27703309
0.59980941 0.16206259 -0.33889672
0.02312082 0.08224707 0.60520864
0.02451278 -0.33551246 -0.21359459
0.01810272 0.28977519 0.38749474
0.37852436 0.43068990 -0.05038787
-0.16937535 -0.22947416 0.49435762
-0.82108563 -0.17727515 -0.23300412
-0.13960463 0.45137343 -0.06047834
0.08365774 -0.58985162 -0.23107043
-0.59689099 -0.28780338 0.19987518
-0.11285081 -0.33724016 -0.18865311
0.60911512 0.22506130 -0.28694126
0.17199901 0.13434067 0.54518068
0.13712201 0.38623741 -0.37608260
-0.25239795 -0.32455119 -0.13324733
-0.55687672 -0.18421996 0.27264184
-0.05290736 0.32631111 -0.34988168
-0.79425466 -0.12349692 -0.19190669
-0.36215901 0.18675949 -0.37772340
-0.79688132 -0.44339418 -0.10311815
-0.61458617 0.14117095 -0.09424891
0.29548806 -0.39229196 0.26487800
0.22052021 0.22297415 -0.30525088
-0.52252096 -0.41780156 -0.37119821
-0.55756021 -0.55687213 -0.12512809
0.11406428 -0.49051815 -0.36014751
-0.05230480 0.58587170 -0.38372496
0.45268592 0.33255059 -0.06617096
-0.28945988 0.61299813 -0.24062559
-0.62152541 -0.41635799 0.08449255
0.18161610 0.47884089 0.24190696
-0.41377527 -0.22829837 -0.06235619
-0.08822227 -0.45964217 -0.09635244
-0.24283171 -0.22193557 0.36034876
-0.35692465 0.18194959 -0.16259620
0.52630776 -0.42471677 0.13691525
0.41349286 -0.01614994 -0.37495738
0.19489011 0.18859383 0.42111239
0.33660188 -0.56295562 -0.28749096
0.15643060 0.44549158 0.24192169
0.02556780 0.41355908 0.26874584
-0.66797864 -0.36449757 -0.37082288
0.26456824 -0.00057080 0.52750301
-0.23819077 -0.16244584 0.39359647
-0.26542559 0.59672141 -0.03848147
0.59308052 -0.00956197 -0.02166086
0.17694107 -0.19241399 0.40346202
0.85855067 -0.20186946 -0.27372226
-0.21783070 0.72476095 -0.15504292
-0.68110520 -0.24251875 0.14246072
-0.13709337 0.74117196 -0.03432542
0.11001418 0.35225737 0.33116263
-0.78117162 -0.46462512 -0.10789524
-0.10751481 0.36017299 -0.19475979
0.09272907 0.60728431 -0.38755423
0.86074781 -0.31009144 -0.10185882
0.40134123 0.41089264 -0.05840133
-0.14360675 0.39769757 0.30219626
-0.49371547 -0.07356445 -0.05810866
-0.41418138 -0.26345822 0.33847523
-0.05669442 0.45853892 0.35615736
-0.29472941 0.10313158 -0.25298825
-0.25989729 -0.08076212 0.41152638
-0.61846358 -0.55514181 -0.24341702
0.37323865 0.54476029 -0.08899078
0.36379698 0.03027914 -0.25617921
-0.38160786 -0.25818840 -0.37036350
0.75368869 -0.23709080 -0.35225126
-0.56932139 -0.53646439 -0.06852163
0.36048532 0.15896674 -0.18441600
0.74651146 -0.37753206 -0.35627407
0.58099651 -0.56196612 -0.27238664
0.46447080 -0.58049637 -0.26807135
-0.35624406 -0.14636850 0.44139054
-0.73702919 -0.06470199 -0.27390182
0.37231371 -0.33573532 0.12369198
0.06517211 -0.04442735 0.60416603
-0.71527076 -0.14483452 0.08410639
0.32407925 -0.20133424 0.29255393
0.68798703 -0.51990491 -0.09190883
0.17625652 -0.59653884 -0.25978407
0.57618368 -0.38121825 0.14268725
0.24031489 0.71012276 -0.08178876
-0.13497713 0.48394230 -0.38672668
-0.07879854 0.47092107 0.33250141
-0.14099400 0.38163590 0.38976270
0.18815179 -0.08657818 0.42293546
0.43491277 -0.27353394 0.02188772
0.03758975 -0.18515882 0.45724052
-0.15144716 0.75119275 -0.03468512
0.49434727 0.38673085 -0.11393738
-0.10203399 0.06483169 0.60198843
0.74928468 -0.43962646 -0.04121234
-0.47983661 -0.38166302 -0.37905470
0.22931223 -0.06888385 0.53813863
0.69073802 -0.08066712 -0.36697844
0.63442236 -0.50792247 -0.03970252
0.60029757 -0.07132830 -0.39161542
0.20524773 0.49260616 -0.02741797
0.32256737 -0.33773872 0.33115262
0.74982703 0.04623201 -0.17333052
-0.03557982 0.29381567 0.37357134
0.31106606 0.44937757 -0.04895084
0.70548362 -0.22954795 -0.36161649
-0.54427648 -0.09025978 0.29302776
-0.28546250 -0.34995842 -0.39230072
0.63954133 0.21017425 -0.22976148
0.18830936 0.44293150 0.26536855
0.28988430 0.51017249 -0.37140450
-0.39189881 0.45451239 -0.09407216
0.08733751 0.30066568 0.37184057
0.00346867 -0.58201778 -0.26644361
0.03386972 -0.26916057 0.44344810
-0.40660349 -0.00515705 0.36565402
0.34191549 0.42333183 -0.37252414
-0.34110782 -0.32882521 0.34202439
0.01577233 -0.37886554 -0.38396659
0.80426723 -0.16998330 -0.33349276
-0.18239504 -0.57193935 -0.28498471
-0.21918832 0.19217367 -0.31726503
-0.57510906 0.19846243 -0.09882997
-0.40664244 -0.09445024 -0.13684705
0.12657112 -0.41801232 -0.10177602
-0.12175460 -0.14534667 0.56077272
-0.19519110 -0.05218633 0.56069672
0.67055273 0.03403823 -0.03538696
-0.76182336 -0.49927020 -0.14861947
0.25591114 -0.36428949 0.30623683
0.33551261 -0.10227036 0.34034359
0.40224978 0.12504072 -0.38498992
-0.41548550 -0.18867609 0.23195660
0.84677923 -0.13415018 -0.16590711
-0.75596333 -0.44829053 -0.05055262
-0.04845246 0.42363760 0.38785112
-0.66114056 -0.48205632 -0.32140088
-0.51819414 -0.09876040 0.19693956
0.56707543 -0.08866081 0.24818991
-0.07052893 0.31577772 0.47053355
-0.43976641 0.10283171 -0.11932762
-0.75080872 -0.48868513 -0.10131454
0.80027181 -0.21207729 0.00035632
-0.09951603 -0.59095466 -0.21135551
-0.07583757 0.69813818 0.10598255
0.18063958 -0.50594652 -0.35428539
0.07595027 -0.20090437 0.44690531
0.10699716 0.48435488 0.30506986
0.03083538 0.30926952 0.36761370
-0.07655924 -0.07983431 0.59526062
0.18303250 -0.20604882 0.39509305
0.34323135 -0.17866138 -0.31711581
0.23349729 0.73351043 -0.28600907
0.11999064 -0.61355960 -0.20676103
-0.13946122 0.09467635 0.57685995
-0.50719982 -0.13656586 0.00827078
0.33722776 0.08384238 -0.33442926
0.02175676 -0.28684798 -0.34489912
-0.16170345 -0.58379334 -0.25427926
-0.19327402 -0.03873985 0.55641890
0.56144768 -0.09716465 -0.00419557
0.26408109 0.71318799 -0.26220840
-0.55105317 -0.31477195 0.21672842
0.68491858 -0.50046146 -0.31436732
0.63279444 0.18746948 -0.11787729
-0.15337378 0.50415599 0.08846407
0.08738556 0.68255156 -0.36842355
0.19022629 -0.53124213 -0.03940055
0.73080754 0.05055992 -0.27855292
0.22966629 0.26597020 -0.23496389
0.37339345 0.36040550 -0.07678589
-0.19627506 0.70153898 -0.08535454
0.06236361 -0.35650709 -0.19012085
-0.02533102 0.36265814 0.32594806
-0.53290409 -0.49355489 -0.34084010
-0.04713037 0.71756631 -0.36298695
-0.31791002 -0.25755343 -0.15263164
0.21511300 0.20770326 0.45350537
0.25661844 0.20403418 -0.33233735
0.49983796 -0.39022607 0.19246656
-0.34432402 -0.48403591 -0.35976785
0.62154394 -0.53676367 -0.30024561
-0.38856706 -0.38478595 -0.38031375
-0.26036805 -0.43439370 -0.06564429
-0.12052895 0.74021870 -0.32837531
0.20043981 0.53558588 0.11375234
-0.10679398 -0.19280714 0.53041708
-0.15033366 0.47543609 0.19392887
0.08669034 0.80286556 -0.33659807
-0.05015529 -0.03323773 0.61016518
-0.18896352 0.44586948 -0.38013780
0.06418321 0.33744672 0.33854961
0.47122490 0.04458898 -0.12763000
-0.11104818 0.50238460 0.11690024
0.53121817 0.07961617 -0.38603026
0.36437351 -0.14063156 0.30767366
-0.44623002 -0.33250451 0.27217001
-0.03073392 -0.55770499 -0.31561622
-0.36743960 0.48639578 -0.26523599
-0.19746248 0.18741998 0.50655210
0.06689568 0.32262558 0.46607789
-0.48396146 0.15573843 -0.07521771
-0.30714551 -0.25737745 -0.36436233
0.49467629 -0.51342100 -0.33654264
0.33243960 -0.27826416 -0.13427226
-0.21702488 0.02284297 0.45200095
0.06864693 0.36128789 0.32533675
0.47983846 0.42225087 -0.12688097
0.19409263 -0.30206338 -0.21365249
-0.54968506 -0.10335709 0.05952131
-0.12771097 0.49759999 0.28714126
0.18120779 0.56529248 -0.39081162
-0.24769664 -0.11487685 0.51948285
-0.45327330 -0.24111313 0.03521627
0.03432374 0.50361395 0.12331496
-0.08904023 0.82940298 -0.27266920
0.87197971 -0.39313316 -0.15161619
0.21607393 0.54248488 0.08737320
0.43889281 -0.12068298 -0.37649530
-0.04669549 0.45185763 0.19756028
-0.74898994 -0.06987198 -0.26014447
-0.29470378 0.27607775 -0.14719734
0.11459728 0.29373589 0.37704429
