-0.07247221 -0.06392854 -0.10927203
-0.02168857 0.44498757 -0.32178867
0.26625168 0.01425925 0.35222775
-0.01094957 0.52611440 -0.59539282
-0.16009352 0.12974980 0.44773692
-0.03672290 -0.18054883 0.58482540
0.08238010 0.32684782 -0.48805311
-0.08127171 -0.26252627 0.59336561
-0.12454540 0.16389813 0.14215189
0.24601707 -0.61547172 0.51916641
0.22978795 -0.44289002 0.57804883
0.03192136 0.31747603 0.38529238
-0.05985371 0.22629623 0.08516058
-0.00065003 0.32651234 -0.16431251
-0.32880938 0.46148250 -0.69371426
0.01624460 0.43475875 -0.57574683
0.16376714 -0.03639858 0.34057367
0.06117435 -0.03569485 0.44205946
0.27742061 0.10321587 0.47378144
0.24943304 0.23942316 0.27813545
0.04425917 0.33234483 -0.51099515
-0.12615298 -0.07583828 0.47947407
-0.04102687 0.00335889 -0.38995013
0.21161461 0.10614607 0.56272519
0.03461353 0.46307683 -0.31776887
-0.40215144 0.32324919 -0.71831429
-0.06930733 0.34110117 -0.37841994
0.24857947 0.02780915 0.20449738
-0.12223023 0.16978385 0.18259083
-0.12331653 -0.12916374 -0.24365447
-0.10716136 0.20095527 -0.35443178
-0.14726827 0.12058793 0.10290685
-0.04713384 0.30493426 0.42279285
-0.36025006 0.42249039 -0.69547462
0.03292781 0.37863925 -0.22404774
0.19976336 -0.27284223 0.46266177
-0.17480363 0.32258996 -0.63322377
-0.34908146 0.41343769 -0.75412291
-0.04787592 -0.28306833 -0.29337344
0.23424014 -0.01801213 0.51255071
-0.06159520 0.29286632 -0.17976396
-0.22346850 0.63024062 -0.60128838
-0.02915294 0.30633622 0.44852746
-0.11195971 -0.31237057 -0.30180788
0.02238959 0.55038095 -0.47168991
-0.13845581 0.46342149 -0.52055347
-0.15444484 0.35419568 -0.65934026
-0.00827096 0.35805151 -0.25264010
-0.04115118 -0.17606637 0.62471467
-0.11589418 0.49120194 -0.69439286
-0.10306201 -0.32348299 0.71047395
-0.20064324 0.51815701 -0.57552594
-0.04578962 -0.26918864 -0.27888909
-0.11095202 -0.22180940 0.66197419
0.19847059 -0.30256242 -0.21532677
0.13892898 -0.03063299 0.30560669
0.20406726 0.27550322 0.22770280
0.03944995 0.31184795 0.31825691
0.12535965 0.11626099 -0.40854666
-0.09283298 0.23379825 -0.22388574
0.07160336 -0.03436608 0.46515542
-0.03649709 0.40927687 -0.58786893
0.00913814 -0.03457521 -0.36425951
-0.08514238 0.19433287 0.55495435
-0.08142736 0.23299578 0.54720318
-0.08340689 0.17238152 0.57939202
0.20456687 -0.56030416 -0.13501164
0.08874176 0.04937964 -0.40806696
-0.02801384 0.49210221 -0.62414491
0.26887429 0.11305693 0.07814541
-0.14189419 0.03371862 -0.20105766
0.25055841 0.16239712 0.24693564
-0.06182079 0.00734347 0.60133451
-0.21193832 0.34020850 -0.63247663
-0.12798879 -0.06924236 0.02231402
0.19058582 -0.07346524 -0.32397217
-0.03922121 0.04338387 -0.40593669
0.13846840 -0.32645485 -0.20611715
0.24983391 -0.13688387 0.44529977
-0.12526722 0.56848168 -0.50749809
-0.06092974 0.22597413 -0.43585119
-0.10611337 0.43060741 -0.48498058
0.17321111 -0.03781679 -0.10591497
0.16470078 -0.07827538 0.38174465
0.06263271 0.29672277 0.47190008
0.19932532 0.12524763 0.57682258
0.13793589 -0.15512812 -0.13498813
0.18131527 -0.22119421 -0.24106215
0.22379896 -0.36014542 0.49478948
0.12163512 0.29437491 -0.18155058
-0.01688736 -0.08679899 0.21770738
-0.05421209 0.54436374 -0.63527423
0.13050760 -0.22322062 -0.23266859
0.15739842 0.22836250 -0.36391401
0.06213522 0.28505206 -0.08422755
-0.10138150 0.11148643 0.56938517
-0.00017440 0.56683946 -0.49981192
0.13884293 -0.10638962 0.16360095
0.23953390 0.19297950 0.52568626
-0.07939406 -0.62549931 -0.32241601
-0.09895388 -0.11604542 -0.32134947
-0.08270805 -0.30215818 0.63509095
0.09755725 -0.15144634 -0.08588538
0.16787171 -0.20871001 0.43534586
0.10464144 0.32593629 -0.29316244
-0.10240020 -0.06278023 -0.34719431
-0.13235693 -0.15230915 0.57878596
0.24566308 0.04354342 0.50933504
0.03817001 0.11194364 0.58860433
-0.23118185 0.57109398 -0.58033448
-0.04848599 0.08870027 0.60511154
-0.10702319 -0.34326598 -0.28467745
-0.05641269 -0.12137477 -0.06375302
-0.04016404 0.58733827 -0.57232946
-0.25619137 0.49710429 -0.58359259
0.03982380 0.41068116 -0.25049376
0.07195580 -0.13135679 -0.25241506
-0.08302920 -0.07230212 0.45396465
-0.16560085 0.10886106 0.46411160
0.19063830 -0.23935910 0.43809524
-0.02065130 0.05287904 0.60000509
0.20170540 -0.09364328 0.49334311
-0.19849013 0.62912303 -0.63041610
-0.09330954 -0.25839716 0.63898379
-0.06689304 -0.06408248 0.49189007
0.10124663 0.20775944 0.58394456
0.18236783 -0.29314166 -0.15481636
-0.08156259 0.27183503 -0.38996327
0.10136768 -0.13906358 -0.11096142
-0.14539726 0.01979500 -0.33712515
-0.01760042 0.30080214 0.26189780
-0.06562748 -0.11587114 -0.04024556
0.08885434 -0.08509786 0.23118195
0.27021086 0.16956809 0.32451597
0.14752890 -0.07195276 -0.34532258
-0.22415349 0.62089556 -0.57660639
0.06629151 0.18111332 0.58449256
0.03213837 0.39399254 -0.25803930
-0.13663530 -0.04745514 0.13946223
-0.06384505 -0.46513352 0.73082423
0.02272632 0.07055514 -0.40189737
0.23461869 -0.55667436 0.55225831
-0.09187777 0.34695330 -0.56241578
0.12072857 -0.06929801 0.24684149
-0.13106002 0.14927232 -0.05567498
-0.07936583 -0.33815441 -0.31186217
-0.03924704 -0.08453057 0.57833028
-0.12910454 -0.09347750 -0.30965564
0.17152332 -0.59822553 -0.17164291
-0.30067694 0.53000784 -0.62284333
0.14309391 -0.05992809 0.25420660
-0.00908230 0.28790718 0.22781184
0.14469963 0.27205104 0.15242814
0.19966215 -0.34865844 0.50209075
0.06591693 0.29292029 0.23975822
0.09144735 0.01900298 0.51606649
0.08922182 -0.02233116 0.41247812
0.22166926 -0.04239658 -0.26750275
-0.09689891 0.39956644 -0.46176913
-0.15599141 0.09163587 0.20101999
-0.16931157 0.07194905 0.43600953
-0.13514858 0.18614234 -0.23628159
0.12709120 -0.28457376 -0.18398485
0.14716598 0.10651099 -0.40810364
-0.24273489 0.45639840 -0.76651680
-0.17338756 0.04843146 0.11226068
0.27935323 0.17280759 0.42932525
-0.02827409 -0.07076309 0.44695687
0.24839610 0.21440990 0.25008488
0.12796259 -0.08261897 0.22854212
-0.24797779 0.62653291 -0.59685272
0.03612218 0.30225495 0.43880022
-0.11276276 0.19985409 0.52461344
-0.10004561 0.41201743 -0.48230344
-0.01033851 0.25724179 -0.08173944
0.26606619 0.10904071 0.15155642
0.02195398 0.24980173 -0.02435170
-0.11849266 0.20734592 -0.28420863
0.18763924 0.01525258 0.53985703
-0.09427439 -0.07432180 -0.18767188
-0.03544332 0.26499230 0.20046787
0.29155803 0.10228106 0.39551300
-0.04851757 -0.06492752 0.55324072
-0.11599906 -0.14549465 0.60355514
-0.05779471 0.22909732 0.56596196
-0.08353858 -0.43655154 0.72552186
0.22455683 0.09753311 -0.04849769
-0.12258209 0.02443028 0.27678692
0.21934131 -0.50328737 -0.13169414
-0.21858725 0.40863767 -0.75117874
-0.04344622 -0.05295055 0.26235801
-0.15079901 0.34140658 -0.57531226
0.22196037 -0.44124505 0.53243369
0.03391756 -0.12718216 0.17529322
0.22753698 0.11745819 -0.30179745
-0.08184679 -0.48883012 -0.26656383
-0.07902754 0.26291281 -0.42893755
0.26423815 0.06326795 0.12876792
-0.11460520 0.18396537 0.20448202
0.08666201 -0.10268356 0.20833246
0.18945456 -0.61364430 0.52245224
0.06312089 0.33012792 -0.50584471
-0.08652231 -0.23915599 -0.31309515
0.20244864 0.21195260 -0.25637048
0.19416639 -0.52717179 0.57813060
0.05850917 0.47419351 -0.48618874
-0.16684499 -0.01438149 0.50528640
0.24621290 0.08859579 0.22597870
0.02636489 -0.12417755 -0.28985307
-0.15153846 0.04293292 -0.01686862
0.23526078 -0.32838264 0.51586556
-0.11854613 0.16091134 -0.15854575
-0.10069242 0.16450486 -0.37835547
0.21674433 -0.06679238 -0.29457632
0.23086271 -0.27193823 0.46010625
-0.00132734 -0.12376448 0.19409432
0.23832536 -0.03121943 0.13656576
0.17623366 -0.03004769 -0.15098245
-0.07764209 -0.12966630 0.47908580
0.11238539 -0.18106972 -0.17326137
0.27144921 0.17627420 0.47722232
0.16261068 0.31214499 0.27954054
-0.07671706 -0.00255809 0.29550642
-0.15246952 0.13184665 0.36924338
-0.06942704 -0.16225500 -0.19844666
0.15081255 0.21479025 -0.38415295
0.04882737 0.20069051 -0.46103072
-0.10544714 -0.63443339 0.64845437
-0.16528539 0.06083799 0.01856163
-0.12880923 0.14976805 0.21192440
0.22726825 -0.63919693 0.50752276
0.20340991 0.11789544 -0.34915644
0.03980099 0.24205241 0.06768081
-0.08948930 -0.01610237 0.36546761
0.02592362 0.53285849 -0.49966186
0.09800111 0.25047198 -0.45188090
0.04917505 -0.01602652 0.33481506
-0.12567741 0.18163185 -0.20245811
0.24715853 -0.07049407 0.34853080
0.17511167 -0.34502730 -0.20321758
-0.29427510 0.49019641 -0.69413799
-0.05891903 0.28126329 0.49007708
-0.24074480 0.52404165 -0.58846045
-0.00726611 0.12237693 -0.42306411
-0.27437752 0.42678609 -0.58835173
-0.11434968 0.20650440 -0.21534967
0.23365572 -0.04612830 0.32973239
0.11188692 0.06460617 -0.41516566
-0.09259529 -0.63738239 0.66391641
-0.05477116 -0.12133626 0.06444634
-0.02561234 -0.14902961 -0.03930828
0.28517926 0.07962898 0.40076920
-0.13200095 0.39086786 -0.72981304
-0.12318785 0.12245783 -0.14505087
0.23303580 0.01612095 0.20959409
0.03343563 0.50046706 -0.52483034
0.16109948 -0.20605129 -0.19969356
0.24698746 -0.11977527 0.46578625
0.19288063 -0.04071486 0.31544885
-0.02281310 0.40650016 -0.28569859
-0.07065119 -0.12100589 0.01439542
-0.01863765 0.42239201 -0.57760340
-0.24748589 0.38564479 -0.76680696
0.13602726 -0.22720253 -0.17141257
-0.12959117 0.55724782 -0.72811186
0.17703854 0.03647005 -0.36395761
-0.10762604 -0.08068755 0.15667132
0.10903914 0.28447840 -0.13589710
0.12596986 -0.02475499 0.50337118
-0.15907006 0.12710367 -0.32071346
0.00181974 0.30360591 0.32000178
-0.15723832 0.08778010 0.33677176
-0.09447504 -0.05420341 0.22005965
0.20742056 -0.29809952 0.54780650
-0.10382608 0.20033056 -0.16436191
-0.12935552 0.17263561 -0.34609610
-0.08649066 -0.36529678 0.65578717
-0.13411203 -0.09528074 0.51385593
-0.07093104 -0.48620984 -0.31879771
-0.16146949 -0.03859156 -0.25706589
-0.05267802 -0.51395452 0.73210502
-0.16145557 0.11540514 0.17954543
-0.13950935 0.01407890 -0.05051484
0.19314632 -0.49081999 -0.08564675
0.16749814 0.23991179 0.08088165
-0.00024987 0.45039010 -0.30255407
-0.24462548 0.49367887 -0.75262028
-0.15210816 -0.07328944 -0.30551046
0.10087308 0.27098504 0.17236277
0.17179446 -0.40013781 -0.10975520
0.25431302 0.02302129 0.27810863
0.18891478 -0.36883029 -0.18497761
-0.11370416 0.45539191 -0.69674903
-0.14284463 0.08905777 0.31838754
-0.00835135 0.40409404 -0.25754780
0.24231708 -0.02407651 0.02144496
0.26098588 0.02617335 0.29714546
-0.04245310 -0.14149338 0.58717138
0.19264320 -0.49334267 0.55433702
0.21182308 -0.04963238 0.12970999
-0.08489862 -0.52410930 0.74693376
-0.15319505 0.59269869 -0.68359870
-0.14646494 0.45512238 -0.55036592
-0.08226275 0.39053634 -0.40821728
-0.11835018 0.23665155 0.42970583
0.21885395 -0.64288735 -0.13095048
-0.13402426 0.14225554 0.25307766
0.18851733 -0.06685135 0.32059804
0.17972487 -0.05136412 -0.33735684
-0.16455700 0.16036154 0.37195382
-0.09285332 0.45006391 -0.43385097
0.22283757 0.28403986 0.32723615
0.08022335 0.43507528 -0.40295997
-0.07171352 0.23317394 -0.09882858
-0.06172255 -0.19755279 0.56363970
0.11333895 0.30814961 0.28549352
-0.14747356 0.34903556 -0.64077175
-0.07474224 0.19578974 0.01883292
0.13614368 0.05107520 0.54186136
0.16608939 -0.09401376 0.48201358
0.03756241 -0.15434010 0.06315090
-0.04410410 0.53514081 -0.42266741
-0.08046700 0.21292438 0.18184166
0.05139823 -0.14127475 0.14568168
0.15160532 0.27512464 -0.32667676
0.19387552 -0.64100254 0.52187133
0.20085764 0.00279368 -0.14935863
0.10605156 -0.01329116 0.49948031
0.28208527 0.12127542 0.46199411
0.12846549 -0.03993993 0.41582170
0.17678873 -0.05098697 0.21109697
-0.30559906 0.32736596 -0.73188889
0.03712187 -0.04079466 -0.36906809
0.03623307 0.28596926 -0.08346386
-0.09125380 -0.64704317 0.71724015
-0.12662300 -0.58027005 0.71677804
0.18395168 -0.38882008 -0.12388662
-0.03126615 -0.11738416 -0.09907130
0.19203168 -0.51412022 0.53875417
-0.32262051 0.41002056 -0.64678574
-0.04690254 0.23221897 0.15663348
0.10418072 0.02768040 -0.39125720
0.27228969 0.22066054 0.41348571
-0.02409254 -0.10125881 0.20560664
0.19988045 -0.05570012 -0.29507625
0.20584056 -0.06920093 0.32993656
0.00984976 0.23073623 0.00498805
-0.10030638 0.25725698 0.29886544
0.14823651 0.31320700 0.24502546
-0.04511624 0.58216619 -0.60650456
-0.05691703 -0.39346078 -0.26305866
0.01070364 -0.15601854 0.06412528
0.11511335 -0.14171234 0.02992767
-0.03282698 -0.11329007 -0.13636836
0.26627749 0.17560667 0.28055888
0.21091315 -0.22421601 0.43998852
0.24623069 -0.49376312 0.55817366
-0.15574130 0.32932466 -0.61504489
-0.22990425 0.53804135 -0.60398108
-0.11203577 0.55821288 -0.70751083
-0.11280049 -0.19023345 0.56346065
-0.03211861 -0.11128533 0.18503419
0.16486293 0.31209174 0.37541929
-0.09062716 0.33015934 -0.52208960
-0.04329707 -0.16183548 -0.26940510
-0.12042443 0.05689264 0.56793970
-0.35073787 0.36464113 -0.68321037
0.15264516 -0.10067254 -0.01773432
0.24428126 -0.52794492 0.55753607
-0.02741930 0.49791849 -0.37266624
-0.24984811 0.39707035 -0.59039515
-0.12916178 -0.07179244 0.57118279
-0.07573511 0.28559184 -0.37419996
0.15524924 0.28478619 0.49465537
-0.12971944 -0.13625513 -0.28270897
-0.30423325 0.33310023 -0.68213344
-0.01395208 0.58826476 -0.50702393
0.15966047 -0.47429794 -0.12508318
0.25385249 -0.02789470 0.47320372
0.12925205 -0.05397673 0.28719497
-0.16134551 0.01992461 0.14045584
-0.07349356 0.36283478 -0.42726317
-0.04827181 -0.15349925 -0.17761764
0.22770831 -0.61057836 -0.15278219
-0.15598570 0.17975250 0.45317078
0.23437533 0.00690741 0.51806355
-0.14071561 0.12140374 -0.21128246
0.04624535 0.36321300 -0.52932882
-0.05146462 0.46149212 -0.63626099
0.16389622 0.21960054 -0.01968004
0.07052281 -0.01239251 0.42299864
0.09981732 0.25961432 0.05203442
0.10276245 0.33868101 -0.25626111
-0.04936268 0.38110808 -0.31223625
-0.38626853 0.34431717 -0.70586276
0.22425130 -0.50574815 0.52525711
-0.08293854 0.30709478 -0.43686226
-0.15994126 0.12923615 0.14360896
-0.13411370 0.17621663 -0.29062009
-0.13760692 0.16204175 0.53504980
0.08952017 0.36958686 -0.40581521
-0.17639105 0.57213503 -0.71119529
-0.04653423 0.37077889 -0.58521831
0.07174692 0.29517394 -0.48101678
-0.08918347 -0.03147702 -0.15265277
0.09534638 0.32819158 -0.47373846
0.15965717 -0.07901559 0.20590124
-0.06349315 -0.05702344 0.22863248
-0.18270767 0.39380294 -0.54759270
0.03839730 0.26959652 -0.04827049
-0.17811656 0.53743827 -0.54354775
0.10192479 -0.01746021 0.32141158
0.16304643 -0.03640091 0.29326028
0.20099735 0.06223965 -0.14065076
0.20179969 0.03001913 -0.14775252
-0.29181024 0.35056424 -0.65095180
-0.34235373 0.38244355 -0.68465108
-0.09966967 0.23510019 0.27157030
-0.00001604 0.35929671 -0.55646026
0.08665180 0.41191959 -0.46170810
0.00139836 0.26745895 0.13265163
0.06316760 0.26886410 0.16654223
0.27594784 0.15583245 0.47274286
-0.13798702 -0.01618358 0.17221424
-0.07756127 -0.07386409 0.52582288
-0.00331892 0.56806058 -0.55405146
-0.28341877 0.34538364 -0.73820645
0.03924397 0.11280557 -0.41845697
0.18920112 -0.45640424 0.53124869
-0.13913327 0.12855786 0.18570742
0.16460097 -0.24528500 0.48808891
0.00406498 0.46514747 -0.58822000
0.15605125 0.31651622 0.39286017
-0.10423417 0.09867331 -0.39027101
0.08519275 0.17382756 -0.42761484
-0.06391204 0.53689134 -0.43899134
-0.16476712 0.02531108 -0.26525778
0.26452729 -0.02047805 0.34411758
0.19471008 0.00179386 -0.35001016
0.28714180 0.10498697 0.43031719
-0.13525373 0.12801741 -0.36335230
-0.08377295 0.25645110 -0.18204750
-0.06107443 0.15484224 0.60272467
0.12655964 0.29640278 -0.26480299
-0.00411830 0.32622007 -0.21612325
-0.09262087 -0.46174243 0.75008124
-0.06665296 0.45433208 -0.65909809
0.13550720 -0.37046367 -0.15487474
0.15002364 0.07388146 -0.39459008
-0.29451472 0.32269740 -0.71357042
-0.13337058 0.01040563 0.35161832
-0.12548119 0.19745581 -0.26742142
0.09474282 0.34390652 -0.44693023
-0.15977626 0.01067723 -0.29887164
-0.13987520 0.07014979 -0.18616390
-0.12881809 0.52353150 -0.71895111
-0.09874381 0.22514918 -0.34508643
-0.07577815 -0.54640204 -0.33588403
-0.14497966 0.00920283 0.22955132
-0.05453768 0.29023978 -0.24636491
0.05466717 0.30951315 0.44807795
-0.04101558 -0.09078483 -0.33614686
0.08155450 -0.07694201 0.25622261
0.25469786 0.11984450 0.04540055
-0.13148944 0.11461219 -0.03985098
0.13343407 -0.30027398 -0.17229718
-0.33057728 0.31212747 -0.72098982
0.21461087 -0.17918339 0.50322884
-0.18056853 0.34274322 -0.66991407
-0.08538356 -0.45114902 -0.28055334
0.16048734 0.25813118 0.16457702
0.06145447 -0.14241348 0.12868761
-0.09141828 0.28334606 0.43989390
-0.00907500 0.03436835 0.59667671
0.13022403 -0.03938363 0.48547584
-0.10288401 0.61356860 -0.61773759
0.14562714 -0.32510167 -0.22508913
-0.07663526 -0.08991162 0.60869199
0.28598914 0.16504121 0.39063174
0.18279564 -0.10085052 -0.29055002
-0.29568261 0.43869704 -0.63060135
-0.01537723 0.42234302 -0.31544608
-0.04987280 0.24581581 0.13924538
-0.11400181 -0.38794702 -0.24825750
0.19888747 0.02952527 -0.11838973
-0.12193581 0.59375024 -0.67863435
0.17380358 -0.18854542 -0.17602198
0.21476850 -0.05945326 -0.25625902
0.18624312 -0.43193623 0.55737352
-0.11543419 -0.62005877 -0.31147793
-0.08185432 0.39676511 -0.64178854
0.13456689 0.20193551 -0.41193482
-0.10904719 -0.64915293 0.67741358
0.07291269 -0.15977956 -0.11528384
0.12027675 -0.20805015 -0.18812090
-0.11193138 -0.33007491 -0.23551773
-0.08821115 0.53115982 -0.46806270
-0.03173685 0.28722611 -0.12461600
0.08369623 0.32476059 0.27662453
0.17960927 0.05553838 -0.37061483
0.01117272 0.30930999 0.23052999
-0.11977018 -0.17083105 -0.26240787
-0.33358520 0.42440191 -0.73617595
-0.16534804 0.02904767 0.07690321
-0.13901886 -0.04091270 0.02824359
-0.05398990 0.47731271 -0.38084662
-0.07062455 0.28076270 0.30629000
0.19665396 0.23354341 0.12358868
0.24143636 0.26981786 0.39886749
-0.07979149 0.26024178 0.45524696
0.17893645 -0.03881341 -0.32171512
0.21820372 0.22210477 0.52298117
-0.06410909 0.03739165 -0.39451793
-0.03937929 -0.08096506 0.21811418
0.12664434 -0.02581102 0.46041036
-0.10035823 -0.04904596 0.43758452
0.04920413 0.49786365 -0.45187116
-0.25797260 0.56169635 -0.63226956
0.22762632 0.12478945 -0.02223986
0.13922860 -0.18258932 -0.17049254
0.17994952 -0.55266911 0.54329932
0.11224982 -0.04700632 0.30410838
0.19754931 -0.06771985 0.02300432
0.21287918 0.10770444 -0.07944896
-0.17107227 0.04494744 0.15269049
0.16455536 -0.07157350 0.41863450
-0.09121223 0.36592206 -0.50493842
-0.10009949 -0.14548266 -0.31367603
-0.13233285 0.10780797 -0.36364692
0.11621520 -0.01188429 -0.37109289
-0.08975035 -0.46040747 0.69209397
0.20313811 -0.58945227 0.48348135
0.13291441 -0.10340030 -0.33261377
0.18916160 -0.08535818 0.03040687
0.22676718 -0.01060151 -0.21816348
-0.10964709 0.25316933 0.36517990
0.15949051 -0.28479573 -0.20335713
-0.12707905 -0.06044469 0.10982342
-0.09074359 -0.04220211 0.39126050
-0.08801363 -0.27724767 0.60374117
-0.09874181 0.19651072 0.12718308
-0.14845511 0.14747730 -0.29485366
0.25195026 0.11532645 0.51796949
-0.05885706 -0.08600010 0.46458116
-0.36589256 0.34824768 -0.79366952
-0.08343109 0.44515345 -0.41792265
0.03978169 0.33375844 0.37732017
-0.06324244 -0.41679549 -0.25520387
-0.16997850 0.01287476 0.08579260
0.20077613 -0.01015062 0.23820952
-0.06189280 -0.53691179 -0.31612116
0.16389228 -0.63754684 -0.16289029
-0.04514418 0.54263550 -0.61816108
-0.06189841 0.28241605 -0.14873673
0.20880038 -0.38046604 0.50197518
0.02764577 -0.16347706 -0.01342742
-0.05182834 -0.13865040 -0.29129562
0.14283983 0.26523453 0.12574306
0.12364659 0.02343809 -0.38743764
0.02532653 0.20360930 0.58003336
-0.09650768 -0.25696629 -0.30717328
-0.07710019 0.37026903 -0.38989225
0.17163782 -0.17464389 0.45297855
-0.01649997 0.18288212 -0.45392716
-0.10326518 -0.08658525 0.12337375
-0.05526289 -0.63873327 -0.35707387
-0.06352890 0.20828936 -0.07644387
-0.10726251 -0.59877235 -0.36118960
-0.08667688 -0.57708448 0.66699505
-0.03556390 -0.19619101 -0.24354887
-0.06994617 0.60776913 -0.60186285
-0.00153335 0.26729199 0.18989752
0.09387860 0.29812905 0.25243214
-0.06476927 -0.53113669 0.73941779
-0.10245024 -0.45927626 -0.26004654
0.22224620 0.22228745 0.15257010
-0.21463364 0.33751974 -0.66386825
-0.14157087 0.06941338 -0.03692897
-0.14300452 0.11583324 -0.00576470
0.21590984 -0.31960678 0.53855014
-0.13330531 0.07689545 -0.37692839
-0.15266536 0.15384337 0.13414524
-0.10833043 0.01908246 0.57827979
0.00109673 0.55631268 -0.42230850
-0.11520223 -0.40773603 -0.29581091
0.18294075 0.21151938 0.00987193
0.22915250 -0.61159450 -0.12539683
0.20859280 -0.62450951 0.55695271
0.15159161 -0.21465532 -0.22035314
0.21328551 -0.04833774 0.30188480
-0.11541300 -0.63195723 -0.39216748
-0.13846889 -0.05449421 0.53630626
0.18996468 -0.35815772 0.55726153
-0.13767010 0.12095699 0.23100922
0.16701429 -0.44640616 -0.16724497
-0.07751482 -0.19407731 -0.31702986
0.25262922 0.18417838 0.26544428
-0.13117778 0.09259134 -0.08636880
0.23093036 0.13128294 0.54726118
-0.00732551 -0.13933432 -0.08223192
-0.15180606 -0.02722412 -0.29728055
-0.11550798 0.61630398 -0.64930290
0.21490601 0.06103212 -0.16427982
0.25038910 -0.05031374 0.34062144
-0.09349295 0.36991996 -0.65981436
0.16635340 -0.10258453 -0.16799371
0.08092764 0.37610155 -0.28565919
0.26608562 -0.01824073 0.37843338
0.12446471 -0.12618923 -0.09492753
-0.10109865 -0.18256359 -0.25413895
-0.40532783 0.32173064 -0.75474805
0.25229001 -0.02657126 0.31619012
0.21451560 0.12653802 -0.16210854
0.17429608 -0.46442541 -0.17171115
-0.00248505 -0.04768018 0.44112283
-0.23637219 0.33416858 -0.62623179
-0.15501282 0.02400704 0.01879526
-0.03111550 -0.13995032 0.13042586
0.17286462 0.22692303 0.54820347
0.10438393 0.31038159 -0.44379535
0.12903778 -0.19922681 -0.23598929
0.11539939 0.24707285 -0.42826161
-0.14462519 -0.00191556 -0.20281608
-0.05370249 0.23503308 -0.46823710
-0.31650001 0.46336201 -0.70908755
0.03664222 0.25687596 -0.00381457
-0.16422752 0.11258873 0.10694291
-0.04696961 0.24333876 0.54962718
-0.12125477 -0.06563483 -0.31976789
0.17213704 0.24800995 0.14398710
-0.00605183 0.24583745 0.00580330
0.13196932 0.14791279 0.58823216
-0.07341982 0.25191000 -0.19861867
-0.12835142 -0.02538177 0.21776646
-0.02981076 -0.13688166 -0.10612745
0.21293312 -0.05619887 0.15531136
-0.38288170 0.28181970 -0.75025898
0.07984795 -0.15864539 -0.09780085
-0.05833450 0.32435420 -0.53214854
-0.39412123 0.37851286 -0.76809353
-0.13422190 0.37176669 -0.54047644
-0.16239947 0.09901918 -0.30513445
0.00809474 -0.10791408 0.21791056
0.12693577 0.27039590 -0.37309176
0.26463130 0.12885493 0.12088904
0.17649406 -0.07272710 0.34998041
0.18359131 -0.19812506 -0.21095017
-0.03709944 -0.03051849 0.35446724
-0.12545575 -0.03430044 0.17777915
-0.16685092 0.01088609 0.04953560
0.03996224 0.31582746 0.25056288
-0.13023868 0.14445701 0.53881550
-0.12320190 0.34518400 -0.61235589
-0.06755791 -0.37282997 -0.31519878
0.21918154 -0.00344854 -0.05812854
0.10616767 0.30536532 0.31106162
-0.13702214 0.40745321 -0.55230558
-0.26091823 0.32872733 -0.71516174
-0.24637763 0.46522027 -0.58270258
-0.13676901 -0.06469852 0.05739756
-0.08094376 -0.00297039 0.33328044
-0.08913657 -0.19665550 0.61109501
0.21064547 -0.63567716 -0.18575750
0.25482684 0.24319413 0.36011779
0.20285815 -0.03367534 -0.03146981
-0.10844506 0.24848530 -0.27211291
-0.02201768 0.26077127 0.53879809
0.14133456 -0.09146280 0.19313698
0.23466697 -0.27063772 0.52260751
-0.12209567 -0.13190706 -0.30555269
-0.00551020 -0.15314506 0.00219356
0.10629827 0.22097276 -0.44774204
0.02555492 0.27388600 0.18072373
-0.07004426 -0.34274212 0.70155078
-0.00388304 -0.15585728 -0.13061193
0.04450672 0.31731975 0.34499052
-0.07525565 -0.25267595 0.67997938
-0.04449230 0.30787939 -0.21960047
0.05755393 0.46182102 -0.44755140
0.07829437 -0.14518577 -0.15374134
0.15796670 -0.07374727 -0.09168602
0.24613437 0.05144671 0.25790924
-0.22195548 0.42400697 -0.76263213
0.04930873 -0.14360629 -0.10978401
-0.02164030 -0.01450852 0.58953816
0.15410437 -0.25074810 -0.13966733
0.27444869 0.12933730 0.31780919
-0.06904884 0.21647485 0.00433214
-0.03023767 -0.04829393 0.41626254
0.24583381 0.25816390 0.32822663
0.02883884 0.30485317 0.29316768
-0.15805626 0.10934984 0.34261763
0.07725115 0.39701879 -0.47773644
-0.05675927 0.58724147 -0.48212302
-0.05294380 -0.29944384 -0.30985698
-0.03305690 0.26516983 -0.13053484
-0.03955170 0.40506700 -0.34664193
0.04779520 0.36913806 -0.20609744
-0.27319548 0.52335787 -0.62966281
0.23524815 0.27115074 0.31985757
0.08279313 -0.13616949 0.03070044
0.21043819 0.14455259 -0.23548855
-0.12101666 0.05943340 -0.15295568
-0.15369529 -0.00696373 0.08060330
-0.05141242 0.31859404 -0.32384986
0.10919745 0.32969132 -0.31547603
0.23150408 -0.38759539 0.51722169
-0.12494466 0.42539158 -0.71569347
0.17864761 0.12287389 -0.39346036
-0.09586556 0.41891041 -0.44457972
0.10161513 -0.11196977 0.18582517
-0.35750094 0.28824216 -0.76601315
-0.04064555 -0.13111317 -0.01070289
-0.02208193 0.26800179 -0.51791215
-0.07475565 -0.56779325 0.72110373
0.01272199 -0.15885922 0.04101744
0.06301831 0.46671352 -0.36576027
-0.10532495 -0.23980409 -0.21796407
0.24451840 -0.62427419 0.49172747
0.23190254 0.25312722 0.24536431
0.26542717 0.10461290 0.28682271
-0.07252289 -0.06614068 0.21505733
0.15594801 0.32536936 0.35895661
0.09682214 -0.10069782 -0.31788477
0.03070915 0.31219256 -0.51837909
0.01154514 0.26682347 -0.05536407
0.15758079 0.26179841 -0.25494164
0.02007566 -0.12983996 -0.23255794
-0.08266449 0.27527708 -0.26554394
-0.09058086 -0.40317804 -0.31705523
0.20234701 0.13356504 -0.10558522
-0.13393189 0.03697955 -0.18394996
0.03429124 0.47276160 -0.54052269
0.27537474 0.01545100 0.33043340
0.17982060 0.18760782 -0.10595859
0.18252850 -0.39234909 0.53450853
-0.04985005 -0.13811685 -0.31156406
0.00273941 -0.14551462 -0.02926879
-0.10782389 -0.16533136 0.59616029
-0.09783784 -0.53045338 -0.26286969
0.21351567 -0.07105617 0.13362816
-0.07781372 0.36853421 -0.59372509
0.15950361 -0.22414546 0.46465853
0.12239963 0.31402722 0.25750768
-0.10710001 -0.19970746 0.64074129
-0.16812012 0.40012115 -0.75127965
-0.04886361 -0.02545616 0.28892916
0.27442327 0.07773303 0.33201864
-0.15989828 0.40027234 -0.72719800
-0.14945509 0.11224154 0.03794754
-0.11436833 0.35734007 -0.56099123
0.10347120 0.33059582 -0.38781995
0.16001850 -0.12480529 -0.15117681
-0.17426088 0.08586317 0.15884387
0.24976909 0.11903602 0.23832655
0.16508614 -0.12055088 -0.30709156
-0.02347689 0.25576100 -0.49862123
-0.25786191 0.43010283 -0.75663531
-0.01972456 -0.12091836 0.17502907
0.08264796 0.19738875 -0.45025513
0.03131267 -0.16078570 -0.09475112
-0.05081202 -0.21119635 0.62778169
0.16392674 0.25289702 0.12770002
-0.15610291 0.05740868 -0.00317023
0.02506682 0.41383207 -0.54714465
0.19868663 -0.16365199 0.39756083
-0.05798052 -0.58658290 -0.32891583
-0.17283723 0.34143621 -0.62398010
0.12284423 0.09356210 0.57341439
0.10971136 0.18232930 0.57755142
-0.00446534 -0.14175168 0.14784841
-0.00569292 0.30173603 0.43277889
-0.05808628 -0.05322896 0.41537201
-0.00740049 0.23183550 -0.02137630
-0.26042199 0.35062021 -0.72039276
-0.20289043 0.47819355 -0.56846219
-0.11424790 0.36753812 -0.54070628
0.17632473 0.19297336 -0.05382718
0.16996446 0.05288731 0.56383342
-0.17748162 0.48485851 -0.56533355
-0.27001119 0.53894567 -0.60778999
-0.03370076 0.26732284 0.15364130
0.23344141 0.02786567 -0.03573728
0.16994511 0.28866979 0.24122888
0.10404913 -0.01617252 0.35948357
0.15017007 -0.27847406 -0.13782176
0.29089242 0.06906268 0.38055354
-0.15623103 0.09165004 0.01532626
-0.11621754 0.17040397 0.05013884
0.22637343 -0.30052808 0.51406580
-0.11287914 0.39358509 -0.69513679
-0.00279365 0.25825557 0.09561536
0.16394086 -0.19985259 0.51872987
0.05719702 0.02734445 0.51560825
-0.08747637 -0.13995489 0.64490157
0.15330143 -0.08976879 -0.14048484
0.24258992 0.00050924 0.18919373
0.20891348 -0.05076515 0.01412452
-0.14468428 0.05888425 -0.34607223
0.03560410 0.51439214 -0.41717723
-0.08479164 0.61974198 -0.59382021
-0.03516155 0.30111906 0.34186953
0.06242521 -0.05508021 0.27260020
-0.27966130 0.43392503 -0.60944057
-0.00135110 -0.15106201 0.10522157
0.21862978 0.29114333 0.34549090
0.22157854 -0.60407358 0.48290670
0.00641667 0.09703064 0.59453356
-0.11403624 -0.30848366 0.68270576
0.02984371 0.14261597 -0.43848252
-0.10707791 -0.54888630 -0.27980745
0.04406959 -0.14745033 -0.08486944
0.22359622 -0.25301209 0.52340245
-0.00422011 0.27648342 0.52669746
-0.16026790 0.07710234 -0.24794351
-0.04206501 0.46629897 -0.61264235
-0.10567721 -0.01673747 0.25566259
0.22175264 -0.25332659 0.43572482
0.07494919 -0.12390797 -0.27620414
-0.06452516 -0.18865116 0.66757023
-0.18654457 0.37815428 -0.55752164
-0.07896727 -0.12962934 0.08697838
-0.13895035 -0.03632244 0.42250490
0.07230000 0.40501794 -0.29801556
0.05071859 0.42662847 -0.28859553
0.02241379 -0.10213400 -0.31773281
0.19512784 -0.05316741 -0.17727080
-0.10057392 0.22921288 0.24796316
0.01411515 -0.15022568 -0.20731682
-0.06126698 -0.11962616 -0.32369551
-0.28893557 0.35143903 -0.63202256
0.22965994 -0.48191857 0.58216083
0.04492086 0.26932350 0.54287738
-0.05959972 -0.08597840 0.20226170
-0.14801942 0.50104082 -0.74100971
0.16533679 0.32004318 0.31881744
-0.08903269 -0.09045500 -0.02699894
0.01054139 0.31875485 0.41978937
0.14764573 -0.06964244 0.22417702
-0.11198503 0.24894491 0.46710819
-0.03144872 -0.03674286 0.53038031
0.13045260 -0.00068890 0.51533186
-0.07490227 -0.08811668 -0.05497591
0.21767896 0.11539003 -0.23684137
-0.13629115 0.06655096 -0.09598119
0.27746937 0.02451358 0.36294696
0.00395251 -0.04780106 0.29593894
-0.09303580 -0.30867180 0.69872683
-0.22990088 0.58830100 -0.64125139
-0.06726701 0.29734355 0.44198415
0.16379142 0.25033474 -0.31120530
0.20069474 -0.05704539 -0.03057113
0.12000540 0.19418262 -0.43116283
0.06980270 0.25336477 0.00978121
-0.14847633 0.41756094 -0.73679316
0.08733827 0.26617819 0.13377719
-0.03593729 0.41722387 -0.31494409
-0.04189886 0.45159912 -0.35447106
-0.22109403 0.52244765 -0.57329375
-0.05497113 0.59996891 -0.58463365
0.23654687 -0.09954701 0.47557360
-0.05538303 0.39545381 -0.34713849
0.09739053 -0.14626217 -0.00317299
-0.18938503 0.33635706 -0.69839215
0.24870405 -0.05279637 0.39510527
0.16363755 -0.16539787 -0.27353656
0.00045516 0.46786609 -0.32686701
-0.12012982 -0.57406747 0.67578107
-0.07446299 -0.50426662 0.67830282
0.22342271 -0.00247779 -0.04019632
0.16744488 -0.21629946 -0.15934634
0.05025467 -0.15296555 0.04987948
0.14112559 -0.03214302 0.36829308
0.04458407 0.17055424 -0.43738976
0.21395212 -0.40884274 0.56382096
-0.03797926 0.29136389 0.26285473
-0.12176013 0.01720458 -0.36661208
0.13934276 -0.24515341 -0.23537838
-0.24901260 0.41966027 -0.57899249
-0.15707859 0.49339545 -0.54407072
-0.06558657 0.20814645 0.05349136
-0.04284844 -0.12176134 -0.32221314
-0.07228068 -0.59811300 0.68524861
-0.05277760 -0.24188042 0.62485176
0.03909870 0.50689691 -0.47728428
-0.04106052 -0.03933240 0.56776440
-0.23299588 0.33345568 -0.66314024
0.05912824 0.29085743 0.51203912
0.16536114 -0.05177149 0.23027501
-0.38896790 0.38578290 -0.72047544
0.15212165 -0.06699407 -0.11784685
0.19300893 -0.52040637 -0.14931151
-0.21578251 0.58565879 -0.57268727
0.26380563 0.00345362 0.45440665
0.01594788 0.00444230 0.53296548
0.19441539 -0.39887580 0.56160170
0.01733034 0.52925116 -0.40340713
0.20057610 -0.55476403 0.56771618
0.00713791 0.30306050 0.48651588
0.02167205 0.32127923 0.32954985
0.24886543 0.06676625 0.20771444
-0.01116877 0.24979207 0.56314713
0.16458040 -0.20242205 0.47912008
0.15535118 -0.08305059 -0.04124410
0.27373514 0.00863807 0.43169317
-0.09207456 -0.43083760 -0.24444139
-0.00675392 0.31510165 -0.17733005
0.17776631 -0.14446741 0.39977089
-0.05260848 0.22949511 -0.00478225
0.01697743 -0.06937125 0.27059451
0.00528497 0.26102626 -0.02896751
-0.12590930 -0.10592362 0.56896693
0.18099511 -0.27425748 0.46750909
0.19415331 0.25353891 0.51901692
-0.08866607 -0.07995079 0.47052786
0.24657986 -0.01258012 0.16228867
0.19430444 -0.23033957 0.53093523
-0.07351854 0.27779543 -0.29846594
0.15636155 -0.61037189 -0.13166831
-0.03356316 0.37513369 -0.27265501
0.00254057 0.12941104 0.61166638
-0.14892524 0.12066858 0.31469336
0.08829899 -0.15613569 -0.18219692
0.08790794 -0.01436495 0.49519628
-0.09579230 -0.56536877 -0.35168380
0.14889280 -0.29603109 -0.13086969
0.15772803 0.24836436 -0.22823270
0.18735680 -0.08344315 -0.00728828
0.00918416 0.25276285 0.02480885
-0.11558907 -0.07568777 0.08168472
0.22847128 0.22191876 0.19148013
0.07994068 0.27228975 -0.11799447
-0.11210468 0.02245332 0.55757648
0.06822762 0.31156868 0.31535152
-0.02119979 0.30244502 0.29416889
0.17120598 -0.53368342 -0.09168924
0.01586982 -0.14293158 -0.11016405
-0.31697604 0.32169160 -0.74721593
-0.05537634 -0.16112824 0.64212036
-0.03409702 0.25398755 0.17361827
-0.04835680 -0.22212543 0.66567707
-0.02468580 0.23981017 -0.04989804
0.19897777 0.16436701 -0.10880899
0.00209212 0.56641459 -0.53539860
0.17184672 -0.48803571 -0.09485094
0.20310995 -0.54843503 -0.12037826
0.11992764 0.31912896 0.42368579
-0.09905449 -0.44500399 0.66821349
-0.01467183 -0.14136884 -0.22507091
-0.15705459 0.08422021 -0.27888978
0.23029527 -0.42483139 0.51918674
0.25477132 0.02036653 0.49776089
0.09346971 -0.08014647 -0.35185310
-0.03635825 -0.01918356 0.51492953
0.19355097 -0.13981558 -0.26843676
-0.11517861 0.02755255 0.31395864
-0.21807553 0.43030146 -0.55831367
-0.08562675 0.59263080 -0.57223636
0.19788533 0.19724132 -0.26974708
-0.14306128 0.48037177 -0.73174495
0.05569266 0.16845292 0.59235466
-0.03260498 0.22062564 -0.04505411
0.18731660 0.24315143 0.10856536
-0.04130957 -0.12467811 0.09132929
0.15451623 0.22170478 -0.08371615
0.23364532 -0.54697591 0.51437742
0.19336030 -0.01169423 -0.08269985
-0.00373518 0.29638231 -0.12743571
0.06996450 0.22752339 -0.46659172
-0.22249500 0.55239701 -0.70931917
0.05600429 0.30352288 0.26055562
-0.15728149 0.34197736 -0.68201774
-0.29786545 0.39832392 -0.61127967
-0.14958307 0.00601117 -0.01100433
-0.08582795 -0.26033872 0.61246568
-0.13422115 -0.10828444 -0.28062800
0.22970501 -0.35287941 0.53583586
0.07794867 0.36063832 -0.48931092
0.24271229 0.20741341 0.21024387
-0.09925157 0.42083418 -0.68668336
-0.07242986 -0.42938977 0.68853492
-0.08545011 -0.10752504 -0.20070332
0.21543765 0.19191825 0.05686349
-0.15548573 0.15120430 0.33791235
0.06410713 0.19282255 -0.44524178
0.23559159 -0.29266545 0.52797657
-0.15442471 0.10546015 0.36006966
0.22603077 -0.02736811 0.27182597
0.17264333 -0.25734264 0.50136739
-0.02362624 -0.01970854 0.37472531
0.18043739 -0.45373318 0.55021387
-0.05368727 0.29399151 -0.19791739
-0.18263307 0.62397712 -0.63848048
-0.07643832 -0.10809959 0.61810189
-0.07226058 -0.29085958 0.69285232
-0.10197747 0.04584398 -0.39634594
0.16648647 0.20086101 -0.08784062
-0.10023469 0.47750577 -0.44700348
-0.12424757 -0.58738595 -0.32136971
0.03063256 0.29714993 0.49779040
-0.13156170 0.17685777 -0.26861942
-0.14975119 0.50337178 -0.72265214
0.07512717 -0.15368640 0.03619134
0.27344987 0.20501128 0.33847818
0.10335067 -0.01753699 0.46537277
0.07773478 0.26854643 -0.48094183
-0.05765214 -0.23039849 0.59693646
-0.07682482 0.23426148 -0.15518774
0.18920025 0.22471903 -0.30328488
0.16180202 0.12716220 0.58633941
-0.02207492 -0.01563267 0.33243170
-0.15079579 0.19218729 0.38968986
0.10017511 0.33415332 0.34294838
-0.12466301 -0.05245925 0.02850489
-0.16459534 0.15643583 0.42611846
-0.20210917 0.37467578 -0.56627315
-0.11199284 0.51832652 -0.69531107
-0.11469072 -0.06271204 0.16979873
-0.12883766 -0.11112247 -0.25627875
-0.00578822 0.45679125 -0.60247517
-0.14447819 0.13486156 0.22035490
0.21242309 0.14791934 -0.04146079
-0.06587599 -0.22139575 -0.29098624
-0.09244523 -0.43517998 -0.27142021
-0.12883621 0.02158495 -0.16433507
-0.11437717 -0.50460160 0.75107211
0.21798965 -0.33388409 0.50777870
0.21834135 0.09875724 -0.29274589
-0.11351404 -0.10573018 -0.21419735
0.23882052 0.22424972 0.49425423
-0.19610018 0.59089613 -0.68923324
0.25734222 0.02377087 0.17040586
-0.15222016 -0.03033058 0.45488179
0.19447339 -0.34933347 0.53086370
-0.03717262 0.30876946 -0.24395417
0.10756785 0.14348496 -0.43042848
-0.04370529 -0.32923165 -0.26394621
0.03347346 -0.16233675 -0.05416030
-0.15315662 0.13137802 -0.23458938
0.21675426 -0.00467699 -0.31882158
-0.11269128 0.13253732 -0.38238904
-0.08689495 -0.57553339 -0.37315220
0.00781468 0.26025203 0.15479130
-0.00940908 -0.12530145 -0.24429248
0.12498742 -0.25837365 -0.15191673
-0.02004391 0.35635585 -0.23894122
-0.10149248 -0.61688972 -0.38021237
-0.11428982 -0.16950043 -0.22964871
-0.08776321 -0.37673372 0.72087187
-0.04182450 0.24848127 0.11129403
-0.15495022 0.02710129 0.20314766
-0.10077624 -0.23318185 -0.27552861
-0.06765804 -0.62736642 -0.38970342
-0.11363880 -0.19198582 0.53773910
-0.07894405 -0.21203949 0.68656433
0.05695146 -0.08700909 -0.35963014
-0.28760028 0.32622874 -0.74988776
-0.05039150 0.26293913 0.22880119
0.14920400 -0.04130474 0.44766915
-0.07269314 0.29422671 0.32331806
-0.02653569 -0.12560958 0.15523261
0.03978793 0.02354968 0.51891845
-0.07213559 0.14027354 0.59390497
0.07366331 -0.02496407 0.44976664
-0.40466261 0.35788527 -0.75238460
-0.08434702 -0.14347082 0.62244612
0.07352354 0.46163568 -0.42177609
0.15583166 -0.58633870 -0.14969753
-0.07266150 0.30493528 -0.38220900
-0.08729947 0.44742310 -0.66877824
-0.08961473 0.20635894 0.14559419
0.19619593 0.17492649 -0.02877541
-0.09827761 -0.04348569 -0.17361788
0.19891101 0.25763473 0.20722736
-0.04638542 -0.34378973 -0.29763299
-0.09700228 0.35864940 -0.45593968
0.15515986 -0.17524877 -0.15921992
0.14837964 -0.09455334 0.17630686
0.04319264 -0.09826250 -0.33653456
-0.15080968 0.08252098 0.23178560
-0.14939803 0.13080929 -0.25740156
-0.05799549 -0.31983513 -0.23984675
-0.07675169 -0.56722087 -0.30572414
-0.12791468 0.48728508 -0.49088028
-0.13013892 -0.04320753 -0.32487431
-0.06009394 -0.46075240 0.69769478
-0.04502345 0.27387628 -0.17367925
-0.12706649 0.16737244 -0.18818721
-0.36145964 0.38894951 -0.76006693
0.10186540 0.35835478 -0.37037742
0.24518013 0.25155732 0.42071083
-0.17526352 0.61457270 -0.61122650
-0.21660838 0.61389792 -0.61550289
0.01962044 0.48116308 -0.56855804
-0.29578522 0.33479241 -0.77453238
0.18985021 -0.02475030 0.23754063
-0.10723221 -0.07850263 0.59730232
0.06908913 -0.12980801 0.16115201
-0.10985093 -0.08307419 0.45987678
0.16459689 -0.05827475 -0.13275619
-0.05346129 0.24168095 -0.12905827
-0.04628207 0.52203357 -0.40402213
0.25226736 -0.00733959 0.05139972
0.21271902 0.14190137 -0.17310780
-0.09804362 0.35829410 -0.59646797
-0.11932238 0.21183407 0.25385022
0.07900274 0.42766455 -0.44082263
-0.15700299 0.06303774 0.21250209
0.18075892 -0.12974915 -0.19997349
0.19175649 0.13181156 -0.38253665
0.08916348 0.25381613 -0.01854407
0.25564295 0.06343594 0.03238874
-0.11072114 -0.48416907 0.69805479
0.16837342 0.08703694 -0.39250731
0.16986710 0.30645168 0.30518949
0.25605100 -0.10052578 0.43138582
0.19449461 -0.09142452 0.35756773
-0.06942471 0.24741057 -0.43367442
-0.16031289 0.01737980 -0.22896609
-0.04243637 0.24217236 -0.10552739
-0.15347552 -0.00353413 -0.31784123
0.05061283 0.44583371 -0.31262210
0.03746105 -0.14001738 0.11407347
-0.10325117 -0.65229136 0.65830237
0.04951929 0.30390131 0.24102595
-0.14560486 0.60328001 -0.70507514
-0.04660222 -0.07032412 0.23771641
-0.13845870 -0.06565213 -0.29657784
-0.07985369 -0.14892317 -0.18813860
-0.01370856 -0.07726531 -0.34479806
0.08706562 0.25880542 0.03810382
-0.11268009 -0.01148095 -0.17211951
-0.06038746 -0.20935474 0.57739574
0.14635271 0.25928304 -0.17290825
-0.06053862 -0.46042269 -0.27068147
-0.05489688 0.35815290 -0.57337213
-0.16186048 0.35070235 -0.71730411
-0.13217248 0.13580978 0.01904173
0.13989978 -0.12511370 0.08252618
0.10198660 0.12169810 0.57618731
-0.02059725 0.42057338 -0.29803541
-0.05604222 -0.00678038 0.31129810
0.13719578 -0.32043010 -0.15391408
-0.26856244 0.35705361 -0.75642163
0.09519479 0.24448454 0.02767345
0.25708166 0.15391596 0.12593009
-0.08383092 -0.18131378 0.56063056
0.11923735 -0.23805015 -0.16877753
-0.13594750 -0.63281506 0.68198901
-0.12027015 -0.03498250 -0.02586644
-0.13919300 -0.15854152 0.54749471
0.24495503 -0.21289487 0.44551095
-0.19335094 0.41385368 -0.73985100
-0.09679615 0.26402205 0.43113002
0.15376654 -0.41573554 -0.11764330
0.17110294 -0.19811913 -0.26301572
0.16345680 -0.09669915 0.13761847
0.01966418 0.29118496 -0.51354718
0.11472440 0.03388493 0.52865845
-0.15870593 0.46361172 -0.74592173
0.15993458 -0.01727655 -0.36289358
0.19345456 -0.57988507 0.55598235
0.15120602 -0.51344877 -0.11208338
0.12909752 -0.12124252 0.12915552
0.04811332 0.25839490 0.13696603
0.11601834 -0.20978951 -0.16846615
0.01912631 -0.03593856 0.40782434
-0.07391471 0.53553545 -0.66532415
-0.01089391 0.06247848 -0.41145834
-0.09113996 -0.27049503 -0.22901116
-0.06773069 0.38656563 -0.59810895
0.22872233 0.16683169 0.54472077
0.16417986 0.24638918 -0.26724258
0.19249830 -0.57481360 0.50868690
-0.11478233 0.07248916 -0.38838899
-0.15030557 0.61041409 -0.66491282
-0.18392682 0.45759061 -0.76112354
-0.06438747 -0.06817107 -0.14226601
-0.12656340 0.61714584 -0.67423189
-0.20690729 0.48156086 -0.76460612
0.22270316 0.02762356 -0.05978447
-0.02591880 -0.12825838 -0.27582097
0.27208844 0.03204628 0.32445464
-0.12266703 -0.12643565 -0.26945657
-0.09317492 -0.00692984 0.60137260
0.10655575 0.31776753 0.37241599
-0.09008113 -0.48679575 0.75239152
0.14891724 -0.02829050 0.49711883
0.13867761 -0.29824421 -0.22310123
0.13218285 -0.35622701 -0.16879459
0.18541771 0.18571629 -0.07248696
-0.06927700 -0.42337140 0.70557654
0.24002352 -0.20110780 0.42733800
-0.07550006 0.32998225 -0.54891914
-0.26768559 0.46637905 -0.74592364
-0.37847272 0.35181957 -0.78142196
0.11567496 0.21889502 0.57365716
-0.06105225 0.30519405 0.28905040
-0.12537029 0.12512997 -0.08644518
-0.09052967 -0.40751165 -0.24930412
-0.06721438 -0.48477229 0.70919007
-0.07733984 0.35126206 -0.41047081
0.13203053 -0.15469956 -0.27005172
0.15704362 -0.06600337 0.49004048
-0.02296629 0.12230879 0.61041468
-0.11151750 0.48060149 -0.71476960
-0.00920057 -0.15690362 -0.23798299
0.03250762 0.07437377 0.57600653
0.19666660 -0.36478812 -0.14766040
0.26892811 0.04289491 0.16084157
-0.05597019 0.28845865 -0.27364486
0.05588326 -0.02206206 0.48665184
0.12441401 -0.12319278 -0.03159177
0.02199536 0.52325505 -0.53220886
0.06532177 0.30825493 0.22777361
0.16727112 -0.62025553 -0.17511804
-0.04392602 -0.14537284 0.56727886
0.13505420 -0.26403370 -0.22653316
-0.39880431 0.34239754 -0.73060346
0.22119793 0.10279489 -0.26889616
-0.08803947 0.07518657 -0.40547329
0.08462353 0.34480643 -0.22701229
0.22649139 -0.07027198 0.47495660
0.16768849 0.26644123 0.19125949
0.20345533 0.04578765 0.55552679
0.23055106 0.18413879 0.10169032
-0.14032644 0.14944291 -0.27800217
0.11947927 0.29023328 0.19803311
0.13913266 0.29011700 -0.28855023
-0.02678053 0.38800207 -0.31199694
-0.10672320 -0.16372059 0.52784508
0.07912484 0.32989457 -0.17955576
0.11984172 0.29523692 -0.42152089
-0.05209814 -0.17938423 0.64027643
0.11595435 0.30397737 -0.33805043
0.05925058 -0.15907492 -0.01290415
-0.09895162 0.17743181 -0.13263904
0.12803937 0.33142447 0.32534537
-0.05203086 -0.12613568 0.55288637
0.16659254 -0.42297217 -0.17492193
-0.13448153 0.33640879 -0.63231683
-0.08237287 -0.10412786 0.46331707
-0.10447534 -0.06147467 -0.04631140
-0.01291878 0.00710721 0.52974886
-0.10321918 -0.08665142 0.06887686
0.03897149 0.39879784 -0.55165642
0.10971507 0.29794437 -0.16579056
0.00364815 0.18972062 0.58998942
-0.13819554 0.02974865 0.33459100
0.14276884 0.08741006 0.57176232
-0.14292489 0.13400857 -0.34226403
0.12463975 -0.11550640 0.01081377
0.24241793 0.13379140 0.52232814
-0.10353944 -0.00467178 0.36136764
-0.08715280 -0.08157346 0.18718646
0.26214767 0.09014118 0.19327073
-0.15051697 0.08328370 -0.02001875
0.00302939 0.02487336 0.58376664
0.03862605 0.49712288 -0.38407063
-0.26547909 0.33143508 -0.74934995
-0.02838833 0.22889511 0.56343096
0.10580072 0.26698801 -0.13727126
0.22460523 0.09796216 -0.20692123
0.23682845 -0.06289896 0.45886245
-0.00519863 -0.03294376 0.38051903
-0.02015730 -0.01441790 0.54973572
0.05563511 0.38710481 -0.23924647
-0.06879173 -0.42770091 -0.28091839
0.15246770 0.00664690 0.53239965
0.17208874 -0.09000809 0.41870776
0.04900561 -0.15130939 0.08076572
-0.08371915 -0.40083051 0.72165006
0.06801374 -0.14737499 -0.13895310
-0.11115453 -0.22623369 0.61016947
-0.01950725 0.28903398 0.46444839
-0.11794066 0.57149488 -0.72458953
0.19388780 -0.52913415 -0.09714081
0.03176203 0.52418333 -0.43451655
0.09163412 0.10672434 -0.42026943
-0.07242668 -0.10709376 0.06181518
0.17230955 -0.14580370 0.43555403
0.20100483 0.14281283 -0.13264240
-0.11899911 -0.05140069 0.44237053
-0.25205982 0.33052129 -0.69247943
-0.06671198 0.23723029 0.12796573
-0.24546321 0.53178424 -0.71234757
-0.11339403 -0.58606195 -0.30162090
-0.05871756 -0.27917501 0.62226611
-0.16237816 0.48561305 -0.75418085
-0.07744217 -0.53377277 -0.26346654
-0.16471082 0.05095395 0.49074996
0.28091520 0.14257504 0.34139284
0.03091911 0.17396660 0.58721018
-0.06254960 -0.26797405 -0.22565646
-0.11011615 -0.30616125 -0.26109177
-0.03041840 -0.05676729 -0.35289094
0.17004244 -0.38237563 -0.19298290
0.22310683 0.20539789 0.08006591
-0.08909751 0.28236848 0.40441322
0.10862690 0.32546663 -0.41996706
-0.23622738 0.55780292 -0.64211762
0.18925840 -0.19327672 0.53098708
-0.10735591 -0.50088143 -0.30581895
-0.07047500 -0.07641535 0.54568851
0.22899789 -0.03300995 0.29637566
0.00094133 0.29382780 0.24400076
-0.20612814 0.59903759 -0.62939841
-0.31273946 0.34835047 -0.65803045
0.20603639 -0.57298374 -0.15286550
0.06801173 0.35659844 -0.23799220
-0.05642436 0.28645405 0.39450723
0.10632180 0.04437352 0.54388541
0.22211111 0.04670903 -0.19336468
-0.02594894 -0.02282179 0.40372339
0.27521968 -0.00863659 0.36595762
-0.05773873 0.25524145 0.54197717
0.19317770 0.04110218 -0.36980298
-0.03961497 -0.04141777 0.50900555
-0.07790975 0.57081503 -0.64079714
-0.10974191 0.16875502 0.01431917
0.22185394 -0.59959680 -0.17814344
0.26067904 0.17180920 0.49902302
-0.09055585 -0.49030757 -0.33157718
0.09984861 -0.14376538 0.05549835
-0.15563577 -0.04968743 0.47799754
-0.14145291 0.22420911 0.32086444
-0.12524414 -0.29612109 0.65122801
-0.27239588 0.51845270 -0.69451827
0.22546050 0.05476790 -0.21315713
-0.08114644 -0.03451300 0.24427322
-0.08717395 -0.47315237 0.67403108
-0.05870458 0.43747973 -0.60957444
0.23020545 -0.00922464 -0.25121361
0.01573699 -0.13881502 0.09655099
-0.16481584 0.35208431 -0.55814826
0.21658230 -0.06378907 0.07593857
-0.05858347 -0.31860304 0.65250260
0.03181159 0.23842952 0.03453803
-0.06508458 -0.64100260 -0.37770572
-0.09056477 -0.05903399 0.48948985
0.20385560 -0.29119676 -0.17957960
-0.06830371 -0.08865275 0.52262843
-0.14782690 -0.01135072 0.38623053
-0.01550090 0.30330777 -0.14381316
-0.34101152 0.35904914 -0.77940512
-0.13912180 -0.01574291 -0.32345355
-0.22921056 0.54906255 -0.68137437
0.08404964 0.31228828 0.45692635
0.19895512 -0.56695175 -0.11004832
-0.14255238 -0.03328824 0.17314097
0.18341267 -0.46814647 0.58362383
-0.05126903 -0.01613391 0.61094177
0.09999114 0.31211966 -0.46435773
-0.07420534 -0.05707226 -0.16193213
0.20343304 -0.10123112 -0.29634631
-0.10189277 0.23437878 0.51985252
-0.07006282 0.21762808 -0.12600246
-0.11540589 -0.21098320 -0.26765633
0.16116971 -0.43122703 -0.15303092
-0.08468904 -0.03228891 -0.37039995
0.11411563 0.29343373 -0.37437341
0.11533557 0.31482941 -0.32338816
-0.14910758 0.03898105 -0.31841120
-0.05884364 -0.47835180 -0.28589243
0.02722634 -0.03463701 0.31872278
-0.19117799 0.47518393 -0.75248468
0.03222348 -0.14829372 -0.14705664
0.22531855 0.01816660 -0.30516198
-0.17494996 0.04102712 0.42349082
0.22139347 -0.01905722 0.18638454
0.13319850 0.23446824 -0.03422906
-0.01468221 -0.05206686 0.26767170
0.19631496 0.21191709 0.03482483
-0.13340077 -0.63616383 -0.33782390
-0.03817701 0.28799877 0.48001498
-0.01586081 0.26240751 0.13493721
0.15132020 0.24813533 -0.39580783
-0.06987077 0.42444912 -0.41800702
-0.16426015 0.03432778 0.38043568
0.17490660 0.24394098 -0.32339406
0.24592474 -0.09772050 0.37196779
-0.07646067 -0.60056025 0.65665174
-0.15300801 0.55295235 -0.52257246
-0.11268891 -0.54351991 0.71946687
-0.02996863 0.51843822 -0.38421941
-0.05119450 -0.09015504 0.59922028
0.13270910 0.27877000 -0.33011663
0.18165773 -0.09578422 0.11267108
0.23238957 0.01820651 -0.27363485
0.18178213 -0.15676953 0.46836743
-0.01210972 -0.15874800 -0.02005813
