-0.43184674 -0.33571479 0.60917175
0.10714128 -0.02716863 0.81619436
-0.10137425 -0.74607569 -0.22584455
-0.20691398 0.32159576 0.77440673
-0.09006219 0.19340117 0.82627875
0.22860473 -0.31518421 -0.76339918
-0.76126075 -0.20522632 0.28233701
0.68776029 -0.17826086 -0.50793916
0.48233593 0.34194002 -0.55568892
-0.05273052 0.31043801 -0.82630217
0.12629217 0.49697524 -0.75574565
-0.73454505 0.28708068 -0.20456129
0.72813046 0.09675242 -0.55096602
-0.50394982 0.53056788 -0.33482796
0.79633492 0.16116318 -0.18192759
-0.66064245 0.47258428 -0.01854722
0.10586967 -0.66487551 -0.46000552
-0.67596143 0.43246347 -0.25914192
0.41235915 0.37609187 0.60574353
-0.07361816 0.47022542 -0.81495047
0.72256464 0.35231897 -0.23465286
-0.04999606 -0.75952774 -0.21132191
-0.83422244 0.01370203 0.35191810
-0.83437490 -0.00774245 -0.18886667
0.36010596 0.46144778 -0.55926746
0.08574983 -0.72583401 -0.29904985
0.52732462 -0.42309254 -0.43289554
0.25707558 -0.27877456 0.76279676
-0.72622806 0.30485889 0.31705546
0.17836089 0.83273256 0.07963621
-0.39852253 -0.54794604 -0.40620691
0.75389022 0.09004083 -0.53990954
-0.16176705 -0.80871135 0.10853293
-0.16890863 0.76063323 -0.24024813
-0.54440600 -0.62794369 -0.18821691
-0.01277826 -0.68475229 -0.39716077
0.78636032 -0.18971904 -0.22165494
0.45508605 -0.61075819 0.32312793
0.02596822 -0.71049130 -0.34569585
0.85559249 -0.02536273 0.33970436
-0.55859810 0.74653751 -0.04025956
0.78246355 -0.19541021 -0.04876047
0.59870082 0.57765704 0.22296873
0.38698700 0.26291308 0.70871150
0.76754874 0.22686510 -0.38028058
0.09626118 -0.78448969 0.15445897
-0.43483528 -0.41133410 0.53302020
-0.24056000 0.65443909 0.48841691
0.22108494 -0.69674850 0.40282893
-0.17917855 -0.14927235 -0.77247709
0.36805516 -0.59085339 -0.41802981
-0.31471732 -0.36680794 -0.67943424
0.03763747 -0.59896600 -0.64075685
0.10443055 0.55125678 -0.72007221
0.75492293 0.26998067 0.26572725
-0.20926882 -0.82318717 0.04811767
-0.49000180 0.72093511 -0.15646975
0.59495729 0.48530075 0.31281072
0.38713476 -0.04003789 -0.69713593
-0.61333418 0.24564324 0.53006476
0.43470916 -0.64251596 -0.30998313
-0.16934364 -0.55668992 0.64345545
0.64837664 -0.44275552 0.29692307
0.21293165 0.26145521 0.77477127
0.71436894 -0.00881172 0.58661681
-0.14988813 -0.58185464 0.63118476
-0.37848175 0.80216366 0.14473310
0.54567826 0.69273657 -0.14529784
-0.76217186 -0.20525497 -0.17695421
-0.81760776 0.04467402 0.51188564
-0.74672544 -0.16419908 -0.44499427
0.58372825 0.35808557 0.45940468
0.77983928 -0.19976404 -0.00667716
-0.30386391 -0.28611955 -0.73250335
-0.03518808 -0.52627349 -0.78993136
0.62400907 -0.60568058 -0.01436575
-0.38997075 -0.77163947 -0.18125783
-0.71317810 -0.33069310 -0.19467372
-0.53833359 0.47338098 0.37352997
-0.41644540 0.83285117 0.07529865
-0.56981701 0.24621312 -0.55128622
-0.14665355 -0.79215038 0.14992617
-0.66815728 0.18225119 0.52616519
-0.24369149 0.24599990 -0.74757791
-0.30707777 -0.71936220 0.34483922
0.34740576 0.85259724 0.01771689
-0.16211092 -0.43593431 0.77235031
0.20642586 -0.72428864 0.32665935
-0.16931422 0.12085468 0.78922832
0.13805240 -0.17998330 -0.79406238
-0.51346266 -0.63218164 0.22427472
-0.25777113 0.72171807 -0.35293749
0.52252328 0.66464257 0.21637325
-0.13797303 -0.05055071 -0.79089624
0.22149278 -0.53124434 -0.63377595
0.73724627 0.32102272 -0.10598542
-0.25322250 0.21687494 -0.74277240
0.83071220 0.07609849 -0.27298906
-0.27375135 -0.35462606 -0.71640652
-0.67846948 -0.41982347 0.04351924
-0.06592096 0.66551292 0.50932795
0.41566011 0.12728186 0.70044982
-0.73381835 0.29433316 0.05800232
0.21454391 -0.07383396 -0.76485133
-0.67945927 -0.41916010 0.02808550
0.21524504 0.21630904 -0.76370305
0.13107875 -0.48750100 0.76667464
0.35156083 -0.45151833 0.58830404
-0.82144153 -0.03081888 0.18385319
-0.19872458 -0.25474602 0.77544957
0.65596050 -0.54790241 0.08876533
-0.52380472 -0.59989995 0.24919708
-0.07787736 0.54548752 0.77101684
-0.10257092 -0.36597225 -0.79928344
-0.08694843 -0.34017181 -0.80990368
-0.39279035 -0.21561582 0.69969004
0.05643972 -0.07175177 -0.82398444
0.02525185 -0.79329324 -0.13440867
-0.51157600 0.19983873 0.65427154
0.66636157 -0.21423942 0.50622618
0.63927317 0.45627177 0.30350280
-0.79445189 0.10771426 0.45984113
0.20050684 0.66434473 -0.47921145
0.56348741 0.45049614 -0.37318602
-0.28533518 -0.41880351 -0.64279950
-0.23414834 -0.80434257 -0.10333638
-0.65730286 -0.10272691 -0.58569914
0.68631512 -0.43156970 0.26001456
0.76042205 0.25207728 0.01143650
-0.62532651 0.37459973 -0.35906941
-0.05849155 0.06842493 0.83256394
-0.59483367 0.59588498 -0.16283335
-0.35086882 -0.77937615 -0.17366138
-0.73547065 0.26730409 -0.06037333
-0.01320645 -0.73105264 -0.29171535
0.69594568 0.43663931 -0.01026660
-0.13135195 0.78148067 -0.18529806
-0.58071995 0.66989833 0.13016219
-0.16514744 0.54099196 -0.65172487
0.77745223 0.02486481 0.55471915
-0.38331851 0.01119709 -0.69306815
0.29020095 -0.09532573 -0.73528600
-0.67457396 -0.43136522 0.12278877
-0.55467248 0.53408933 0.29664192
0.74368244 0.32514355 -0.13169821
-0.58461243 -0.34588933 0.44035506
-0.83325553 0.01854229 -0.45717710
0.65422821 -0.26041591 -0.46555775
-0.47420016 0.49427429 0.40908089
-0.73827404 0.14675522 -0.47687855
-0.12502530 -0.76200819 0.21671633
-0.72787023 -0.00873186 0.57296360
-0.25877881 0.24505259 -0.73914397
0.25104457 0.68794632 0.42952436
-0.26689339 -0.11784867 0.74792439
0.02445640 0.49974558 0.83311731
0.25200456 -0.28748181 -0.75037980
-0.05159317 0.72943401 0.33309257
0.09162399 -0.57352805 -0.69569492
0.24592151 -0.26963606 0.76947236
-0.10103880 0.81889945 0.09814296
-0.71648258 -0.31734186 -0.12328546
0.34846672 -0.36586413 -0.65491855
-0.43253732 -0.38926366 -0.53770530
0.38260290 -0.64214498 0.35771137
0.30507416 -0.49134669 0.58826560
-0.33722651 0.41282633 -0.61750448
-0.06335785 -0.63284105 -0.55000538
-0.49332285 0.23886202 -0.62596828
-0.52200913 -0.24577044 -0.57834661
-0.63058507 0.56547022 -0.07955827
0.75524813 0.28047538 -0.27112150
0.57493728 0.22463411 0.59551316
-0.42165932 0.07358517 0.68478990
-0.49553537 -0.36373165 -0.50818926
0.07114510 -0.16343029 -0.82572299
0.01933113 0.67988896 0.48048151
-0.43672809 0.29505718 -0.62676632
-0.19633269 -0.73427135 -0.28624389
-0.03326623 0.77639109 0.21111529
0.61871481 -0.62314069 0.09076501
0.65670913 0.51561576 -0.02234219
0.21458319 -0.75352007 0.25280276
-0.58399612 0.37850887 0.41316566
0.38483378 -0.62598884 0.36532861
-0.79935235 -0.05908255 -0.50363976
0.66186965 0.39507955 -0.31992728
0.16464970 -0.44455639 -0.75636846
0.54972583 -0.46620274 0.36969686
0.60912508 -0.27483812 0.50531346
-0.75173783 -0.23922741 0.20691390
-0.03803651 0.67320883 -0.47770101
0.26073545 0.41210666 -0.71186906
-0.15527044 0.54633296 0.68978512
-0.83056509 -0.02856134 -0.36366317
0.80381495 -0.13493107 -0.10728157
-0.63555855 0.13160957 -0.59392780
0.81644028 0.12345088 0.29131979
-0.26405504 0.80009061 0.15602417
-0.13744783 -0.18604283 0.79803711
-0.63861930 -0.47559428 0.25863186
0.45097393 -0.50471574 -0.41884983
0.45208496 0.57496983 0.36451298
-0.82446510 -0.04357111 0.40786520
-0.07084510 0.26094753 -0.81303513
0.01030234 -0.70443714 -0.35109186
-0.14666001 -0.78627616 0.16330683
-0.03642073 -0.49760982 0.83303195
-0.29056531 0.52805424 0.55105788
0.56193966 -0.48340595 0.33843088
0.70315093 0.41416487 -0.13629155
0.58107632 0.64899200 -0.15268460
-0.06218291 0.54724264 -0.74758554
-0.32051679 -0.04538631 0.72914135
0.73379582 -0.33190194 0.13289298
-0.57835740 0.69949740 0.01904739
-0.07341652 0.62345475 -0.58329058
0.65591782 -0.53858727 -0.08910026
-0.64480788 -0.37181363 -0.32786059
-0.39857680 -0.28359836 -0.68323308
0.00888712 -0.58607185 0.68259317
0.24191688 -0.72910780 -0.29106489
-0.29295659 0.49836981 -0.57895958
0.19533272 -0.07113693 -0.77356416
0.82905936 -0.06784890 -0.09886291
0.70573127 0.40590453 -0.15726294
-0.00193408 -0.47490364 0.85225093
0.56120622 -0.34726250 0.47043821
0.49015689 0.83598804 0.05255888
-0.53300571 0.58563423 0.26262486
0.76423740 0.25598004 -0.07426718
0.19661884 -0.60029739 0.58201259
0.08010203 0.36666375 0.82544422
0.59493697 -0.32316405 0.46127963
-0.77618766 -0.17253047 0.28365657
0.10646006 -0.67674041 0.46620867
0.13649611 -0.21016608 -0.79171306
-0.12287550 -0.83681816 -0.02460980
0.64551955 -0.40081900 -0.32652494
-0.15946962 0.42788288 0.78305167
0.71409392 -0.09784579 -0.55709708
0.79760802 0.16731746 0.29396126
0.13638625 -0.63817281 0.55701119
0.73707652 0.31093487 -0.30817342
0.25384921 0.53778875 -0.58655530
0.11811261 0.61853957 0.63850194
0.03832413 0.69299400 -0.42733863
0.44692802 0.34895933 0.60146284
0.62822562 -0.58947742 -0.14983460
0.62725312 -0.34643948 -0.41551524
0.56995547 -0.66419423 0.15917553
0.69948614 -0.43054706 0.03006656
0.36339694 0.71395725 -0.30844489
-0.23691316 -0.20464541 0.76230592
0.38983575 0.30295944 -0.68461859
0.80709308 -0.14676793 -0.29002184
0.58780867 -0.27095038 -0.53513187
0.79360121 0.17529298 -0.34323815
0.08316602 -0.83050275 0.06122516
0.30485258 0.69639081 0.38459197
-0.10970613 0.67218173 0.49050868
-0.51052350 -0.06525143 -0.64530629
0.21919304 -0.79446578 0.14636870
-0.56601202 -0.45767897 0.33457357
0.48718873 -0.57990026 -0.29712701
0.35391614 0.37709257 0.65862101
0.02252509 0.24225873 -0.83423537
-0.83586162 0.00794910 0.36460209
0.62300193 -0.29886520 -0.43684736
0.38729712 0.81773543 0.12291592
-0.37472597 -0.79195029 -0.12351937
0.39536893 0.07435481 0.70254040
0.80936986 0.14353713 0.36465067
0.17736715 0.64621919 0.55487394
0.42001855 -0.35778189 0.60927492
0.30758423 -0.70401663 0.36983901
-0.64174366 0.39423588 0.34534904
-0.56533760 -0.39320880 0.41116840
-0.14338289 0.80560565 -0.11528513
0.16851632 0.22701086 0.79561400
-0.08839201 0.10384342 0.82002085
-0.51097888 0.66892588 0.20675583
0.36857155 -0.36922872 0.65618968
0.13251314 -0.46866778 0.78099275
0.10359214 -0.61777234 0.61366302
0.81536645 -0.07446150 -0.49250025
0.12573618 -0.20989799 -0.79610008
0.67665964 0.21839304 0.50179887
0.16672511 0.00281042 0.79401571
0.34812769 0.33782393 0.70899391
0.25040582 0.62248218 -0.51526845
0.80748850 0.14965461 0.15703934
0.56966215 -0.52706879 0.29776496
-0.35865378 0.56540251 -0.45188805
0.16788618 0.68476558 0.45385671
-0.69281042 0.16172625 -0.51529717
0.78299356 0.19941998 -0.21579854
-0.34470627 0.50545770 -0.51240057
-0.09953610 0.58864528 0.68923080
0.47940937 0.39809820 -0.50149179
0.45950153 -0.44310325 -0.47839829
-0.64870775 -0.47092614 0.24440916
0.82481438 -0.09229419 0.15627562
0.38617098 -0.47804353 -0.52223027
0.10174656 0.54023498 0.75612462
0.55591440 -0.43035257 -0.39637879
0.05704434 0.26533636 0.84239674
-0.14479323 -0.31688350 -0.79021668
0.55513459 -0.31147143 -0.49655914
-0.79752332 0.10247307 -0.15388882
0.27631095 -0.76115769 -0.21738026
-0.53087991 -0.37150565 -0.45696205
-0.29376721 0.36878833 0.71014464
0.24379101 0.65448880 -0.48537943
0.40223745 0.56494671 -0.41916421
-0.42464215 0.45665535 0.51080823
-0.25985315 0.37564716 -0.72669542
-0.25961459 0.72722822 -0.33227330
-0.81184804 0.09000088 0.05039172
0.80951965 -0.11873346 -0.34956694
-0.21217141 -0.50932503 -0.62575638
0.55974853 -0.70938778 -0.09509257
-0.23028548 -0.55469024 0.58178210
0.76397002 0.24839959 0.25086811
-0.82062429 -0.05369996 -0.30110952
-0.49419415 0.44263050 -0.43183848
0.54356915 0.49076673 0.35587960
0.32301447 0.52587694 -0.53914475
0.53794056 -0.25482365 -0.58162755
0.60001898 0.38968861 0.41470429
-0.54048163 0.68234324 0.16262655
0.79813623 0.17053443 -0.13423689
0.18245921 0.54126012 0.67759061
0.16599154 0.03401708 0.79484695
-0.82773089 -0.03519617 -0.12420019
-0.38778111 -0.61241800 -0.35803077
-0.80057102 0.11856116 0.43710041
-0.58421105 -0.67852199 -0.05643942
-0.66086084 -0.16112211 0.54988450
0.47057474 -0.66045868 0.25654089
-0.71745247 0.30030495 -0.06919786
0.77785593 -0.19406761 -0.20914581
-0.05785626 0.70036137 -0.40977958
-0.62981999 0.23004133 -0.50086200
0.69138563 -0.40780929 -0.25255018
0.10909234 -0.72502947 -0.30597839
0.74861550 -0.29980332 0.15491176
0.70575798 -0.41127062 -0.18505460
0.48863000 0.25914100 -0.62695891
0.05329286 -0.80217177 -0.10473598
-0.78047615 0.16307355 -0.21329036
-0.71777391 0.05055333 -0.56621027
0.22027718 0.80298597 0.14238663
-0.16561642 0.39077008 0.79393202
-0.05745580 -0.65639532 -0.46696427
0.81614059 0.11751187 -0.23177329
-0.34532458 0.79576308 0.17723207
0.74936163 0.30745396 0.12890349
-0.13023765 -0.52621794 -0.69609779
0.81224942 0.12846090 0.13532653
-0.15012968 -0.11557543 -0.78095931
-0.09406251 0.75447410 0.27845511
-0.62878579 -0.52909291 0.21333151
-0.28659570 -0.80045909 -0.09901386
-0.74354428 0.27513027 -0.17917964
-0.03131356 -0.06639783 -0.83366978
-0.27726248 0.23282787 0.75207990
-0.02516238 0.12961724 0.84454787
0.10914085 0.40472922 0.81830889
-0.31481040 -0.74609250 -0.23979074
-0.46077016 -0.25074720 -0.64808726
0.77242905 -0.23198268 0.27693725
0.16289879 0.80965787 0.13070822
0.17480575 0.76970959 0.24726920
-0.82244128 -0.04564469 0.09530023
-0.03119886 0.29017931 0.84662384
0.40724781 -0.07675472 0.70368731
0.23891814 -0.38625827 0.75442195
0.67170227 0.47320154 0.24831519
-0.65215492 -0.35657328 -0.35683447
-0.75469321 0.22815260 0.33837664
-0.20327993 -0.77857214 0.17648287
0.57854789 -0.73306239 0.01023545
0.12156430 0.45294219 0.80695134
0.62844884 -0.49737090 0.25900477
0.10315718 0.58284086 -0.68305099
-0.82219064 -0.05765027 0.22537288
0.45162004 -0.19808143 0.68375921
0.04228802 -0.68145674 -0.40309224
0.27012685 -0.16634789 -0.74284315
-0.23939899 -0.73659712 0.29122767
-0.29636213 -0.01909786 -0.72556448
0.81158495 -0.12155016 0.39407995
0.17481893 -0.62339032 0.58779603
0.12947106 -0.19065033 -0.79760647
0.01584991 -0.75135922 0.25158364
0.31465390 -0.54688066 0.51874655
0.78752625 0.07124677 0.53567189
-0.24311212 0.68481380 -0.41852751
-0.03942882 -0.54355478 -0.76297349
0.62319911 -0.08694740 -0.61062491
0.33558565 -0.55843347 -0.48598230
0.52927953 -0.79560167 -0.05220785
-0.44438970 -0.64672232 0.28101528
-0.37466651 0.12497152 -0.69921583
-0.72352701 0.29820248 0.08943699
-0.68176109 -0.41157076 0.04938655
0.15006606 -0.74474937 0.28166977
-0.44255534 -0.51193184 -0.40954918
-0.82869786 -0.03812836 0.30461442
-0.06339935 -0.67133731 -0.44409359
-0.10075504 -0.29896656 0.81770581
0.31671154 0.79247731 0.17331973
-0.74083781 -0.19743337 0.43242738
-0.41811603 -0.10088091 -0.68005091
-0.67228836 0.44217223 0.08145909
-0.61796033 0.58144933 0.05308245
-0.62362528 -0.57134718 0.01729732
-0.80527323 0.09167572 0.16331606
-0.58053440 0.67209488 0.05434940
0.20610933 -0.25593609 -0.76649517
0.73004949 0.34898210 0.16006784
0.76827127 -0.11895682 0.49365175
-0.13564894 0.70758009 0.38518396
-0.05639531 0.65889001 -0.49839073
-0.37774801 -0.01544297 -0.69272190
-0.24783960 -0.53425771 -0.57309115
0.22919786 0.51647425 -0.62771255
-0.59308833 -0.08694723 0.62636393
-0.43785807 0.59907371 0.34997493
-0.80097157 0.10826737 -0.11581849
0.77179796 0.23652896 -0.02786808
0.79239517 0.03787108 0.55087149
0.11936244 -0.72152591 0.33199832
-0.69369102 -0.32093811 -0.33214599
0.38099414 0.73946935 0.27597061
-0.52276438 0.80141485 -0.04546261
-0.38621920 0.50639206 -0.48112836
-0.74691373 -0.23537683 0.34029758
-0.15256479 -0.73357093 -0.28874695
0.85190374 -0.01880326 -0.47239184
0.62020856 0.52080017 -0.23821089
-0.75933081 -0.21561097 0.04824392
0.55919969 0.68143660 0.15800460
-0.30880362 0.63030672 -0.42109481
-0.76504648 -0.20116711 0.18001263
-0.67941314 -0.41947067 -0.00078575
-0.15506504 -0.77970731 0.15605177
0.49562031 -0.77244568 -0.10722940
-0.29755259 -0.59131032 -0.45192865
-0.59618598 0.63448083 -0.02354492
-0.36884880 0.34596029 0.65365237
0.78641945 -0.18396010 0.03684947
-0.67418391 0.00634101 -0.58431584
0.84501654 -0.00369879 -0.50224870
0.23683184 0.23112741 -0.75175434
-0.62521607 0.22441533 -0.51264793
-0.20490761 0.85486686 -0.00961297
-0.07011793 0.46222663 0.82530278
0.31584898 -0.23378068 0.74276996
-0.57041430 0.56853426 -0.21836102
-0.68946248 -0.39702001 -0.05929861
-0.77762431 0.09042677 -0.49658555
-0.51734436 0.84218132 0.01132486
0.63047457 0.38447267 -0.37956312
0.06982183 -0.81984186 -0.03419038
0.48329926 -0.64571822 0.24840170
0.37443224 0.27972272 0.71370918
-0.28546497 -0.32638073 -0.72975028
0.14834404 -0.63208091 -0.54048502
-0.19345191 -0.05275180 0.77741957
0.43403971 0.71839327 0.25091979
-0.51507336 0.24100740 0.62036431
-0.66003478 0.46854854 -0.20529264
-0.03433246 -0.75030845 -0.22949980
0.53384358 0.05592988 -0.64316666
-0.47078282 0.46013480 -0.44408706
0.02432917 0.81537813 -0.09193818
0.38195577 -0.70628029 0.29005525
0.44999382 0.57491624 -0.35677946
0.84766364 0.02579925 -0.19287968
-0.27189204 0.06232959 -0.74380696
0.77748495 0.21004236 -0.30217373
0.69498217 -0.15896264 -0.51559842
0.04267156 -0.10273282 -0.83129632
-0.49645782 0.65318364 -0.21731947
0.28779608 -0.66101271 -0.42414775
0.73881066 0.32675308 -0.18110296
-0.73443222 -0.28275523 -0.10587762
0.84279627 0.03928952 -0.06401856
0.17110364 -0.71638882 0.35086477
-0.20976913 0.54896080 0.63104427
0.43740490 0.83214456 0.07921014
-0.59413189 0.17817159 0.60996258
0.38754910 0.66555041 0.34010154
-0.08995579 0.82514596 0.08687939
-0.63552910 0.51671821 0.22051513
0.81828845 -0.10863407 0.08927447
0.03008163 0.09283421 0.84511727
0.10496022 -0.80928111 0.09799743
0.25604847 -0.40405428 0.73168522
-0.74009722 -0.08113174 0.54903352
0.65955472 0.18508825 -0.53754508
-0.03769734 0.83561438 0.05049118
-0.78525376 0.14696091 -0.40677091
-0.09354202 0.36636183 0.81321096
0.66842771 0.49866891 -0.20631200
0.06110499 -0.29535848 -0.82036829
-0.54452354 0.42540845 -0.39812317
0.19276291 -0.46772367 0.72873521
0.22256607 0.38483647 -0.75990576
0.80781811 -0.13374913 0.20277624
0.14874718 -0.28349158 -0.79376614
0.22364077 -0.39171293 -0.76762599
-0.22364420 0.60929227 0.54096055
-0.49530941 -0.49328232 0.38297400
-0.52073348 -0.12491971 -0.64785779
0.72255725 -0.07818282 0.57857543
-0.15267737 0.72515285 0.34887174
0.11353979 0.47677630 -0.78884584
0.00858610 -0.44751167 -0.84027886
0.13690381 0.83007425 -0.06085568
-0.05013175 -0.56445342 0.73949569
0.80901998 0.14409293 -0.29066557
0.16709484 -0.27382272 0.79308224
-0.76568049 -0.18983188 -0.14522831
-0.33867496 0.67108458 -0.36338738
-0.34836629 -0.81271416 -0.09471237
0.00267163 0.00298789 0.85343462
-0.27268413 -0.80387551 0.12618415
-0.36918005 0.38610020 -0.60696340
0.55530459 -0.04718957 0.64709175
-0.69945234 0.34240207 0.33212307
0.65765291 -0.08542725 -0.59737277
0.71014398 -0.39046374 -0.05385184
0.55989015 -0.15249664 0.64431053
0.08879541 0.69153917 -0.42584896
-0.64600492 0.52145189 0.07823227
-0.35743973 0.59819114 -0.41807145
0.31353146 -0.39989901 0.67254734
0.28632995 -0.64404047 -0.43810940
-0.11008283 0.70250201 0.41400215
0.37215909 0.26061475 -0.71139491
0.39475998 0.49464124 0.50627369
-0.51428968 -0.37709513 -0.46519360
0.52781731 0.67987162 -0.17710650
-0.64311391 -0.53657311 -0.10271959
0.15432911 0.14081125 0.80180717
-0.41683748 0.84524018 -0.02826356
-0.58585900 -0.18575612 0.60569727
-0.01120780 -0.16717261 -0.83311617
0.38340166 -0.10928925 -0.70618206
0.75965559 -0.25419796 0.29725254
-0.61759019 0.46824378 -0.27672479
0.82832724 -0.07323526 -0.45779172
0.48543870 0.36029103 -0.53627741
-0.45947820 -0.80587441 -0.07938533
0.24556251 -0.25474775 -0.75033879
0.20976372 -0.83536470 0.00132119
0.10766108 -0.14911079 -0.80879784
-0.20348577 -0.76803893 0.23254082
-0.71914941 0.00992865 -0.55795890
0.24429578 -0.50819021 0.63626951
0.58735961 0.14429951 -0.62050503
-0.23303254 -0.14473012 -0.75096506
0.46259186 0.69702160 0.23745869
-0.75416243 -0.22783343 -0.20659876
0.67532516 0.47876477 -0.02532699
-0.12557615 -0.05885817 0.80501699
0.53643644 -0.36224863 0.48593095
-0.57351649 0.68889230 0.10576009
-0.40342307 -0.28097871 0.68579996
0.32850513 -0.17200263 0.73009861
-0.59285259 -0.26496944 0.51393956
0.25068152 -0.52566153 0.61552167
0.42206046 0.62725502 0.34548038
0.07028534 -0.82973140 -0.00920940
-0.42732567 0.40385175 -0.54121846
0.09132648 -0.26578116 0.82286769
0.59917617 0.65098292 -0.13146028
0.73754030 -0.06404544 -0.56702018
0.50059891 -0.46317354 -0.41887885
-0.40756300 0.77056593 0.21254346
-0.25514346 0.69418186 0.42302802
-0.72087586 0.32118383 0.23251386
-0.02803517 0.73294485 -0.32135725
-0.39557013 -0.55986905 -0.39522791
0.73812801 0.14116116 -0.50141162
0.09466814 0.68652946 0.46526629
-0.57444149 0.39640653 0.40384677
-0.18369234 0.76112890 0.25910014
0.23938107 -0.09208583 0.76614124
-0.36457628 -0.78177702 -0.15766943
0.23890719 -0.73636615 0.30019209
0.06235534 0.59056598 0.68304336
0.45792073 -0.82286322 -0.05310547
-0.63651764 -0.54076385 0.02361584
0.17045911 0.71922952 0.37715423
0.37322688 -0.57422066 -0.42610139
-0.49180567 -0.34202570 0.54025191
0.05309821 0.11589891 -0.82730192
0.33577082 -0.24919757 0.73628086
-0.27290595 0.43404275 0.67369634
0.17155266 0.69768918 0.43095565
-0.72090495 0.29475296 -0.26162621
-0.48288831 -0.52227473 -0.35005525
0.28814286 -0.00214383 -0.73651099
0.70647275 0.05055702 0.58890033
0.84595752 0.03002902 -0.15734108
-0.36051172 0.75347453 0.26939139
0.00856852 -0.55344957 0.78026855
0.62132227 -0.61197376 -0.00350562
0.67695624 -0.46888939 0.16117904
0.07326984 -0.71968776 -0.31242865
0.67598683 -0.47838694 -0.19296597
-0.53090256 -0.17954646 0.64962935
-0.20503819 0.68161601 -0.45033896
0.14384322 -0.06703766 -0.78964525
0.09724161 0.64566392 0.56871790
0.10163090 -0.57746243 0.69960970
0.24133833 0.59418416 -0.54756182
-0.71951872 -0.31466496 0.01789689
-0.46734282 -0.64220184 0.25273314
0.09638999 0.50367141 -0.77697444
-0.02926512 -0.35187480 -0.83135748
0.75775874 0.26064742 0.33934608
-0.76161057 0.20125797 0.29173812
-0.38986304 0.44034362 0.55693167
0.79922229 0.14138897 0.43543783
0.85129058 -0.00751156 -0.03205510
-0.06690172 0.20883082 0.82875037
-0.80604213 -0.09398075 -0.23101446
-0.51157683 0.74981886 -0.10712352
-0.81015688 0.10524515 0.32800639
0.56549233 0.38602135 -0.42613882
0.82917076 -0.06476342 -0.32650340
-0.52575564 -0.80445272 -0.00316136
-0.47310713 0.46386123 0.45758247
-0.82019955 -0.05962447 0.29317242
-0.36884844 0.21234387 -0.69802827
-0.42606640 0.60022169 -0.34158286
0.45510006 0.78740537 -0.13801807
-0.43515730 -0.30140463 -0.62352830
0.04292110 -0.64347756 0.53635007
0.02227746 -0.61532533 0.61301118
-0.20521271 0.80399531 -0.13659035
0.19362931 0.84412116 0.05566551
-0.13259666 -0.77369726 -0.16140321
-0.77120376 -0.08274957 0.52395761
0.36841023 -0.28952077 0.71469957
-0.31425658 0.82784075 -0.07711026
0.68416661 -0.46642533 0.13675326
-0.60373402 0.55899954 0.22073567
0.61065370 -0.62504554 0.13579437
-0.37504649 -0.30238980 0.69255000
-0.11358081 -0.72305912 0.31971878
0.38290739 0.64661711 -0.35100731
-0.47310805 0.83340418 0.06695720
-0.64192533 -0.53152335 -0.07091113
-0.33964300 0.74406123 -0.25579074
-0.71189827 -0.34742963 -0.27550331
-0.26224113 -0.24831694 -0.74330235
0.66686404 -0.20350067 -0.50054967
-0.26520377 -0.45193139 -0.63800907
0.32667363 -0.22864629 0.73127013
0.29336280 0.85058141 0.03732771
0.27173436 0.78857267 0.18351744
-0.16473590 -0.49393174 0.71813619
0.51960933 -0.82249445 -0.03063790
0.83940417 0.06869171 0.04031063
0.29570875 0.44557795 -0.64104259
0.60608667 0.36199230 0.41809037
0.79346865 -0.16978686 -0.15097517
0.01366215 -0.57375598 0.71843189
-0.68203831 0.17355929 -0.51146543
0.17454447 0.84985399 0.00695729
0.66509259 0.49896091 -0.09938488
-0.08043224 0.84632540 -0.03022838
-0.49093521 0.35131708 0.54663700
0.04178933 -0.23769224 -0.83149499
0.15359411 -0.62854856 0.56743234
-0.01842590 0.57209843 -0.75708181
-0.46072647 -0.08016764 -0.66559958
-0.70182800 -0.37383166 -0.25273815
0.21461189 0.50156379 0.67477566
0.39548627 0.71671182 -0.26793775
0.77977675 -0.18336321 0.26564267
0.17605625 -0.82886547 0.04888136
0.77829796 -0.21013448 0.23294647
0.31366035 -0.69382644 0.37433228
-0.02401820 -0.12175995 0.85349584
0.85388881 0.00628131 0.15568471
0.76838315 0.04015513 0.55850375
0.61721128 -0.35608193 0.41580224
0.83709651 0.03845947 0.50209242
-0.24438110 0.17399085 0.76054698
-0.39831048 0.17809132 0.69334024
0.43219662 -0.12283992 0.69219995
0.47795156 0.53707296 -0.36452997
-0.49111333 -0.32396132 0.55658984
0.28460279 0.45524260 -0.64887577
-0.72627264 0.27914762 -0.36946878
0.56463528 0.69758028 0.13447002
-0.06027251 -0.12392327 0.83319765
-0.40635112 0.61722732 0.35531804
0.62531912 -0.10027244 0.61718953
0.05281706 0.63100410 -0.59432542
-0.42796493 -0.63171571 0.31614095
0.27988487 0.27605492 -0.73867965
-0.79268354 -0.12282613 0.30966726
-0.38288373 0.60049772 -0.39053878
-0.83978879 0.01632558 -0.39422631
0.58764559 -0.27809259 -0.51942372
0.23868471 -0.31978804 -0.76172340
-0.65685385 0.48850173 -0.12474196
0.46159807 -0.31172433 0.61617267
-0.55999696 -0.50766832 -0.28307199
-0.57100743 -0.63677245 -0.16338699
0.64839047 -0.11679194 -0.59299129
-0.78560197 -0.12119937 0.45665479
-0.51805919 0.46938926 0.39435625
-0.03613840 -0.40297955 0.83540469
0.24371581 0.70606065 0.39171606
-0.82628989 0.05627576 -0.06994876
-0.69591475 0.26302874 0.42734021
0.53884906 -0.42708200 0.41495878
-0.35825568 0.70942932 -0.29516172
0.33711088 0.18246211 -0.71843040
-0.10646334 0.40874049 -0.80339628
-0.12048152 0.72684181 0.35466501
-0.10213789 0.53245860 -0.72353995
-0.13104329 0.35004562 0.81002581
0.15289925 0.77071774 -0.22875848
-0.35997054 0.04876365 0.71733183
0.24228369 0.63851660 0.51314455
-0.74488688 -0.25010902 -0.29727146
0.42105380 -0.44738966 0.52282083
-0.38129717 -0.80511373 0.11442162
-0.50950551 -0.67773592 -0.17069873
-0.56078809 0.45116988 -0.35091877
-0.47815356 -0.00898075 -0.66135734
0.28812510 -0.48303726 0.61730909
0.42394862 -0.75525147 0.20488389
0.44669342 0.44282618 0.50519001
-0.74743134 -0.25328872 0.22291860
-0.34861135 -0.53672260 0.48703024
-0.15102337 0.29900703 0.79776984
-0.40310377 -0.74834669 0.22104838
0.17678957 -0.67713600 0.45540908
0.38829476 0.34393784 0.67236191
0.00720594 0.46495482 0.84721762
0.72337407 -0.34004691 -0.20141913
0.15306161 0.28434697 -0.78821617
-0.47205874 0.25428030 -0.63050807
0.16284578 -0.57644886 -0.64123487
0.65294421 0.53563875 -0.01732560
-0.02041892 0.77365714 0.22855604
0.24089776 0.45185527 -0.68550915
0.16966484 -0.18688606 0.79710871
-0.45908064 -0.48009104 0.43394205
-0.16347219 0.49134344 0.73118192
0.45171717 -0.31134397 -0.61036199
-0.15889259 -0.84802884 0.00772953
0.07434383 0.71415490 -0.36691794
0.21653885 -0.46036771 -0.69499564
0.38901228 0.47263408 0.53658122
0.03676659 -0.29659703 0.84038579
-0.15173997 0.65557075 0.53410703
-0.77610576 -0.17719328 -0.35306063
-0.59149039 0.12188277 -0.61606652
0.43045020 0.28022978 -0.66663331
0.29710120 0.84508240 0.02769793
0.76820892 -0.24034932 -0.20880263
0.24755237 0.77329069 -0.21572137
-0.28509879 0.61003035 0.48527145
0.10401750 0.82694745 -0.06418005
0.29041243 0.52582788 -0.55802345
-0.24199764 -0.56846499 0.55915439
0.84607762 0.02807897 0.27933279
-0.21362111 -0.68012571 0.43015108
0.49420971 -0.34291947 -0.53412598
0.57196003 -0.72263163 0.09063477
0.18507801 0.63091016 -0.55970585
-0.36596656 0.68018973 -0.31877348
-0.34989178 0.84391880 -0.02628588
0.11177126 -0.53670794 0.73102653
-0.17081338 -0.41526017 0.78024387
0.30561525 -0.28143662 -0.72993332
0.46954903 0.48541671 -0.43051532
-0.56352514 0.16639823 -0.62340325
0.77088958 -0.21184993 0.20809789
0.21977757 -0.79799926 -0.12565841
0.58202213 -0.69542694 -0.06825197
-0.27471364 -0.84685725 0.00299711
0.49705398 -0.36801594 0.52165520
-0.60115677 -0.40050855 0.37085229
0.54993677 0.40848979 -0.42027050
0.65215623 0.54062980 -0.18113029
-0.64769298 -0.33842438 -0.36343181
-0.56821400 -0.20151038 0.59895647
0.27254441 -0.77664876 -0.17362976
-0.21728176 0.55244267 0.61627811
0.45374683 0.37535986 -0.56047875
-0.39596987 0.73606265 0.25481838
-0.34127760 0.68426389 0.35438398
0.55897778 -0.75770444 0.06763821
0.74525642 0.19325341 -0.45562989
-0.34584358 0.00468601 0.72500002
-0.39666566 -0.02852873 -0.69131911
0.55601639 0.71214759 -0.10844344
-0.61067480 0.59257424 0.06334546
0.79708052 -0.17440417 0.18497133
-0.32331106 -0.73254955 -0.28507149
-0.09914447 -0.50421280 -0.75860578
-0.48489439 -0.40122935 0.48650521
0.37050799 0.64209199 0.39667332
0.25093293 0.55133879 0.59642911
-0.44349617 0.65715218 -0.27239180
0.63584632 0.14498600 -0.58815187
0.85047996 0.00562827 -0.18224894
0.04308745 0.70145631 -0.38755319
0.35653365 0.31533426 0.71843612
-0.80051446 0.10763187 -0.19105624
0.08690678 0.20891602 0.82857078
-0.76910853 -0.19046319 0.12696618
0.08800770 0.67249829 0.52088040
0.73345011 0.15168382 0.51599669
-0.47079894 0.81012559 0.10730591
-0.74618709 -0.25101608 -0.04000302
-0.56984311 -0.55124015 -0.23401560
-0.78735900 -0.13238643 0.44388297
-0.37668860 -0.33784768 -0.64384615
-0.63474375 0.53232813 0.14337213
-0.74982649 0.22841977 -0.06371694
0.63968241 0.31199181 0.44730681
-0.70730203 0.34986767 0.15171984
0.23948579 0.52357489 0.62880045
-0.29937518 -0.31805038 0.73798037
0.29932788 0.13599834 0.73470294
0.25274765 0.09471378 0.76214457
-0.28344575 -0.06088424 0.73973233
-0.71332169 0.16847526 0.49445674
0.55605584 0.31014439 0.53166837
0.26948214 0.52732235 0.59381157
-0.39952871 -0.37485474 -0.59173232
-0.75042379 0.23926677 0.34826088
0.21217941 -0.78166991 -0.13674091
0.71999902 -0.36071369 0.06076008
0.80412495 0.15372452 -0.12938964
-0.11962757 0.85646349 0.01760338
-0.46532765 0.64505726 -0.26811630
0.72630459 -0.19581029 0.45799103
-0.40556395 0.55256730 0.41194701
-0.05390288 -0.76519924 -0.19835721
-0.46376750 -0.37854880 0.53017795
-0.00593364 -0.59552950 -0.62628317
0.13238358 0.67891008 0.48306516
-0.30555642 0.49826327 -0.56160659
0.53969842 0.78385401 0.07050668
-0.29567435 -0.52653784 0.55332929
0.05791914 0.33656067 0.83774722
0.20282879 -0.51727140 0.67059475
-0.02318445 0.82201320 0.10433810
-0.14837794 -0.17429090 -0.78490907
0.44225195 0.78407913 -0.15068838
-0.50741398 -0.34875140 0.51163620
-0.66200209 -0.45603180 -0.07903965
0.37183413 -0.78287107 0.15934737
0.17836958 -0.58964133 -0.59971130
0.06103713 0.76589590 0.24008569
0.67658234 -0.08109637 0.60426664
-0.60211784 0.48222631 -0.27850986
0.59908807 0.44715089 0.34344283
-0.58474821 0.60354227 -0.16435179
0.54892427 -0.33160886 0.50363851
0.13418393 -0.74785864 0.26250964
0.15304561 0.49888793 0.73668462
0.06226220 -0.59103465 -0.66531944
0.24179880 0.65044540 0.49545938
0.21631613 -0.63495791 0.53640217
0.04664803 -0.80563557 -0.08934386
0.43066353 -0.74337924 0.20703843
0.57433319 0.25716442 -0.55019414
0.82179582 0.10238626 0.19408351
-0.40241796 -0.01524017 0.70406437
0.56718349 -0.32332566 0.48672429
-0.79968601 0.11432005 0.03762398
0.68670678 0.44545063 0.03921193
0.07090968 -0.64420623 0.52630007
0.26952028 0.76076204 0.26381338
-0.48938739 -0.24138081 0.63961744
0.85363418 -0.01087294 0.02893965
0.74683750 0.29014987 0.04531628
-0.81298918 0.05743949 -0.19181576
-0.60412687 -0.15670162 -0.59660167
0.85107791 -0.02454356 -0.34625682
0.67452478 0.31369874 -0.39629936
0.85097247 -0.00138615 0.08998979
0.45438805 0.28508216 -0.63900650
-0.83742207 0.01247313 -0.02703905
0.61205584 -0.23531282 0.53917867
-0.70936388 0.33781186 -0.26681277
0.22008047 0.45431206 0.71427906
0.62775058 0.46188980 0.30826142
0.81797272 0.11499286 -0.42159370
0.81258965 0.12263677 0.03795685
-0.36532602 -0.20254201 -0.69964814
-0.37810916 -0.08563100 0.70942605
0.31580660 -0.74657154 -0.26697809
0.21551108 0.75808781 -0.24848828
0.26928160 0.40673307 -0.70361412
0.28801543 0.74179012 0.30785221
0.35561183 0.42065263 -0.60486090
0.26648372 0.38396421 -0.72946203
-0.21253496 0.42153299 0.74590015
-0.52454668 0.43035987 -0.42263949
-0.54922456 0.70290786 0.10912751
-0.44230813 -0.35912672 -0.55851787
0.72700983 -0.34800074 0.10318600
0.65546238 0.48512766 -0.23656937
-0.01530908 0.69097841 0.44656292
0.05543704 0.53576976 0.79734480
0.62382686 -0.07711769 -0.60453004
0.30012852 -0.43347165 -0.64277935
-0.74974293 -0.15426987 -0.45013773
-0.40339756 0.15607838 0.70277232
0.57506847 0.58402580 -0.22099818
-0.77398980 0.02791433 0.55347055
0.04761504 0.71279967 0.37440616
0.22541673 0.42262113 0.74240690
0.78534073 -0.18012488 0.29658535
-0.74761885 -0.24485864 0.18796586
-0.72269392 -0.31398451 0.15842897
-0.17037687 0.40029126 0.78073579
0.08198446 -0.79681057 0.13324896
-0.40071130 0.84622931 -0.02573148
-0.77092695 0.20713641 -0.19946474
0.80712801 0.15234272 -0.07475566
-0.26452908 -0.61101204 -0.47903058
-0.65714061 -0.48122704 0.07859689
0.68563086 -0.12082731 0.57959050
-0.58336824 -0.68108034 0.08955895
0.65279055 0.02328665 0.60550910
-0.61671889 0.59662086 -0.13226868
0.01333012 0.52015305 0.84797066
-0.12332642 0.82331103 -0.09259960
0.72075772 -0.16232225 0.49430099
0.15472943 0.85274059 -0.00815877
0.75141674 -0.27322266 0.12939505
-0.12580188 -0.66571003 -0.46407372
-0.46982902 -0.24924856 0.64464271
-0.16983536 -0.67514592 -0.44151208
-0.24900112 -0.16841778 -0.74343741
-0.80207795 0.08931188 -0.34414679
0.46988896 -0.09083994 -0.66680741
-0.28639513 -0.49886394 0.58956379
0.04334653 0.43084773 0.84092975
0.17884938 0.63754719 0.57077205
-0.62550473 0.59478098 -0.05393973
-0.02860099 -0.69440502 0.41320282
-0.14530560 0.27136552 -0.78774095
-0.17087741 -0.13296278 -0.77664149
0.42873946 0.49122727 -0.46328515
0.34366137 -0.19479150 0.72129959
0.18229216 -0.47314215 -0.71539950
-0.07278125 -0.55232632 -0.72517943
0.06848862 0.71833152 -0.35306352
0.27421784 -0.81988508 -0.08731537
-0.24486737 0.63016832 -0.50286794
-0.56655610 -0.71438140 -0.07424982
-0.40324846 0.73093063 0.26419616
-0.16773914 0.44387817 -0.76274180
-0.06219485 -0.23340696 0.82837951
0.18763570 -0.03786127 0.78527701
0.35188189 0.83091182 -0.05562287
0.75212049 -0.29246181 -0.28886366
-0.12104402 -0.79618090 0.14322297
-0.44055966 0.37857288 -0.54363567
-0.10640413 -0.35861999 0.81287837
-0.57169759 0.06558811 -0.61769980
-0.23994875 -0.69147372 0.40848657
-0.47950920 -0.54645622 -0.33149377
0.23996173 0.83363479 -0.05032534
-0.22328931 0.13470945 0.77302051
-0.17146428 0.13611445 0.78893173
0.45284000 0.71919101 0.22628950
0.47096667 -0.78144896 -0.12664865
-0.59971815 0.23118362 -0.54213256
0.05852937 0.76088887 -0.22489925
0.69426078 -0.24107321 -0.43950233
-0.13489352 -0.77062923 0.20319444
-0.47099012 0.28473017 0.62742895
0.59072876 0.56241465 0.24634317
0.65925914 0.52678132 0.02615666
-0.42817229 0.47240335 0.49662101
0.60922563 0.52087682 0.27097961
-0.23102248 -0.61818618 -0.50412655
-0.02490877 0.80524492 -0.13661809
-0.24040580 -0.83760452 0.01923036
0.25979054 0.73035938 0.34853715
-0.45009917 0.36490315 0.56652576
-0.31404984 -0.61423218 -0.41769245
0.48138392 0.30819210 0.59155351
0.49866930 -0.50916404 0.37123880
-0.46220759 -0.50392586 -0.39789939
0.45751950 0.38621587 0.55818683
-0.33152577 0.29628143 0.72908479
0.51311219 -0.00669603 0.66380161
0.15417570 0.43751487 0.79378945
0.05531400 0.56759959 0.74653101
-0.10453242 0.19735783 -0.79523343
0.08943491 0.71767038 0.37822711
0.42367718 -0.69485271 -0.25841361
0.78992891 -0.18701039 0.12467104
-0.74373704 -0.24390866 -0.32869858
-0.11298448 0.65700424 0.51825482
-0.34561631 0.80252606 0.15751150
0.26965928 0.00639443 -0.74493355
-0.57926399 0.54273164 0.26719624
0.57075310 0.28115249 0.53535628
0.76349008 0.24673663 0.35982558
-0.63325214 -0.34670183 0.39702049
-0.81380087 -0.05120824 -0.21686108
-0.46806189 -0.59099418 0.30866802
0.76020479 -0.26049718 0.16339807
-0.47619018 0.79857945 -0.10076592
0.45170167 -0.15140682 -0.67660093
-0.17855455 -0.80511361 -0.12321746
-0.78397310 -0.11235976 -0.46548468
-0.28835416 -0.59525055 -0.47689816
-0.51937354 0.40567520 -0.44441125
0.21895829 0.11074324 -0.76365685
0.84262007 -0.04295082 0.22192600
0.47343245 -0.06069077 -0.66217065
-0.75801903 0.11829586 0.49023372
-0.52993852 -0.36857745 0.47376966
-0.47093797 0.68860662 -0.22350363
0.36093023 -0.61879426 0.39953205
-0.09166368 -0.82322186 0.05393841
0.08788284 -0.35053959 0.82274681
-0.81421572 0.07380620 0.47811195
0.40726262 -0.76030487 0.20143403
0.22955373 0.50052178 0.65984166
-0.75481498 -0.21181980 0.19259524
-0.63354957 -0.53768122 0.11016414
0.61078596 -0.20646265 0.56905013
0.60924488 -0.61965269 0.15312514
0.19633074 -0.26391813 0.79028189
0.49082878 0.45708886 -0.43042675
-0.58386761 0.22935288 0.57050902
0.58826983 0.01237117 0.63404751
-0.17789488 -0.54479617 0.64833456
-0.82250106 0.05316997 0.25977519
0.41648012 -0.48003137 0.49025851
-0.42959362 0.38609833 -0.56319892
0.45521644 -0.28914556 -0.63269210
0.04241471 0.46860683 0.83059347
0.38587028 0.41364527 0.59574246
-0.74563932 0.23722556 0.25914487
0.79017860 -0.16466001 -0.37757042
-0.27921578 -0.68348277 0.40213040
-0.46872431 -0.39088804 0.51214159
-0.22823200 0.82220769 0.09780691
0.47514966 -0.82830471 -0.03707475
-0.57213020 0.67990822 0.12466189
0.75248957 0.04912290 -0.56455922
0.74728501 -0.28829148 0.21606086
-0.15294448 0.11220981 0.79139155
-0.39323863 0.06059474 0.70780164
-0.36054814 -0.71217984 0.29028443
-0.43861043 0.18903920 -0.67362261
-0.31038031 0.53600067 0.53416705
0.13981864 -0.68403715 -0.42132682
-0.64741999 0.51605111 0.08991411
0.01564862 -0.69151986 0.40882483
-0.59973168 0.24890445 -0.52257079
-0.02435661 0.45381975 -0.83178169
0.33804679 -0.46299168 0.57543778
-0.81396532 0.07436714 0.41185176
0.69914788 0.40440154 -0.21462914
-0.67612404 0.11029615 0.59408867
0.83582145 -0.06587044 0.44911769
-0.75225294 0.23322082 -0.00111640
-0.06809363 0.84266269 0.03294082
-0.21406268 -0.58988148 -0.55514103
-0.80458403 0.10596590 0.25672293
-0.75863749 0.22390500 -0.24785283
-0.21968156 -0.60037321 0.55308896
-0.20214766 0.66641915 0.50197411
0.28598562 0.73623222 0.31668490
0.77618712 0.20132674 -0.39686021
-0.37922204 -0.66266721 0.32661313
-0.21685873 0.81251264 -0.11833559
0.12993777 0.30334526 -0.80361122
-0.31529316 -0.46637565 -0.57367009
-0.57906783 0.66194081 -0.06256113
-0.40064156 0.38892904 -0.57423210
-0.64161587 -0.51672840 -0.09318209
-0.81877947 0.04809684 -0.13385606
-0.69530761 -0.38567269 -0.18176357
-0.00524259 0.69317031 0.45488441
-0.15605989 0.17069824 -0.78285480
-0.26073477 -0.62256962 -0.47223699
0.81938517 0.12023675 -0.35137030
-0.08936342 0.31768602 0.82285142
-0.10412278 -0.48032486 0.78445989
0.03884970 0.75250077 -0.26979461
0.07431756 -0.75929999 -0.23447147
0.27368996 -0.69418079 -0.39138538
-0.30706763 -0.25614020 -0.72793937
-0.75386900 -0.15097034 0.46024498
-0.48351598 0.19853035 -0.65407610
0.08262063 -0.81377476 0.08222413
0.53226447 -0.10255428 0.64973861
-0.16666287 0.58338559 0.61538363
-0.75049609 0.23366870 -0.30479518
-0.36953118 0.59884155 -0.40278915
0.50462419 0.21722053 -0.65333468
0.50932002 -0.80058819 0.07655802
0.25669625 0.64488649 0.50017673
-0.30946842 0.55421543 0.52875030
0.36872956 0.71189362 0.31418571
-0.53138608 -0.32572603 0.51088798
0.82791370 0.08696449 0.18968473
0.15038174 0.18632096 -0.78533220
0.17248116 -0.63530630 -0.54024822
-0.68954235 -0.38823068 0.11744279
-0.79531217 0.09014140 0.49220273
-0.01014567 0.09706074 -0.83469260
0.46816230 0.45708939 -0.45576292
0.64848018 -0.20545022 -0.51352602
-0.56608939 0.10050279 -0.62267298
0.33103344 -0.43195549 0.63641351
-0.07710636 -0.30314344 0.82392955
0.14192072 0.68742776 -0.43699041
-0.46440828 -0.53497696 0.37418768
-0.71824843 -0.04622876 -0.56060660
0.43215799 0.78330594 -0.15691377
-0.62826306 0.39879519 0.36250520
0.08469570 0.59705722 0.68034029
-0.62765807 0.53901184 -0.16027604
0.52705175 -0.77730572 0.07491577
-0.81345558 0.07636128 0.00325095
0.08237811 0.44127637 -0.82140517
0.77047473 -0.10803199 -0.48927346
0.15748061 0.20794185 -0.78374666
0.54841381 0.75850618 0.07993431
-0.15052150 -0.56988376 -0.62906259
-0.08278630 -0.52591503 0.76288557
0.77022004 0.23427002 -0.34355405
-0.09504938 -0.45219857 0.81520152
0.29455623 -0.72720385 0.30471537
0.82594717 -0.07283355 -0.00510332
-0.64742845 -0.50189012 -0.10948493
0.31166893 -0.23093964 -0.72553587
0.18537150 -0.49002975 -0.69611609
0.70359880 0.26157603 0.42906177
0.45415619 -0.64376056 0.28867209
-0.77171803 -0.17689253 -0.39111158
-0.25189444 -0.01697682 0.75293428
0.23962723 0.83786029 0.05880108
-0.16232878 -0.75667220 -0.20780356
-0.15969084 0.69968694 -0.40335801
-0.00591832 -0.75315118 0.26444176
0.19388594 0.24912947 -0.77173114
0.85594034 0.00155342 -0.25079373
-0.26085967 0.39913785 -0.69507229
0.06487740 0.66920650 -0.47540304
-0.18152483 0.60981280 0.59041077
-0.31371036 -0.80362236 -0.08153843
-0.56141347 0.64737695 -0.14674608
-0.39221850 0.81913060 -0.07780661
-0.59546179 0.26158962 -0.50392437
-0.68615919 0.26240224 0.43916383
0.09918666 0.36027116 0.82008511
-0.35926011 -0.73041910 0.28043875
0.83172685 -0.08049476 0.16176988
-0.06142281 -0.71525335 -0.32304373
0.03403648 0.84855998 0.03603799
0.74040854 -0.29396731 0.23198554
-0.63722390 0.54186302 0.07182455
0.40008551 -0.50531322 -0.45766279
0.68030596 -0.47012508 -0.20823094
0.54359841 0.67152256 -0.16181900
-0.77065235 -0.18363319 -0.18300213
-0.73869020 0.25580600 0.20754270
-0.06431384 0.59870046 0.69035226
0.48715627 -0.09140351 -0.65875643
-0.30864674 0.80113697 0.14514808
-0.43270472 -0.76448172 -0.17586391
0.67857867 0.46760440 0.01569120
-0.26400650 -0.03361728 0.75118613
-0.34923634 0.53158385 0.49940130
0.00041313 -0.46151081 -0.83633786
-0.50957334 -0.18903865 -0.63740963
-0.00537274 0.63439023 0.59877288
-0.46069169 0.74469590 0.17855054
0.39525509 0.78522861 -0.17005867
-0.24214792 -0.45382693 -0.65795857
0.63679826 0.58037418 0.15626521
0.15123552 0.45812804 -0.76628190
0.79210705 -0.20153740 -0.09027168
0.49720055 -0.72598445 -0.14922605
0.79321820 0.17737761 -0.42164245
0.74729365 -0.29271406 -0.13045375
-0.37811872 -0.78225887 0.16369197
0.10826652 -0.22618797 0.82044095
-0.58772635 0.04768935 0.62722760
-0.38313711 0.35133067 -0.64394695
0.55532372 -0.31948557 0.51199150
0.47064036 0.79184675 -0.11979208
0.70107847 -0.21628606 0.46089095
0.09370045 -0.67244691 0.48141083
-0.78011853 -0.15079834 -0.08734855
-0.59593850 0.62065208 0.10766479
-0.68464255 0.30969501 0.38434622
0.07390765 -0.64876658 -0.50664991
-0.80057305 -0.11255497 0.13502282
0.47377530 -0.00581626 0.67498082
-0.32304302 0.65865588 -0.38797772
-0.06150825 -0.66728246 0.48541397
-0.50534528 0.71549410 -0.15294634
-0.35173047 -0.67849416 0.34313756
-0.12786338 -0.78468364 -0.16403361
0.68621552 -0.44863719 0.21259841
0.35623378 0.68912023 -0.34632373
-0.28697008 0.45483011 -0.61771655
0.06763389 0.55076247 -0.76041937
-0.71546084 -0.32610610 -0.28410149
0.67069530 -0.01235832 0.59771287
0.12387254 0.79882210 0.14454514
0.09293602 0.42275783 0.82245284
-0.82635325 -0.03455160 -0.48894677
0.34577480 0.65679950 0.38875854
0.38397360 -0.33220115 0.66782522
-0.07992399 -0.78724748 0.17944038
0.81990153 -0.10139530 -0.04394285
-0.26908726 -0.76022804 -0.22740975
0.48291111 -0.00172977 0.67020577
0.72404957 -0.12272871 0.53027534
-0.34363031 0.43536043 -0.58567512
-0.82507879 0.04759023 0.00457969
-0.82659304 0.01138281 0.17877260
0.75429064 -0.23834720 -0.36547795
-0.07137588 -0.70388472 -0.34597614
-0.41941249 -0.76631820 -0.15854324
-0.50015903 -0.71051234 0.17087580
-0.63019019 -0.25573763 -0.47237003
-0.46216291 -0.71793205 -0.18235113
0.78926677 -0.17736031 -0.05440371
-0.12986059 0.04255284 -0.79526198
0.20467682 -0.03121060 0.77991772
0.59654647 0.13049473 -0.61975449
-0.80433011 -0.10302699 -0.25670296
-0.40896660 -0.76790166 0.19541322
0.74954176 0.28253540 -0.17144173
0.52861434 -0.21706039 0.63866252
0.51705223 -0.77315503 -0.08829076
0.04169041 0.69292349 -0.41572577
0.69983035 0.42004436 0.20695454
-0.53779477 -0.59352380 0.24138084
0.82722259 -0.06961881 0.31901559
-0.16222921 0.26477766 -0.78223407
-0.23671602 -0.77284580 -0.17896532
0.22452056 -0.77765071 -0.15755244
-0.68659073 0.29629636 -0.38192526
-0.48844281 -0.29149491 -0.57273102
-0.75528723 0.06561200 0.56008416
-0.70891172 0.33684418 0.23328497
0.19801809 -0.81655759 -0.05543837
-0.69240177 0.39332494 0.10244666
-0.07037594 0.48909184 0.81967819
0.47956946 0.37132579 0.54846805
0.06540964 -0.69503391 -0.39744321
0.61913002 -0.15669160 0.61028481
-0.67889297 0.08145133 -0.58084303
-0.48372313 -0.70595080 -0.16957422
0.19263594 0.11148266 -0.77315599
0.74102664 0.31895727 0.21477926
-0.41294077 0.81712288 -0.10241909
0.84214020 0.05561214 -0.31553698
0.59772098 0.68846929 0.06918273
0.54702723 -0.02319959 0.65251434
0.73185694 0.29706094 -0.34460172
-0.77023733 -0.19504237 -0.01291314
0.27044839 0.08075207 0.75640810
0.33196822 -0.36722821 -0.66773736
0.76066685 -0.26542646 0.31400824
0.59184295 0.28891966 -0.49884862
0.53642768 -0.24562649 0.60839552
-0.77099448 0.16784686 -0.20055336
0.10997181 0.23634970 0.81925607
0.03772930 0.74696350 0.29368007
-0.13676545 -0.42756665 0.79683393
-0.05141538 -0.72673780 -0.30151871
0.17172021 -0.76941544 -0.19161323
0.18119115 -0.80229717 -0.09814792
0.18274139 0.40021580 -0.77362204
0.51811939 0.21446493 0.65453339
0.68665344 0.44892135 0.06925001
-0.59324098 -0.04159538 -0.61213332
-0.35720623 -0.66910022 0.34427544
-0.03321133 -0.27764234 -0.83233452
-0.19406807 -0.61458182 -0.55690932
0.23467672 -0.67901820 -0.43566132
-0.82557142 0.04789303 0.21191584
0.50716072 0.79191506 0.09859819
-0.58101165 -0.61702180 0.16926160
0.76345789 -0.07299631 -0.54112643
-0.81594187 0.07383780 -0.06661704
0.02463542 0.30819267 0.84567696
-0.79810464 -0.03920112 -0.52415687
-0.44371915 -0.24182318 0.67328000
-0.69582897 -0.38037589 -0.04755545
-0.60747123 0.13996452 -0.60669333
0.00508196 -0.80890566 0.10105451
0.79560024 -0.17084913 0.08098722
0.57884997 -0.29832423 -0.48244610
-0.68561727 -0.26623973 -0.41029799
0.35652071 -0.20150046 -0.71053737
-0.00962149 -0.20865791 0.85118049
0.01389129 0.54188764 -0.81423777
-0.43284211 -0.11968486 -0.67778766
0.50406414 0.18482469 -0.65661156
0.15487811 -0.25858390 0.79978925
-0.18809497 -0.21510167 0.78003687
0.60432094 0.67707092 0.04379865
-0.27393419 0.80457383 -0.12910686
-0.61988592 0.33850476 -0.40449664
-0.02786336 0.07483958 -0.83509988
-0.14888087 -0.53968459 0.68099695
0.02389314 0.65155059 -0.54745799
0.32437241 0.15438825 -0.72021794
0.50953650 -0.24156283 0.63749206
0.02267579 0.03350740 -0.83252978
-0.02584982 -0.55311388 -0.74641311
0.43276140 0.62890601 0.33098817
-0.72987270 0.30605906 -0.00235864
-0.43976706 -0.83805025 0.02699323
0.23322871 0.28276238 0.76626331
0.28907505 0.78720289 -0.18156435
0.49638250 -0.14980783 -0.65933299
-0.32210836 -0.60707462 0.44057763
-0.44407564 0.02085725 0.68728489
0.43165717 -0.50384629 -0.43182483
-0.36526865 -0.27250156 -0.69724107
-0.19205487 0.47683799 -0.69779104
0.52958983 -0.48403189 -0.35281211
-0.80914402 -0.09338707 0.09180193
-0.63339460 -0.24918020 0.48815757
-0.26688859 0.66307390 -0.43945661
-0.58480430 0.66556305 0.00806805
-0.08072138 0.12781549 -0.80441397
-0.60395509 -0.53763855 -0.21536726
0.04272976 -0.21492063 -0.83239788
-0.71315461 -0.33573914 0.31014326
-0.12442698 -0.76031911 -0.21782728
0.35519469 -0.65938282 -0.35700440
-0.01154018 0.56017923 0.79006690
0.45892689 0.41520441 0.53575236
0.15334269 -0.64035809 -0.50951719
0.71954298 0.24664859 -0.41555837
0.12470531 0.82136071 0.10354552
0.78031313 0.20326492 0.15033306
-0.33548728 -0.74975497 -0.23857237
0.53663659 -0.80232233 -0.03327531
0.22167322 -0.16049011 0.77956241
0.23170304 0.66764188 0.46718746
0.31792292 -0.57678825 -0.46681467
0.80688697 0.14881498 -0.08472466
-0.61549807 -0.23803467 -0.49559850
0.56597114 0.04436947 0.64405710
0.11785914 0.74321640 -0.29219228
-0.08024039 0.58186239 -0.69422853
-0.16224457 -0.42793337 -0.76535654
0.20433025 0.70448571 -0.40021628
0.80864990 0.13336328 0.01934155
0.17325507 -0.10164474 -0.77882308
0.00396471 0.76820713 -0.22466464
-0.68320912 -0.36948708 -0.30025944
-0.02399413 -0.04407766 -0.83292240
-0.31004620 0.61441797 0.46924391
-0.49231854 0.22204889 0.65205628
-0.59436482 -0.37697592 0.39754957
-0.01689963 -0.54436570 0.78761393
-0.52703613 0.04874599 0.65300363
0.75119227 0.02946256 -0.56470394
0.12323196 0.72006142 0.36423483
0.59010303 -0.10977045 -0.61728466
0.47852960 0.76251024 0.16517490
0.49022219 0.72634244 0.17945656
0.85128146 0.02081644 -0.46779633
