0.31930369 0.73566198 -0.09185646
-0.34990802 0.19771954 -0.07092097
0.21201581 -0.20108384 -0.02671406
0.47190303 0.41602927 0.20681192
-0.07105678 0.09125008 -0.27737430
0.49446532 0.78821510 -0.06992685
0.17530227 0.64712006 -0.20320427
0.33156091 0.03626968 0.36772335
0.19998819 0.73059410 -0.00066624
0.47415304 0.62721348 0.07719298
-0.00670878 -0.25455654 -0.10692230
-0.32521898 0.15475503 -0.00200808
-0.23489305 0.14630175 -0.26340330
0.10988321 -0.73015034 0.24154417
-0.18958162 0.10016231 0.31237414
-0.18069640 -0.34613448 0.13479471
0.19718280 0.07535556 -0.29727811
-0.46508807 0.61052501 -0.04851589
0.01985991 0.66310310 -0.20011950
0.09967638 -0.45661685 -0.17529991
-0.23255476 0.54791045 0.15348396
0.19708057 -0.05118588 -0.17216954
0.04164051 -0.01810625 -0.21837625
-0.19660345 -0.79434848 0.05226920
-0.37953559 -0.62588322 -0.21961370
-0.01240162 -0.06601866 0.33257148
-0.27397382 -0.77610093 0.06211150
-0.17515014 0.63590580 -0.03378316
-0.37822467 -0.67863554 -0.07687519
-0.45839322 0.37370732 -0.09531732
-0.26545221 0.14163199 0.22509602
0.26008379 -0.47517550 0.22752939
-0.44333032 -0.23750964 -0.39050934
-0.03012244 -0.28298002 -0.29474130
0.46021050 0.25783128 0.29890570
0.03842298 0.16846541 -0.35482034
0.01182556 0.34136495 0.46827674
-0.11795536 -0.38165668 -0.42336246
0.32603082 -0.33955714 0.18317914
-0.31161013 -0.08573738 -0.32134420
0.53462994 0.74834126 -0.05580439
-0.00569243 -0.78258604 -0.09096582
-0.03409813 -0.49078798 -0.40150398
0.24165416 -0.35028908 0.31454471
-0.22821754 -0.72630990 -0.31845328
0.03260036 0.09051017 -0.31316197
0.08892709 -0.63401669 -0.19998801
0.14092189 0.14922082 -0.34116495
-0.38716230 0.40948087 -0.18888775
-0.19979353 -0.65925926 -0.35642689
-0.21834436 0.08115461 -0.23951373
0.27454856 0.64145046 -0.17129810
0.40093717 0.09193574 -0.15869932
-0.35218224 0.04720867 -0.20826831
0.24227762 -0.65533811 0.03435440
0.03081766 0.33582765 0.46178079
0.14848426 -0.32443494 0.35133794
-0.36795658 -0.39952311 0.10804337
0.50559348 0.24611378 0.16841902
-0.00220373 -0.21364401 0.02770753
0.05035484 0.69977939 -0.10656270
0.09280450 -0.45252001 -0.20272440
0.15754850 0.29368821 0.49633896
-0.13567092 -0.20688044 -0.13509871
0.51390517 0.59714895 0.08957778
-0.43088686 -0.18365183 -0.25145614
-0.08668059 0.68013191 0.06662907
0.16056567 -0.63670290 0.17401007
-0.23243332 0.36976087 -0.25388372
0.34989837 0.70482409 -0.13004041
0.40352520 0.37648550 -0.22004652
0.43836012 0.54249239 0.12936231
0.07620935 -0.43265671 -0.29186264
-0.45457798 -0.32343790 -0.17677037
0.48809564 0.12739104 0.05887809
0.29527512 0.55203271 -0.22966158
-0.42517760 -0.47381395 0.05436140
-0.18857054 0.06386374 -0.19969088
0.46353552 0.23171368 -0.12305969
-0.10441439 -0.39277348 -0.42664617
0.25715959 -0.44471890 0.27416697
-0.02364953 -0.73906988 -0.27500305
-0.13297671 0.65905774 0.01083506
-0.47018716 -0.31094337 -0.29817918
0.00056621 0.54744494 -0.30120876
-0.00502173 0.08912486 -0.30450681
-0.09369165 0.30182806 -0.35147509
-0.07568045 -0.77366412 -0.08098574
0.29177496 0.01341343 0.39146596
-0.38163945 0.59492522 0.02881606
-0.16362481 -0.79341924 0.18678656
-0.12902731 0.36951616 0.39222068
0.23820689 -0.75155181 0.04671757
-0.40047997 -0.20505950 -0.41872910
0.19024947 0.48645282 0.42376682
-0.15965362 0.11646374 -0.26000029
0.02467570 0.62014425 -0.23985866
0.02795362 0.56822693 -0.29840788
-0.41792446 -0.09588711 -0.23528016
-0.37932399 0.24585903 -0.05383705
0.29250833 0.09123383 -0.27069363
0.28520235 0.14940965 0.47484091
-0.41842648 -0.52467316 -0.23341194
-0.12966636 -0.29882506 0.09847023
-0.06284517 0.68456477 -0.01331652
-0.38268220 0.24876051 -0.09764421
0.43487936 0.85776907 0.07603641
0.03501597 -0.34250021 0.32216534
-0.30647933 0.13909465 0.01154782
-0.25842559 -0.47942251 -0.41417238
0.10197038 -0.64841235 -0.17629576
0.45415851 0.06074932 0.15961748
-0.18714389 0.26139292 0.31832534
0.29007697 0.20314771 -0.30542013
-0.13679247 0.67408860 0.07561635
0.48576230 0.14605345 -0.00710794
0.40338916 0.52430552 0.25083864
0.15989721 0.00635500 0.45211500
-0.12762359 0.26399696 -0.32550907
-0.21345809 0.06166314 0.26582071
-0.39496326 0.35396257 -0.18148148
-0.35128963 -0.66252631 0.08092542
0.05932486 0.72748309 -0.00498405
-0.50318158 0.51287138 0.01241932
-0.41742322 -0.04180066 -0.25400785
-0.08261841 -0.71123886 -0.32676873
0.14635006 0.53244603 0.41148481
-0.46503040 -0.20755762 -0.34250829
-0.37490234 0.60163254 -0.10793594
-0.14659162 0.25428170 -0.32034528
0.23700088 0.75029570 0.00164318
0.47135773 0.45857361 0.18218480
0.24018390 0.34360197 -0.33917487
-0.32229236 0.59512484 -0.10432024
0.02426094 -0.03393701 0.40193188
-0.24269983 0.19277342 0.26097023
-0.37730056 -0.39056334 0.09497858
0.37415990 0.81674367 -0.01300896
-0.32475299 0.47528285 -0.20080411
0.45219418 0.29451168 -0.15991747
-0.14136781 -0.00656944 -0.10779090
-0.42208233 0.41844442 -0.16874868
-0.37878558 0.22890885 0.04194729
0.26712632 0.74570227 0.10871783
-0.27639025 -0.78859878 -0.12997873
-0.03090737 -0.23591906 0.05622435
0.16937746 -0.74041653 0.11971782
-0.22877213 0.03655377 -0.00808180
0.19972782 -0.02896648 0.40661073
0.00803643 0.42906034 -0.36309460
-0.31458861 -0.03237118 -0.20377561
-0.20556286 0.06484148 0.28574264
0.25057897 -0.60412258 0.01881999
-0.45496741 -0.38355246 -0.22421274
-0.08102531 0.13941556 -0.31316549
-0.38958961 -0.28321135 -0.03439072
-0.01433110 -0.53371233 0.27505833
-0.31534967 -0.19836649 -0.18403064
-0.19391303 -0.35884249 0.12730508
0.53556633 0.83122873 0.05240763
-0.12039661 -0.21484950 -0.12881131
0.04737137 -0.35157907 -0.24952248
0.44763863 0.12659720 -0.11314827
-0.01002621 -0.34290156 0.28826618
0.22853646 -0.44980806 -0.05641662
0.22703366 -0.09693323 0.27067223
0.19688232 -0.45338702 -0.08934860
-0.19959746 -0.28262913 -0.36620584
-0.44486269 -0.27940878 -0.21212533
-0.00162708 0.58327907 -0.28637910
-0.14833869 0.13571560 0.34749839
0.11575338 0.39123362 0.45922750
0.36639735 -0.04565534 0.13600430
0.00352262 -0.73118943 -0.28251985
-0.12779737 -0.03105943 0.28692797
-0.17084898 -0.78615183 -0.18139678
0.11235156 0.73325086 0.11882675
0.18322319 0.31589842 0.44314316
-0.02105135 -0.25815663 -0.16634640
0.43470287 0.08028530 0.24501672
0.55085576 0.80940241 0.04538906
0.43788087 0.34462681 -0.16849595
-0.31866831 -0.10727885 -0.30699766
0.15309083 0.25782868 0.52907139
-0.12165661 0.53949201 -0.25492710
0.11192878 0.60600042 0.37189776
0.14629637 0.69870561 0.23125166
-0.51024127 0.51940823 -0.02814395
-0.32538438 -0.53992629 0.15088852
-0.37292412 -0.64213991 -0.21934271
0.36102396 -0.02014497 -0.02105284
0.25157523 0.37800050 0.39417025
-0.32059723 0.33066219 0.11239003
0.02684841 -0.25389665 -0.04856392
0.15135525 -0.55666810 0.23697025
-0.11737682 -0.22790003 -0.03164016
0.30885178 -0.08522269 0.01768062
-0.05258130 -0.58512849 0.21782671
-0.39638212 -0.65324605 -0.14346866
-0.39188182 0.24544241 -0.06002609
-0.25796562 0.38616377 0.29165256
-0.36610466 -0.48306149 -0.34675238
0.41750196 0.14129934 -0.17974102
0.20633942 -0.37721547 0.33361569
-0.26668286 0.33425522 -0.24153778
0.23341009 -0.05917195 0.34125695
-0.22231717 0.06392729 0.24595211
0.18673044 -0.60415035 0.15921798
0.24979532 -0.69282597 -0.10922043
0.24121617 -0.79713047 -0.06875392
0.30858928 0.72181225 0.11481567
-0.45280662 -0.48668694 -0.04342708
0.09597113 0.30645573 0.52414572
0.51511431 0.30035481 0.02532827
-0.02002285 -0.24360013 -0.05840903
-0.27234295 -0.79044795 -0.08328976
-0.21742351 0.03758143 0.02795945
0.15919368 -0.00497540 -0.23313367
-0.28033981 -0.76618773 0.10218056
-0.14765206 -0.02399326 0.27122068
0.42373678 0.58954978 0.10490714
-0.42658231 -0.30330321 -0.37580568
0.18369241 0.10994558 -0.32753730
0.48686311 0.18963519 0.21383193
0.10559341 -0.04244012 -0.18472295
-0.09358807 0.66945279 0.15601599
-0.06540284 0.68498820 0.12228959
-0.31848919 -0.73406708 -0.22444966
-0.32095575 0.53214383 -0.17111671
0.34016538 -0.01722384 0.29050499
-0.32927749 -0.14754798 -0.33079451
-0.10035944 -0.61480844 0.18299393
0.36948565 0.33373347 -0.25626934
0.01391247 0.69562149 -0.09984055
-0.14182444 -0.23464909 0.00382624
0.01596635 0.68976170 -0.12135057
-0.18433362 -0.71129358 0.24400991
-0.01144607 -0.57678366 -0.37196907
-0.28422916 0.51206255 -0.18608716
0.22230898 -0.61481565 0.09702897
0.16989678 0.01888479 0.45492056
0.18248969 -0.07701883 -0.13770609
-0.00123940 -0.70654893 0.31655899
-0.36151314 -0.23165503 -0.13145195
-0.02131594 0.29784733 0.45735627
-0.38414797 0.34096703 -0.17832890
-0.27991283 0.09788579 -0.04597674
0.49113199 0.20868145 -0.05877983
0.39743939 0.11346962 0.34939837
-0.20011693 -0.41628107 -0.43436232
-0.13209474 0.63891608 -0.08257718
-0.08264892 -0.49016172 0.22207068
0.14766514 0.03937790 0.48624003
0.34233597 0.47617576 -0.24163359
-0.21368955 -0.28245124 -0.38027951
0.06234353 0.43349624 -0.36037791
-0.32632750 0.14144064 -0.27211985
0.24254310 -0.62091261 0.03503448
0.29354656 -0.78233206 -0.07763028
0.40693909 0.63738769 0.06953689
-0.10054979 -0.76402122 0.24943969
0.11222657 0.27805287 0.53999865
0.04097680 -0.73578966 0.31027284
0.16171239 -0.19964293 -0.04926853
0.32073268 0.36431995 0.36207810
0.31359294 0.32843173 -0.30381045
-0.08959120 0.68515229 0.11777950
-0.06456418 -0.75538146 0.07288575
0.44860888 0.68489295 -0.13779658
0.32107493 0.79510409 0.03829029
-0.32362604 0.44298086 0.03968196
0.00591981 -0.09069091 0.28942701
-0.43225884 0.34111899 -0.12583867
-0.34149742 0.25774521 -0.20701998
-0.14555083 -0.71853471 -0.33697221
-0.14694895 0.62632614 -0.07720861
0.35125712 -0.06489567 0.07898585
-0.04240919 0.45942810 -0.33437467
-0.27180707 0.53934854 0.09196559
0.29482189 0.66230041 0.19133714
0.10608276 -0.15099357 0.30219254
-0.29409429 0.55948937 0.05902515
-0.36573559 0.03242145 -0.25546470
-0.19289853 0.61796224 0.08032575
-0.11300941 0.59834886 0.30616918
0.03820010 -0.26979381 0.31605661
-0.08897397 0.08523713 -0.27797288
0.30895439 0.78068006 0.01438050
0.45228964 0.41716900 -0.13064471
-0.30967924 -0.58123511 0.15231732
0.03191785 -0.70164764 -0.27687657
-0.46117830 -0.35581172 -0.25812864
-0.10651144 0.49800706 0.39518493
0.30906883 -0.27399385 0.19401313
0.04523763 -0.79585910 -0.21926597
0.10752036 0.40208048 0.45278832
0.13539597 -0.03498417 -0.19795683
0.40310884 0.82106227 -0.05447103
-0.06817438 -0.07948803 -0.02640430
0.02516940 -0.40160665 0.33039141
-0.12542135 -0.03881896 -0.04929522
0.05264664 -0.78660393 -0.24560651
-0.05346245 -0.56675911 -0.40188432
0.20052212 0.64830041 -0.19355136
-0.30322757 0.54235333 0.05004047
-0.41284856 -0.54273909 -0.19632815
0.26671395 -0.35025492 -0.02130699
-0.06210882 0.28526360 0.41949147
-0.15328619 -0.04088014 0.13254590
0.50067109 0.20672408 0.17866136
-0.22939333 0.54508179 0.16625737
-0.08477060 -0.04333305 -0.09365928
-0.18237595 0.12099309 -0.24806640
-0.32320723 0.30916375 0.11708103
-0.42970335 0.30380881 -0.07638252
0.18327518 0.54053956 -0.29125419
-0.42743745 -0.05384714 -0.28636605
0.00750357 0.23855276 0.52308786
0.18647233 0.42615899 -0.34841806
0.51504743 0.67725962 0.06362167
0.37618175 0.29557955 0.35778990
-0.43184662 -0.38076639 -0.01579406
-0.19112223 0.30221483 -0.28863624
0.30626822 0.59378242 -0.18572758
-0.34775329 0.54732078 -0.16054027
0.06018892 -0.63488805 0.25518420
0.13839149 0.66366118 -0.18696357
-0.29618108 0.35681820 0.21741155
0.21395163 -0.50269824 0.24601667
0.22239466 -0.54371595 0.18213756
0.11692418 -0.60211700 0.23065811
0.28866857 0.01225729 -0.18906453
0.50901937 0.30973107 0.12919056
-0.08237670 -0.34650177 -0.39122224
-0.35370791 0.01679738 -0.31258813
0.18045081 -0.79096848 0.03708832
-0.43606961 0.47265154 0.01358630
0.10083839 -0.60836709 0.24312910
0.09682827 0.46615526 -0.35490343
0.03408378 0.67691958 -0.16173330
-0.37164465 0.46179950 -0.19493109
-0.15885773 0.61874825 0.16988468
0.05038268 -0.77647489 -0.26491779
0.02349191 -0.79245257 -0.11954597
-0.02107206 0.71786052 0.06762116
0.24580990 0.66626328 -0.16295239
0.16784230 0.08580852 -0.31225044
-0.28388265 -0.39576957 -0.40881929
-0.20144810 -0.70262879 0.23289299
0.06737143 -0.52012551 -0.31640509
-0.07920049 -0.65163332 0.21629332
-0.14608762 -0.02333129 -0.04741430
0.04054830 0.02948083 0.47272027
-0.02403850 -0.13771212 0.11753305
-0.16181533 -0.02941237 0.17652185
0.02264258 -0.21243201 0.01899327
0.07954229 0.73652774 0.14050156
0.10928064 -0.27633265 -0.09500861
-0.40402311 -0.63794875 -0.00890389
0.10460103 0.42269495 -0.37197688
-0.49277183 0.48942837 -0.08177829
-0.37341174 0.17409892 -0.23835677
-0.09835272 0.69135517 0.04162606
-0.02916962 0.67535937 0.23554105
-0.04844455 -0.39133304 0.25433782
-0.18198818 -0.21853031 -0.24318382
0.26743990 0.45332235 0.39341703
0.17745623 0.64259773 0.32817090
-0.02719772 0.36006123 0.44620600
0.37184748 -0.02786981 0.17764187
0.55260539 0.73764879 -0.03498429
-0.03181272 0.58956361 -0.26655275
-0.24528983 0.41093630 -0.24060491
-0.15599653 0.08812347 0.35582861
0.30395862 -0.24596316 0.08086866
-0.37453923 0.23722723 -0.15252572
-0.00462986 0.34142604 -0.37404701
0.00998275 0.71716529 0.11621570
0.35259366 0.14263803 -0.24756816
-0.09356891 -0.78889847 0.23444059
0.46105096 0.70454425 0.06340548
0.08135837 0.32929817 0.48616397
0.13909350 -0.34408757 -0.11460398
-0.36777374 -0.32963166 0.06356075
-0.31098706 -0.24170664 -0.36790764
-0.18492904 0.61280239 0.13437504
0.30227152 -0.01900949 0.31528085
0.28827828 0.51448095 0.37278026
0.04643242 0.07331465 -0.30617437
0.39301935 0.32351723 -0.24146190
-0.36266980 0.21219225 -0.12228425
0.01176028 -0.78927851 -0.25493312
-0.01586261 0.25244993 0.50586367
0.22291370 -0.63611710 -0.08228596
-0.07690345 0.17952815 -0.33824193
-0.08747105 0.42937285 -0.32717779
0.12454007 0.46203434 0.44132373
-0.15207064 -0.78762925 -0.13331781
0.23756208 -0.02252924 -0.19216792
0.08853975 -0.41710424 -0.20194781
0.28707936 0.21803102 0.45324403
0.44157666 0.52783746 -0.13695149
0.45176375 0.55908644 -0.14443813
-0.32611927 -0.31404898 0.08033396
0.09470405 0.01317857 0.47151816
0.18678495 -0.19327907 -0.02585420
-0.13525936 -0.70607001 -0.34183413
-0.11077575 -0.23619726 0.00337707
-0.01862396 0.31352141 0.44061431
0.31388676 0.52278268 -0.24309534
0.02724999 0.71122020 0.18804622
0.19010745 0.67337352 -0.16397189
0.50014234 0.79744339 0.07158217
0.23132244 0.13125905 -0.31484523
0.24213386 -0.28362441 0.31360257
-0.44779471 -0.52377760 -0.05538859
-0.45902243 0.63379306 -0.00185845
-0.05643987 0.69614601 0.10509235
0.00119890 -0.56772131 -0.36385036
0.42859018 0.60566688 -0.14451459
0.44279405 0.45778632 -0.14523749
-0.35259536 -0.58973980 -0.29920274
-0.40869790 -0.39396936 -0.35653546
-0.04459754 0.67624164 -0.10171199
-0.01451078 0.40489575 -0.36950332
0.04133120 -0.79339969 -0.24105871
0.41965351 0.73029339 0.07269123
0.27365631 0.61164379 0.31263494
0.47989598 0.87209612 0.05424164
-0.10598177 0.13631761 0.41972828
-0.03717409 0.13085726 -0.32227165
-0.21231954 0.61434424 -0.03738070
-0.03556856 0.16165002 -0.33615205
0.11969662 0.72695982 -0.05732142
-0.21995798 0.06415398 -0.22997957
-0.26040685 0.40704671 0.26510638
0.03004119 0.72878170 0.02349911
-0.10393366 -0.44527948 -0.42668343
-0.20127237 -0.19719557 -0.09924923
0.09113228 0.18001342 -0.37042817
0.19550921 0.36848867 0.42071781
-0.16232298 -0.01894575 0.01634616
-0.43037143 -0.51651913 -0.22132024
-0.00012379 0.70729768 0.03074766
0.22426325 0.19462050 -0.33860183
-0.18381974 -0.79107440 -0.22020447
-0.00336057 -0.56121874 0.26704159
0.29538175 -0.34826067 0.24990694
0.30851281 -0.34542641 0.22127421
0.28618795 -0.05129922 0.28270113
-0.22690591 -0.23991507 -0.31035450
0.25645402 -0.24225628 -0.00904103
0.38286757 -0.02206885 0.10053473
-0.24948353 0.27374500 -0.25299421
0.26993412 -0.01841667 0.36102024
-0.15901726 -0.01756807 -0.03567274
-0.24502608 0.03714762 -0.25072205
-0.00685841 -0.16651326 0.05531469
0.06844509 0.72751439 0.17811994
-0.30969214 0.00868198 -0.32088965
0.17093101 -0.78736043 -0.09448315
-0.28916693 0.25231084 0.21400788
0.41170296 0.85188401 0.00590414
-0.09898850 0.47191784 0.40054163
0.44395158 0.21079443 -0.15682475
-0.18783610 0.43169600 0.35077667
0.49174103 0.87647623 0.02170227
0.01362442 0.70333964 0.18756744
0.21365666 0.67510730 -0.15582396
0.02425060 -0.27064833 -0.13565141
-0.19893229 -0.69529289 -0.34406632
-0.01631518 -0.42095542 0.28619128
-0.29388401 0.29574662 -0.23522833
-0.13782845 0.62311149 0.23193537
-0.29781958 -0.21215037 -0.29374126
-0.14742705 0.04675427 -0.19319783
-0.20682229 -0.78497493 0.21232076
-0.30924660 0.58557355 0.04813722
0.15672998 0.73271483 0.08084647
0.01447359 -0.08053065 0.31746975
0.17822789 -0.51814866 0.25253278
0.02254975 -0.33036363 0.31639281
-0.44540492 -0.52115041 -0.10417964
0.07844479 0.69948328 0.25447595
-0.10576858 -0.25197905 0.01949777
-0.34642580 -0.48782235 -0.35808098
-0.40150347 -0.34462407 0.02478299
-0.16122784 0.60944766 0.22117202
0.15796146 -0.75310034 -0.16272976
0.51388681 0.35005412 0.09368707
0.26810789 0.47162116 0.39218384
-0.08395308 0.47350523 -0.31632918
0.05628961 -0.09228158 -0.09826700
-0.30264813 0.42138499 0.14048138
0.01004850 -0.50996822 0.29291981
0.03338959 0.20886329 0.53454602
-0.27725282 0.21834652 0.23847817
-0.04648547 -0.10706261 0.03920704
-0.36266255 0.19859530 0.04790679
-0.15384962 0.19370465 0.32642063
-0.11205350 -0.36336446 0.18035249
-0.40947774 -0.24338153 -0.19578260
-0.29778069 -0.19063933 -0.16559567
0.29712984 0.70430481 -0.11429039
-0.36604676 0.52861083 0.03260887
-0.13447927 -0.78024775 0.23710872
0.03658615 -0.76657403 0.31304273
0.37143934 0.08049789 0.36978766
0.39052060 0.83512658 0.02242367
-0.23223785 0.34656382 0.32473111
0.10481711 0.37466252 -0.37782982
-0.01647402 -0.33111203 0.27253336
-0.06234353 -0.79659969 0.11648636
-0.03427976 0.24738142 -0.36362141
0.07304215 0.02978803 -0.28141779
-0.09185470 -0.77938628 -0.01469447
0.18786332 0.29489601 0.45831385
-0.34237453 0.17680629 0.00673421
0.38886985 0.07993301 -0.17692256
0.05159170 -0.57782757 -0.32531852
-0.30507591 0.13859282 0.03938917
0.15862469 -0.01913706 0.42893258
-0.34537944 0.19385426 -0.09895495
0.10544332 -0.70045894 0.23908460
-0.44885728 -0.48977083 -0.12159529
-0.19757122 -0.19531028 -0.15189436
-0.31098315 -0.64861727 0.13181439
-0.32293937 -0.38141608 0.11135869
-0.02523719 -0.10316499 -0.01672602
-0.09703048 -0.05491826 -0.08875455
0.32645020 0.10822200 -0.24485421
0.28660962 -0.32159090 0.25857967
0.18444669 0.41567194 0.42507547
-0.10399075 0.67072529 0.09163506
0.46818033 0.83749938 -0.02735281
-0.23349127 -0.78726429 -0.22586983
0.01640221 -0.26508096 -0.09375466
-0.45434779 -0.47050756 -0.05791639
0.19085747 0.53786236 0.39593577
-0.45790449 0.39166990 -0.12034369
-0.09892144 -0.26657739 0.09927973
0.01970869 0.04596493 0.48483375
0.44725314 0.63405764 -0.14188085
-0.43199515 -0.09769650 -0.24677941
0.11377677 0.56765652 0.39429379
0.40814668 0.43013364 0.32034630
-0.32130983 0.04830498 -0.17133744
-0.04491173 0.33484155 0.42999968
0.04146292 -0.54263639 0.28318423
-0.21537954 -0.20200115 -0.13714127
0.33698273 -0.03735386 -0.07708563
-0.00196046 -0.05822338 0.37279129
-0.14104347 -0.77514541 -0.30032060
0.11764448 -0.79422957 -0.14511450
0.04866478 -0.54417813 -0.33043930
0.22095665 -0.06135004 -0.12116188
-0.17744544 -0.78462827 0.20159610
0.22138800 -0.52969939 -0.05444454
-0.17631653 -0.79031652 -0.19458632
0.00961517 0.07095709 -0.30329335
-0.35903409 0.19076627 -0.26177496
-0.09620902 -0.02537130 0.34410638
0.38489088 0.03164876 0.29106045
-0.07709356 -0.29034057 0.15905575
0.40501601 0.38616443 0.32968122
-0.25653017 0.45156017 -0.22908744
0.13167241 -0.79225445 -0.00180447
-0.19240879 0.02153885 -0.11995426
-0.31614295 -0.22360373 -0.06027453
0.27876237 -0.44744536 0.23566946
0.25250345 0.08446705 0.47346187
0.38590756 0.18857695 0.39276734
-0.31054035 -0.31757805 0.08893418
0.07086752 -0.00892833 0.43776229
-0.16698433 0.44251859 -0.27856782
-0.02026177 -0.08050893 -0.07495534
0.13414629 -0.68306684 -0.15042935
0.30709472 -0.05886162 0.23827511
0.34956303 -0.05166567 0.05848979
-0.04294143 -0.72406733 0.30865240
-0.08347528 0.64133298 -0.13243134
-0.03881408 -0.37332150 -0.39311618
-0.05154590 -0.69033444 0.27464414
-0.38159093 -0.55282694 0.10747806
0.51690507 0.79644483 -0.03719002
0.21449997 -0.67469120 -0.11755922
0.09419399 -0.78451902 -0.23687464
-0.08263186 -0.70643747 0.25748435
0.22818404 0.09165265 0.48489520
0.12917671 0.36734763 0.45692256
-0.19657531 -0.25523967 0.04145256
-0.37380666 -0.18663612 -0.23277801
-0.15592785 -0.78044051 0.05518229
-0.11373025 -0.73554689 0.24777657
-0.04298354 -0.25034797 -0.21052888
-0.05127420 -0.78973645 0.20812991
0.21127710 0.45477507 -0.32949877
-0.00726971 -0.49924535 -0.39255178
-0.46596792 0.43845069 0.02566531
0.21660906 0.31951198 0.41866651
0.42781505 0.51790392 -0.14442496
0.11933012 0.70669013 -0.12702078
-0.45994031 -0.27321029 -0.35772827
0.04603467 0.02523126 -0.26547042
-0.43346369 -0.14003558 -0.39082211
-0.05690034 -0.73424071 -0.28686967
0.50874752 0.25221723 0.08211137
0.31918657 0.73049653 0.11306322
-0.14173731 -0.71822506 0.26191407
0.01850548 -0.71302414 0.32002655
-0.14528693 0.34581739 -0.32744217
-0.34540215 0.63606709 -0.01935417
0.28743571 0.37125573 -0.32680586
0.11106160 -0.78937721 -0.16951448
-0.06024458 -0.79418617 0.23408736
-0.07846628 0.21634445 0.41667184
-0.27769116 0.44309846 0.21513298
0.06325202 -0.74193567 -0.27054855
-0.07080980 0.37018558 -0.35316652
-0.34050912 -0.22364768 -0.07163795
-0.38381547 -0.27538869 -0.02099553
0.00258962 0.71706235 0.08493455
0.36147463 0.27898908 -0.27168983
0.31146061 0.60814029 -0.18847896
-0.10987194 -0.45342955 0.20177829
-0.23967090 0.11045662 0.24957718
-0.44991672 -0.38541621 -0.26334324
-0.05266519 -0.77602679 -0.09460135
-0.28698346 -0.57623768 0.16552269
-0.44799027 -0.15825006 -0.37766632
-0.25411877 -0.00940864 -0.24010465
-0.40232953 0.52806497 0.01905223
0.46236461 0.85983676 0.07670060
0.43232700 0.67759615 0.05895684
-0.33111078 -0.12378851 -0.34593987
0.13236436 0.18756217 -0.36609414
-0.24303082 -0.19246532 -0.10619619
0.45243841 0.28738669 0.30674633
-0.26138192 -0.77590400 0.12036047
0.48757836 0.67859679 -0.11833237
-0.19380489 -0.78313810 0.22019693
-0.03981045 0.26000416 0.47096920
0.29356986 -0.02122757 -0.15430655
-0.23023701 -0.42287737 0.15239164
-0.17033990 0.37217936 0.35694170
-0.24594310 0.61200398 -0.01953653
0.15832694 -0.35497737 -0.10580413
-0.11697090 -0.31075314 0.12887502
0.20924966 -0.51101804 0.23621084
-0.25783578 -0.66816086 0.17986725
0.45995787 0.17854688 0.30225521
-0.25739130 0.06051552 -0.13349988
0.10727859 0.18105887 -0.36393008
0.00148475 0.12056391 0.51543522
0.15469706 -0.78522754 -0.04966093
0.30952194 -0.05526697 -0.06737994
0.57326555 0.65139139 -0.00497382
0.11074419 0.00171906 -0.26389804
0.00918854 0.20974812 0.52686429
0.22968444 -0.54207152 0.16221176
0.31410950 -0.33132312 0.05409556
0.00792463 0.71674448 0.18225570
-0.44785410 0.43455398 -0.12424327
0.19485331 0.20755672 0.52368927
0.04066134 0.52354431 -0.33529434
-0.32292464 -0.76078182 -0.01317563
-0.03118744 0.02673861 0.45943761
0.09992841 0.23940477 -0.38350648
-0.33877143 -0.41563115 0.12530574
-0.38288590 -0.29909521 0.01476670
0.06250232 -0.53283983 0.28771916
0.05163140 -0.63726282 -0.26567021
-0.21414267 -0.78845584 0.07124607
-0.23787138 0.55319297 -0.16437288
-0.32903203 0.01360847 -0.32434583
0.23495580 0.37343851 0.40001568
-0.10815988 0.66677648 0.05403394
-0.04037993 0.05036174 0.46822923
-0.19108126 0.58581573 -0.13623863
0.41734543 0.29385173 -0.21336129
0.20443799 -0.07396308 0.31566158
-0.25135124 0.47938016 0.23670861
-0.24965027 0.54646808 0.12182891
-0.20445783 0.13809681 0.29018030
0.04098253 0.37791270 -0.36672494
0.20284009 0.43352973 0.42635700
0.02836461 -0.77398664 0.03690887
-0.04083871 -0.24586478 -0.08153376
-0.11956449 0.03734119 -0.21704116
0.34830242 0.41002393 -0.26937184
-0.44752949 -0.48016667 -0.19192280
-0.02906513 0.11670910 0.50925678
-0.02773622 -0.57136977 -0.37430453
-0.01816766 -0.76778179 0.30982283
0.27514100 0.59369338 0.32654446
0.26217574 -0.66216785 -0.06539264
-0.18603204 -0.51994854 -0.42466024
0.43296427 0.39043304 -0.17513804
0.02378070 0.18785614 0.52641255
-0.32977986 0.32005319 0.08970509
-0.46446463 -0.30873764 -0.23353952
-0.36633083 -0.24377108 -0.08893569
0.47944441 0.08798388 0.10676634
0.06753993 -0.47719908 -0.31369278
-0.41397560 -0.37500361 0.03593000
-0.20622812 -0.47405601 -0.42439085
-0.00849007 -0.53640300 -0.38920698
-0.07059313 0.69272250 0.13546574
0.48333478 0.22839133 -0.07604678
-0.31195319 0.18375914 0.12846211
-0.17733124 -0.01575322 0.15118775
0.11785123 0.57901758 -0.27829990
-0.13696116 0.25207067 0.34544197
0.07995684 0.03846221 0.47525525
-0.29062444 0.11528887 0.06519555
-0.39741340 -0.19552293 -0.22841740
-0.23823702 0.05257004 -0.01516425
-0.07608191 -0.79560775 0.11890222
-0.30191469 0.39289242 0.16919583
0.06812169 -0.03233103 -0.21869382
-0.23656285 0.06041180 -0.13485667
0.13839085 -0.25548673 -0.07190497
-0.46176597 -0.21252041 -0.37597623
-0.34791565 -0.54360068 0.13723946
0.12461603 -0.55551708 0.25234526
-0.31855589 -0.01917434 -0.19144462
0.16173851 0.72808599 -0.05156549
0.02527715 -0.79711848 0.23089583
-0.22170775 -0.51554674 -0.41603097
-0.27193955 -0.78846872 -0.15868440
-0.23746645 -0.79456836 -0.09078504
-0.04627270 -0.11698835 0.06168598
0.16046420 -0.52276093 -0.11269782
0.11528240 0.39781874 -0.37041819
-0.32682788 -0.35943797 0.10212676
0.04306107 0.05532439 -0.29106069
-0.03677773 0.49957621 -0.33277956
0.11511133 0.30969882 0.51993060
0.02948657 0.38304293 0.46344766
-0.13305700 -0.67748547 0.23616263
-0.31807789 -0.20640919 -0.34214616
-0.12956662 -0.30274308 -0.37368757
0.19174798 -0.06159141 -0.15974571
-0.22214632 0.02491869 0.11516525
-0.00434462 -0.63327944 -0.33370444
0.27003706 -0.32224417 0.29093623
0.01773175 -0.73118079 0.31805205
-0.47741625 -0.25564760 -0.28814405
0.45030546 0.45485550 0.23913833
-0.30452147 -0.33893681 -0.42166141
0.42476574 0.15360481 0.35660794
0.22376846 -0.78605652 0.04391544
0.32282424 -0.04433373 -0.03463537
-0.06995974 -0.78626704 0.26530546
0.21078490 0.34546944 -0.35889617
-0.40548074 -0.43000343 -0.33017030
0.22368741 0.49383110 -0.30515188
-0.02895454 -0.34731069 0.26677793
0.29169965 0.56854433 0.34275711
0.00397401 0.31168926 -0.37497967
0.13539976 -0.70808274 0.18062219
-0.46234888 0.48111126 -0.12229006
-0.35746890 0.20649946 0.05775463
-0.13640375 0.21161596 0.35399026
-0.17755699 0.54712534 0.29009822
-0.31867853 0.14826135 -0.10221934
0.44317707 0.05325742 -0.00393359
-0.07389809 -0.23182362 -0.12787098
0.30720317 -0.05797589 -0.03558695
-0.20191270 0.20581293 0.31562704
-0.06706961 -0.31797755 -0.36059913
-0.04953863 -0.67980760 0.28853041
-0.03699024 0.10758582 -0.30887166
-0.06828129 -0.79119784 -0.25520462
-0.01005845 -0.25342181 -0.12041971
-0.16814990 0.59657425 0.19884787
-0.34221596 0.19179448 -0.13533743
0.33269665 0.45022893 -0.25898242
-0.37431085 0.16224147 -0.16140305
-0.33953008 -0.74395442 -0.09782246
-0.04744172 0.15515167 0.49525222
-0.13710871 -0.46997863 -0.42652202
0.01934552 0.70146346 -0.07759188
0.17587838 -0.62884736 0.15389070
-0.27832246 0.11732206 0.13680020
0.32380500 -0.07317866 0.14315358
0.49835187 0.36557561 -0.04254266
0.27562889 -0.06566787 -0.10144193
-0.23647654 -0.78413683 0.05213064
-0.12551159 -0.03307134 0.25530249
-0.02075000 0.69003707 0.21164083
-0.18545119 0.45733145 0.34449819
0.18362476 -0.78310198 -0.09766960
0.04807366 -0.28184977 -0.11341724
0.32306832 -0.31581357 0.17011279
-0.33694029 0.51036495 -0.19113496
0.17263506 -0.71880156 -0.15709335
0.30220202 -0.36077720 0.24272293
0.03700305 -0.79125816 0.08258305
0.44435582 0.44193605 0.26967794
-0.11184326 -0.22156718 -0.19568762
0.36437708 0.43709370 0.34333801
0.37830204 -0.02847756 0.11297698
-0.14550567 -0.38991016 -0.42206579
-0.47484669 0.36518541 -0.02330188
0.08538528 -0.56548256 0.25962168
0.55488718 0.62789404 -0.05702126
0.09387636 -0.59962195 -0.21670657
-0.15145135 -0.64090091 -0.37756422
-0.20623708 0.63037896 0.05906432
-0.18436988 -0.01146834 0.04685185
0.41462022 0.27534950 0.34295258
0.01426327 -0.76413155 0.02948891
0.08888581 0.57176000 0.40250257
0.53693533 0.60602963 0.07979251
0.01589440 -0.72385830 -0.27729544
-0.50491416 0.46622780 0.01291938
-0.44595999 -0.53505045 -0.03018391
0.54728544 0.53961581 -0.03217948
-0.08185653 -0.28258133 0.14197630
-0.37846023 -0.49737912 -0.32428446
-0.11437312 0.05369795 0.40288848
0.01106284 -0.26518434 0.28447646
0.03417680 0.06803347 0.49519375
0.41196835 0.79033130 0.08848116
0.03348324 -0.42178670 0.31494308
0.35997158 0.61291504 0.16351172
0.29124880 -0.06608404 -0.08492091
-0.10726419 -0.05509802 -0.02787534
-0.40893015 0.30625212 -0.12144919
-0.48030570 -0.20786554 -0.33416995
-0.01029855 -0.09262336 0.26536578
-0.10084808 -0.25917783 0.03283855
-0.06488005 -0.66588169 0.23261286
0.51642478 0.81281531 -0.04266255
-0.42759028 0.41280514 0.03464381
-0.24018198 -0.78032249 0.19766927
-0.07718781 -0.24103937 0.04448007
-0.09621482 0.57698321 0.33596420
-0.41129613 -0.30817971 -0.02869343
-0.12032278 0.09754747 0.40496692
-0.12090556 -0.34745386 0.17330994
-0.03648543 0.00584440 0.43313402
-0.38231373 0.30093458 0.07523305
0.10140587 -0.38465610 0.34793320
-0.21453606 0.04126167 0.23367399
0.16450903 -0.62125397 0.17810032
-0.08812997 -0.53154540 0.19738756
-0.16898546 -0.02104164 0.18897270
0.01750396 -0.08996645 0.30495456
-0.23792663 0.43294457 0.30380741
0.04501131 -0.11992806 0.28409851
0.14609545 -0.45702744 -0.13558449
-0.01999915 0.06976168 0.48552042
0.21540950 -0.08166539 -0.09720428
0.11397443 0.04151415 0.48737243
-0.23700026 -0.57216442 0.18280794
-0.03925681 0.07021078 0.47647852
-0.07085843 -0.73863071 -0.30538449
-0.30131358 -0.78109169 -0.15500490
0.02413804 0.11144580 0.52501237
0.16297260 0.16723612 0.53167540
0.05561150 -0.28039792 -0.13270433
-0.22394992 -0.25234848 -0.33482909
-0.17028680 -0.20029105 -0.17724760
0.15678929 -0.43643495 -0.13096960
0.26506305 0.52862370 0.38165310
-0.17044844 0.55433035 -0.21429631
-0.17808883 0.63456732 0.01573749
-0.07994095 -0.22630975 -0.11484583
-0.09438834 -0.32907245 0.17515320
-0.27365372 0.38452163 0.24513251
0.32418865 0.34974831 0.36206251
0.01750744 -0.29175112 0.29871911
0.16421628 0.42928880 -0.35426441
0.36857989 0.78723609 0.10207410
-0.19430715 0.23534523 -0.28402406
0.27560025 0.57089520 0.35961372
-0.21633244 0.61206609 0.02502370
-0.06654552 -0.47303772 -0.41613114
0.40088150 -0.00698364 0.11822984
0.30601311 0.30318844 0.38435376
0.20015505 0.70693010 -0.08968161
-0.07969971 -0.78400832 0.23958221
0.00550611 -0.68594992 -0.28583184
-0.31887397 0.39226803 0.06335833
0.49532187 0.18165655 0.16452169
-0.22623459 -0.25588086 0.04769261
0.15174443 -0.72910750 0.16048335
-0.39217457 0.23832232 -0.04490966
0.51545686 0.74346471 0.06223525
-0.10598823 -0.58291584 -0.41716531
-0.35078701 0.07751331 -0.20839760
0.21265203 0.21257341 -0.35294464
-0.36649412 0.26634812 -0.17474276
-0.45429301 -0.42033744 -0.19555652
-0.04022962 0.17693606 0.49637359
-0.02672916 0.33140329 -0.36512706
-0.08593571 -0.80185503 -0.17563766
-0.06181511 0.67271638 0.24148227
-0.35077289 0.38929710 -0.20991015
-0.43029898 -0.38809574 -0.31740624
0.52243936 0.57270026 -0.08440898
-0.33826116 -0.49152237 0.14793426
-0.08552583 -0.28284413 0.11482446
0.04217229 -0.02920898 -0.20293739
0.35409474 0.64080250 0.11483368
0.16340145 -0.13998340 -0.05094267
0.15856613 0.73400372 0.02476554
-0.20075838 -0.20166974 -0.23856351
0.04658803 -0.51417696 0.29989266
0.42180061 0.05137172 0.24841617
-0.12698360 -0.77696437 0.07068020
0.35560191 0.54986149 -0.19034874
-0.09266984 0.01914525 0.39821118
-0.27462786 0.09605144 -0.07549259
0.39729133 0.57040185 0.16342744
0.25320581 -0.78692156 -0.10739568
0.13438909 -0.46302187 -0.15523070
-0.36378005 -0.30477905 0.02992200
-0.45689818 0.38534179 -0.08943751
-0.25845978 0.52446163 -0.18765984
-0.03406597 -0.65369034 0.26406160
-0.28703266 -0.19110195 -0.18359111
0.08052993 0.64709759 0.32685611
-0.30143544 -0.42637268 -0.40602633
-0.17242432 -0.60437262 0.17684032
0.26204875 -0.20035903 0.23378000
0.49733031 0.17378482 0.14898098
-0.41491562 -0.29211047 -0.40465310
0.33335939 0.74799132 0.10183880
0.34344217 -0.06186157 0.01109184
0.49059582 0.45855650 0.15849283
-0.38525638 0.17950106 -0.17713468
0.04965646 0.68031353 -0.17501231
-0.46212965 -0.33236670 -0.30761874
0.52767229 0.77185440 -0.05181811
0.07961935 -0.34615320 0.34375989
0.29249138 0.17571680 0.46725377
0.20110296 -0.79302835 -0.02275272
-0.24859455 0.17060128 -0.24956840
-0.31920940 0.08137625 -0.25911602
0.19745743 0.51537859 -0.30828291
0.05307009 -0.38117245 -0.27095342
0.08674063 -0.52789408 -0.28183323
-0.34401992 -0.22288752 -0.40524402
0.10236252 -0.47977471 0.31385836
-0.10668400 -0.01937046 -0.11620930
0.43103591 0.85181743 0.00547796
0.13050830 -0.78769952 -0.09971641
0.14556313 -0.07823101 0.33161792
0.29761785 0.76801598 0.02283293
0.12527770 -0.03359149 0.42633173
0.44348720 0.09571712 0.27102214
0.42824301 0.75885046 -0.10946470
-0.40404433 -0.17863099 -0.42262578
-0.26695174 -0.27546358 0.04864271
0.00640523 0.19484346 -0.36112100
-0.19031122 -0.71461022 -0.32601407
0.23132388 0.57581341 0.36984584
0.24838762 -0.07965232 0.28003269
-0.09650773 -0.47379255 0.20928417
-0.27507550 -0.00552316 -0.29124600
-0.42863423 0.46323976 0.02003939
0.05373824 0.63186055 0.34588122
0.03852162 0.14798735 0.52540565
0.09317771 0.30034789 -0.38055849
-0.08416662 -0.75447202 -0.29919264
0.26254374 0.03939569 -0.23827782
0.03879002 -0.78802764 0.25146073
-0.40415078 -0.08313493 -0.37294436
-0.06450523 -0.57278579 -0.40760636
-0.20410500 0.43858194 -0.25458300
0.30216208 -0.18136784 0.12285860
-0.35717446 -0.11603157 -0.24182403
0.17683209 -0.01284647 0.44629145
-0.35678571 0.21617219 -0.25799903
0.05075719 -0.43837273 0.33156922
0.41895130 0.08022979 0.30040395
-0.12428364 -0.06202170 0.11526593
0.32830831 -0.36328161 0.16930160
0.50604177 0.22217746 0.08582844
-0.33666682 0.02714171 -0.30214655
0.40193880 0.09707345 0.34268162
-0.00703894 0.68224120 0.24289812
0.14073226 -0.50310081 -0.13781871
0.30224305 -0.08575325 0.18879539
-0.40372375 -0.58464831 -0.20453900
0.27988720 -0.46288583 0.18743694
-0.38677156 -0.25346276 -0.14674754
-0.36160424 0.02836648 -0.27786222
-0.29595286 0.13549282 0.02424877
-0.21217459 0.10650174 -0.23117927
0.39778909 0.12142601 0.36844540
0.30365291 -0.77531749 -0.08754203
0.00618206 -0.18858810 0.06263618
-0.28671381 0.44707060 0.16490939
0.23171444 -0.41063991 -0.06525952
0.19733916 -0.00279113 -0.24244514
-0.21445094 -0.20367502 -0.22241613
-0.08521231 -0.06298096 0.28992358
0.26503572 -0.66556185 -0.00992227
0.04809586 -0.23668155 -0.03574936
-0.22468841 0.52081984 0.21377236
-0.18470052 -0.78238446 0.13148594
-0.37781590 0.34985259 0.04374034
-0.24667642 0.27026126 0.28232852
-0.03219588 0.46067569 0.43376997
-0.33102167 0.17598514 0.06449170
-0.25282794 0.07250673 -0.06625827
-0.36088219 0.51004887 -0.17397057
-0.26482090 -0.31207454 -0.40733191
0.11703794 -0.77826434 0.19510497
-0.32908240 0.05409285 -0.28916481
-0.04260883 0.52196473 -0.32196459
0.12614037 -0.02423382 -0.23492685
-0.09383250 0.25715199 0.39060721
0.26503301 0.55194473 -0.24945116
-0.36481720 -0.29576713 -0.41999617
-0.39994574 -0.37310246 -0.36910027
-0.43799531 -0.53532362 -0.00701308
0.51072150 0.33270630 0.05357427
-0.46713716 -0.26175648 -0.33106971
-0.33080593 -0.22028339 -0.24040195
0.18832336 -0.33429402 -0.08365740
0.12277829 0.73720092 0.07794505
-0.24390510 0.49399450 0.21887347
-0.39941806 -0.55369335 0.08236095
0.50913972 0.33653370 0.12534197
-0.39671001 -0.61451638 0.03621122
-0.00303172 0.68764347 0.22009778
-0.41584685 -0.54807168 0.06224314
0.07041800 -0.39224648 -0.22300443
-0.35343993 -0.05225899 -0.20531639
0.21868876 -0.77405798 0.06701931
0.05516317 -0.79517090 -0.14554337
-0.36218911 0.20772912 -0.04262900
0.14759845 -0.78792614 0.09164535
0.08073173 -0.43586469 -0.22900039
0.07625429 -0.38806158 0.34724742
0.22707529 0.58964562 -0.23741692
-0.44219804 0.29225051 0.01965408
0.13601039 -0.26662764 0.34234628
0.43771127 0.03077426 0.14158261
0.02143565 -0.77282268 -0.04964902
0.04924048 0.71402413 0.14273405
-0.04961046 -0.79023135 -0.11418383
0.35034001 -0.01835035 0.27098399
0.55614984 0.59772867 0.07789219
-0.10009818 0.58397722 0.32460171
-0.21458179 -0.62403816 0.17686048
0.19684264 0.03681042 -0.27765688
-0.44582656 -0.37537822 -0.06408977
-0.41094452 -0.50974607 -0.25995782
-0.06541861 0.60729069 0.33279407
0.30099201 0.60699749 -0.18031012
0.39559442 0.26133734 -0.22797439
-0.18401696 0.00947206 -0.04041512
0.13132882 -0.02134242 -0.21789339
-0.08815088 0.67637312 -0.05975819
-0.34561592 -0.53950012 -0.33430541
-0.07845096 -0.53208405 0.21665139
-0.31503376 0.15297580 0.02190820
0.36795548 0.54237753 0.27687946
-0.22804669 0.03359897 0.13852078
-0.19627772 0.62122804 0.05178723
0.37992087 0.61686015 0.11467251
-0.05634893 -0.61894208 0.22319855
0.27984610 0.75932109 -0.00490059
0.00072012 0.68251401 -0.10515562
-0.48382124 0.58621454 0.00818355
-0.09450723 0.23200117 0.39889240
-0.47755340 0.40475902 -0.06597397
0.33907560 0.09183119 0.40695715
-0.25212151 0.12239271 0.22665103
0.31869408 -0.03248292 0.30188116
0.44414258 0.10317825 -0.09199850
0.42231655 0.48548257 0.25806057
-0.03523022 -0.69381320 -0.31280157
-0.38318187 0.28218502 -0.14293905
-0.25535226 0.48935089 0.22700305
-0.38624096 -0.41161877 0.08846956
0.08561310 -0.06324756 -0.15403937
0.43910563 0.26003605 -0.18570401
-0.34004155 -0.20792700 -0.23223326
-0.35334170 -0.61908031 0.09695321
0.24806964 -0.76126516 -0.13514644
0.29947636 0.26197994 0.40559933
-0.12398869 0.12191591 0.39977536
-0.05480237 0.68144155 0.23099409
0.24012467 -0.55645448 0.01419803
0.11834481 -0.32803839 -0.12382662
0.19908957 0.73016757 0.04067082
0.40779492 -0.00524656 0.07323866
-0.42433631 0.32312843 -0.11501497
-0.26466003 0.21629466 0.25651234
-0.02155647 0.62939566 0.33486733
-0.06629266 -0.34398425 0.21087302
-0.35506031 -0.57271671 0.12733831
-0.15931645 -0.38035059 -0.41349548
0.57020843 0.66496521 -0.00124918
-0.05144941 -0.09916313 0.17273910
0.30499431 -0.75020939 -0.08306752
-0.03120949 0.67118084 -0.14465122
-0.29154325 -0.77659428 -0.16717680
-0.47197551 -0.25221401 -0.26022169
-0.10376066 0.00695713 -0.18030991
-0.19708161 0.02726880 -0.10360208
0.24834032 -0.52324927 0.14851335
0.47619563 0.77580643 -0.08949810
0.00298094 -0.04696104 -0.16171491
-0.33458209 -0.13582087 -0.34992391
0.09848172 -0.14061560 -0.03836075
-0.24087644 0.25791839 -0.26031682
0.28300050 -0.15794422 0.18713216
-0.19138320 -0.29532185 0.09728916
0.28199342 0.38871467 -0.32277375
-0.19464815 -0.59235054 -0.39958721
-0.25119495 0.55236274 -0.15339318
0.28367972 -0.30488661 0.01564271
-0.25296849 -0.44463807 0.15595815
-0.39988330 0.28842857 0.07336605
0.18033226 0.18832357 -0.34865654
-0.20792820 0.61187816 0.13704821
-0.28258574 0.38011590 -0.23757961
0.12121207 0.74386799 0.09409092
-0.18964353 0.00397930 0.22943109
-0.18445703 -0.40859476 -0.42963502
0.51433051 0.40397823 0.00777328
-0.31131154 0.14910156 -0.12075715
0.21064878 -0.12241040 0.27070835
-0.14003378 -0.68819535 -0.35433429
0.44484740 0.36806336 -0.15880905
-0.08526982 0.67349619 0.00463229
0.50388610 0.20547853 0.15238616
-0.30711335 0.01539275 -0.16744198
-0.22798181 0.48798367 -0.21988171
-0.17165834 -0.30806872 -0.39222059
-0.31643081 -0.65116954 -0.29413372
0.51080406 0.86054170 0.02862076
0.40335307 0.01539744 -0.02205469
-0.39015478 0.38223764 -0.18449433
0.50041652 0.20120832 0.02177828
0.22181661 -0.23299596 -0.03333536
-0.12571304 0.57050437 0.31198445
0.17814237 0.73461401 0.06839952
0.50704753 0.25063580 0.04641715
0.09610140 -0.72855037 -0.23776171
0.37424263 0.35304800 0.34294280
0.46914843 0.64640641 -0.13398115
0.30279553 -0.32514599 0.03154328
0.11510836 0.70422757 0.23237409
0.46440706 0.19026987 -0.11940458
0.19170310 -0.22878784 0.32319847
0.25157064 0.50862896 -0.29155669
-0.32974368 0.16563965 0.04060014
0.55444002 0.53102201 0.08869541
0.30870771 -0.10038774 0.10482570
0.30936086 -0.29949576 0.05811776
0.48985067 0.63782305 -0.11850525
0.35808560 0.57792979 0.23846622
-0.22208475 0.05233730 -0.08191539
0.10051768 0.24365492 0.54557258
-0.36929536 -0.27854183 -0.01493610
-0.14343496 0.09463076 -0.24408844
0.44843122 0.08656900 -0.05348824
-0.06139335 0.21692614 0.46372095
-0.42701682 -0.07842010 -0.36078501
-0.14570917 0.07516311 0.37061161
0.49784902 0.34210536 -0.04109693
-0.10463701 -0.57086682 -0.40318784
-0.46882734 0.57911199 -0.08813989
-0.25529289 -0.51402342 0.17301904
0.54190791 0.75726122 -0.04503478
0.38252154 0.53330272 0.27577615
-0.26427862 -0.21203852 -0.02833404
0.48850137 0.14332557 0.01694294
0.01187725 -0.32104650 -0.27664900
0.42106652 0.56423974 0.13220632
-0.12181544 -0.73648429 -0.31344491
0.35935292 0.42332593 -0.25625873
-0.02044348 0.26646203 0.48274848
0.08232453 0.23829976 -0.38368374
0.17364864 0.09490906 0.50112176
0.16573195 -0.73165989 0.14652736
-0.39608812 -0.01503070 -0.29732469
-0.19507183 0.56371754 -0.16684006
0.28896040 -0.10772820 0.04467666
-0.35454619 -0.22282630 -0.17874773
0.09557217 -0.49213165 -0.22179660
0.06165716 -0.78489488 0.08087642
0.19242685 -0.32540908 0.34314790
0.37404200 0.08162226 -0.18178464
-0.14392230 0.59862602 -0.15716045
0.48339099 0.15861529 0.21742460
0.07830296 0.09086420 0.50206304
0.24490897 -0.14200489 0.23932374
0.16413541 -0.73124409 -0.14789547
-0.14810835 -0.20804194 -0.14878945
-0.31766126 -0.05997308 -0.34901410
0.41917449 0.45502451 -0.17483617
-0.22583404 0.21240380 -0.26530668
0.28554460 0.11053728 -0.27280006
0.28394213 -0.77400839 -0.11519359
-0.37289417 0.62851369 -0.04686292
-0.34157783 0.59047371 -0.10934541
0.23279212 -0.15843658 -0.01452653
0.48280564 0.58125019 0.09612492
0.28015909 0.76899189 0.06656900
0.47401431 0.16872545 0.23968577
-0.25794932 0.50388265 0.12875350
0.32916963 0.14187458 -0.27649996
0.04482951 0.72625148 0.18284401
0.11648895 -0.79027623 -0.19180736
0.42657378 0.83855766 -0.03060196
-0.31036210 -0.20541458 -0.32367995
0.02862481 -0.56558740 -0.35060415
-0.10415885 -0.30082470 0.11021549
-0.22609335 0.27568454 -0.26438281
0.31247944 -0.08259173 0.16167101
0.04818928 0.30942395 -0.38075656
0.08660330 0.08702154 -0.32246307
-0.02966151 0.70201218 0.13410166
0.05963861 -0.75452691 -0.26740593
0.10929799 -0.78765011 0.06538033
-0.27314144 -0.78210050 -0.20962560
-0.19916025 0.04243729 -0.17990805
-0.42212322 0.34224057 0.05370392
0.26728100 0.13436466 0.48596877
-0.04471846 0.28303975 0.43978903
-0.12142229 0.44479588 0.38927585
0.54769087 0.78829640 -0.01844365
-0.17158408 -0.78658599 -0.24879578
-0.01308175 -0.59782547 -0.35577896
-0.14248565 -0.30966702 0.10588486
-0.13336757 -0.77156037 -0.00140985
0.29129183 0.76200277 0.10278083
0.32697442 0.53934103 -0.21604308
-0.25959229 -0.78404647 -0.03735547
-0.47248137 0.61138922 0.01311721
0.41045287 0.00269569 -0.00734485
0.08193466 0.05125729 -0.29444310
0.42731845 0.42136723 0.30274558
-0.08985806 0.33365217 0.40119162
-0.35567716 0.30631834 0.06462979
-0.23109606 0.59049672 0.08005280
-0.28386205 -0.38478342 -0.41885486
-0.17440179 -0.78660762 -0.01761068
-0.04545167 0.66370875 0.22142029
0.50716150 0.33091855 -0.01181736
0.05060098 0.44764629 -0.36459693
-0.31004530 -0.71551859 -0.25192538
0.14931513 0.38334432 0.44425818
0.27507061 0.39198923 0.38605148
0.12121879 -0.04083200 -0.21235934
-0.05126625 0.60064489 -0.22903597
0.11697218 -0.09324855 -0.10274988
0.08099428 -0.26701790 0.33771336
0.20895216 -0.64826000 0.10467875
0.05281114 -0.71166742 0.31306082
0.06930868 0.58826405 0.39356041
-0.01514169 -0.21532892 0.15019241
-0.45225856 -0.40861660 -0.12596859
0.18866356 0.68296134 0.26674044
0.38957912 0.31210542 0.35181594
0.25645882 0.39424580 -0.32577777
0.21735825 -0.14458486 0.27344215
-0.43873858 0.55381662 0.02558133
0.50603050 0.30689001 0.15486465
0.15096094 0.66661167 -0.18806501
0.10535242 -0.30384630 -0.10687312
0.34826866 -0.02510255 -0.05617479
0.32027417 -0.04195433 0.24834760
0.06575325 0.72662741 0.08153656
-0.08533978 -0.09123189 0.10443864
0.50077295 0.31239942 -0.02201968
0.25459808 -0.29952317 -0.02545046
0.09128564 -0.44518927 -0.19022547
-0.07043404 -0.66033459 -0.36192229
0.02116552 -0.13423666 0.24869624
0.31891581 0.51819837 0.35694626
-0.00311515 -0.26821402 -0.18785599
-0.16053201 -0.44561946 -0.42828798
0.15278968 0.05926826 0.47183871
-0.15374283 0.52264816 0.34155884
-0.33543140 -0.20516159 -0.38129002
0.12194160 -0.30809137 0.34960204
0.02457930 0.50707650 0.42662162
-0.38084823 -0.59188408 -0.25506443
-0.42131183 0.26722145 -0.03463688
-0.07312714 0.53835982 -0.28179404
-0.03155233 -0.23350707 0.08800235
0.45798144 0.05875131 0.11483034
0.10530996 -0.32979470 0.34968603
-0.32489285 -0.71619928 -0.22844321
-0.05787710 0.62529719 -0.19785202
0.48529771 0.30683196 0.22854047
0.13620940 0.73884487 0.03537115
0.36714035 0.71889389 0.08648349
0.21424952 -0.30081853 -0.05466761
-0.42176536 0.34737176 -0.13192683
0.45040920 0.46242195 0.22734722
-0.31685537 -0.20875120 -0.21238205
0.23937190 -0.26673442 -0.02454375
-0.16508234 0.34367076 -0.31220141
-0.45760536 0.45834294 0.03007277
-0.38881427 0.57846123 -0.12784053
-0.28204453 -0.40438673 0.14304888
0.00266693 -0.79803491 0.27856916
-0.33722225 -0.18302760 -0.36593446
-0.38523978 -0.63276803 0.05047127
0.23989905 -0.79051447 -0.02398913
0.12548271 0.72441703 0.18479368
0.21174176 -0.78544968 -0.00503267
-0.05545328 -0.27531955 -0.30034816
0.49317017 0.20668998 0.20071660
-0.05000812 -0.65180147 -0.34115598
-0.33179760 -0.75461459 -0.14167169
0.10833585 -0.74997437 0.23610228
-0.46600419 -0.32853287 -0.22487083
-0.19183816 -0.49859518 -0.42061675
-0.03181759 -0.25862995 -0.23739308
-0.21154217 0.03743811 -0.08394106
-0.10556439 0.68840909 0.05194829
-0.39275387 0.30961108 0.05980528
0.10295813 0.59456509 -0.27738526
-0.24110559 -0.25969544 0.03982618
0.32304344 -0.35642612 0.08593416
-0.32976669 0.62011528 -0.08579142
-0.39000037 0.57335329 0.02703653
0.16788884 -0.45314789 0.31024715
0.25448745 -0.66860902 0.01646408
0.53042507 0.80338502 -0.01830477
0.19485243 -0.70582384 -0.13490246
0.00568808 0.45742539 0.44391602
0.15588316 -0.22312772 -0.05220192
0.03770112 -0.46071693 -0.36175615
0.41395050 0.52210581 0.22917581
-0.31143183 0.16393632 0.11239374
-0.38130149 0.26914483 -0.15577038
-0.34689927 -0.70848727 0.04053356
-0.00678985 0.01641077 0.45580390
0.09463193 -0.57881331 -0.17816885
-0.12514450 0.65447980 0.12245614
0.05151086 0.19655286 0.53523099
-0.10935180 -0.78543234 -0.19912767
0.31806785 0.12099132 0.44840142
0.17623085 -0.79687196 -0.03418887
-0.12195218 -0.06638915 0.08533452
-0.10589589 0.00639696 0.36971804
0.30808592 0.51591927 0.36628464
0.32379708 0.76472706 -0.07111749
-0.29453629 -0.77153099 -0.19195443
0.03007581 -0.22908151 0.28290004
-0.28308186 -0.75549102 -0.24785814
-0.13836646 0.66585481 -0.02733627
0.10957565 0.72394317 0.18819995
0.41186643 0.08610978 -0.13334283
-0.03171917 -0.35410371 -0.35758975
0.33316591 0.78636116 0.00158074
-0.07694463 -0.23053959 -0.01053722
-0.40843102 -0.10782145 -0.23526570
-0.34473971 -0.22335815 -0.19277966
-0.41775447 -0.31190082 -0.05116589
0.27041703 -0.50290477 0.11641724
-0.25749835 -0.52291632 -0.40351480
0.42641178 0.00912968 0.08256878
-0.05765620 0.69452173 0.12887189
-0.40264252 0.34819293 0.04113094
0.22827272 0.28858665 -0.35812759
-0.08047821 -0.01795503 0.36927691
0.29197711 0.38838196 -0.30723825
-0.41712534 -0.07401643 -0.23666286
-0.42927897 0.64473438 -0.02250786
0.14556216 -0.64428103 -0.13790357
-0.23683631 -0.21848074 -0.05106454
-0.37285477 0.61180568 -0.09970549
0.28336117 0.18159436 0.47781768
0.26454878 -0.04665052 0.32184637
-0.22106144 0.43972602 0.31970811
0.19855389 0.72698373 0.01187618
-0.51021624 0.49276641 -0.02245300
0.02927385 -0.76535237 -0.27494305
-0.42464533 0.39980009 -0.16786382
0.07388504 0.71927387 0.16882074
0.35799655 0.09065017 0.39418477
-0.07310162 -0.23251104 -0.10582562
-0.07876305 0.27692276 0.40639856
-0.41593459 -0.48679841 -0.26443192
0.06618473 -0.65827614 -0.23589781
0.27182120 -0.31060493 -0.00963975
