0.09709592 -0.38738668 -0.27806786
0.02260068 -0.34092161 0.44271743
-0.32176039 0.19485287 -0.13235125
0.17261398 0.12301479 0.29786462
0.26971051 -0.55999064 0.29921168
-0.20141257 -0.20252419 0.33594859
-0.29826015 -0.55903935 -0.27980444
0.35077104 -0.51066631 0.14550726
0.22871161 0.42640138 -0.04192182
-0.34160465 -0.48411977 -0.16859905
-0.20761737 0.50227165 -0.01494032
-0.32628238 -0.16221756 -0.27106029
0.00800308 0.17651257 0.33225471
0.25937697 0.77822787 -0.23475870
0.23372525 0.59467411 -0.00598174
-0.05131441 0.96391571 -0.07349700
0.06904192 0.53217089 -0.28203005
0.18924955 0.85201275 -0.26910535
0.01342203 -0.68000746 -0.13442016
0.26164329 -0.04634003 -0.27463922
-0.07396898 0.46266276 0.38058352
-0.13288778 0.38567054 0.38669658
0.18799034 0.28021649 0.35269469
0.23417035 -0.68448544 -0.22792009
-0.28394789 0.18111706 -0.00359763
0.31727594 -0.48442304 0.25389022
-0.13279715 0.81828028 0.11339214
-0.18655227 0.26451039 0.07950345
-0.00026132 0.43310240 -0.28685352
0.01924041 0.76086426 -0.27482316
-0.06800808 0.03518148 -0.30411601
-0.18299252 0.91062504 -0.17384745
-0.26646265 0.07326720 0.16021141
-0.36034909 -0.43500006 0.05951823
-0.20120487 0.44911727 0.26270282
-0.00912869 -0.55724609 -0.32902381
0.24313328 0.49703917 -0.08953090
0.23298003 0.52324939 -0.07782767
0.25504074 0.78809440 -0.17138873
-0.24649864 0.64412266 -0.21802279
-0.08666217 -0.64233559 0.38244674
0.08158594 0.60974193 0.40824807
-0.00800090 0.96397638 -0.07725810
-0.28365543 -0.28646198 0.23128283
-0.24288538 0.67230123 -0.19897948
-0.05914847 -0.67860508 -0.26888028
-0.01196702 0.43787807 -0.28577042
-0.12356556 0.63287878 0.20330782
0.32305041 0.07356995 -0.03143997
0.15953872 -0.67068756 0.22522324
0.21125242 0.86638349 -0.24510464
-0.25795504 -0.40603179 0.30981460
-0.31708041 -0.36530259 0.20500217
-0.11093323 0.57026899 0.37115288
-0.20380126 0.48958239 0.10120729
0.00166735 0.51035273 0.37047809
-0.20146596 -0.68546754 -0.06366432
-0.10524293 -0.69402808 -0.13660577
-0.20463416 0.52342093 -0.04606228
-0.21492706 -0.68477732 -0.12075193
-0.01972828 0.96563917 -0.00102595
0.16118927 0.58061093 0.28610584
-0.18925908 0.89500904 -0.09893012
-0.33522794 -0.65619075 0.02803612
0.09918568 0.73066807 0.14985682
0.27165136 0.62904119 -0.15767694
-0.19667928 0.85514522 -0.15985437
0.04781157 -0.68286747 -0.11378464
-0.19210027 -0.68058681 0.25336105
0.32420835 0.23861714 -0.25491819
-0.15825458 -0.69000953 -0.22589481
-0.17469703 -0.60235798 0.35497779
0.20483522 -0.44946110 -0.27366465
0.22620122 0.38601306 0.28507954
0.01067296 0.66857660 0.37531981
-0.20348720 0.51855648 0.06787565
-0.20868836 -0.47175664 0.36780012
0.13607706 -0.24429396 0.41897801
0.35815319 -0.13881555 -0.05553505
0.13445105 -0.56332332 0.40360531
-0.26135755 0.16949461 0.11313288
0.10678350 -0.18603376 -0.27914011
0.26418376 -0.67931545 -0.09166375
0.31468979 -0.39634454 -0.20115151
-0.08246528 0.11853069 0.32354859
-0.33087382 -0.17958948 -0.02925243
0.19044228 -0.67098027 0.06665522
-0.32953179 -0.26505306 -0.25371879
-0.17724222 0.36255208 -0.24014097
-0.18704116 0.31149787 0.14964789
-0.35935503 -0.38754004 -0.18938433
-0.18149637 -0.19862843 -0.28195617
0.33279279 -0.68852031 -0.06455671
-0.08391023 0.75455046 0.11008874
-0.25288740 -0.44304937 -0.26558825
0.38194719 -0.41899341 -0.08218798
0.34339961 0.18710960 -0.15755421
0.10617653 0.07059489 -0.28968081
0.29967585 0.19019979 0.09886754
0.26742721 0.08729856 -0.28013131
0.17723323 -0.46876705 0.40906665
0.23932473 0.58764893 0.13172531
0.13616931 0.61621910 0.25457707
-0.04922887 0.36964917 -0.28512380
0.21398297 0.80249488 0.08369016
-0.13067546 0.00947324 -0.29489732
-0.20504895 0.50438100 0.01780825
-0.23070866 0.59099162 -0.12455195
-0.29241517 -0.39082450 -0.23936379
-0.33424422 -0.50905108 -0.17228483
0.21358672 0.90342051 -0.18493390
-0.26046780 0.26710439 -0.19918668
0.20073260 0.84797299 0.09249644
0.23741981 0.53342700 -0.00767713
-0.33398345 -0.00464784 -0.08285142
-0.12481486 -0.23505023 -0.29027137
-0.33226570 -0.29668936 0.00245115
0.35163793 -0.04341649 -0.13340111
0.03530481 0.96158081 -0.13451700
0.18136472 0.46060568 -0.26385421
0.22493528 0.83170307 -0.09239615
-0.16998816 0.95598871 -0.04488811
-0.28771093 -0.43568951 -0.23484242
0.36309442 -0.46366513 0.13189358
-0.26621452 -0.69768149 -0.20172356
0.11124673 0.00845483 0.35189068
0.32169771 -0.65663278 0.07081999
0.16540799 -0.01250666 -0.28432396
0.30510309 -0.46618688 0.29327309
0.15082777 -0.68016917 0.16190608
0.36076555 -0.17478558 -0.07146634
0.32268617 0.11448737 -0.03563301
-0.21922074 -0.68786114 0.02182724
0.27149042 -0.69171673 -0.18724997
-0.18521482 0.40765113 -0.16265862
-0.36918864 -0.41074759 -0.15052386
0.32221037 0.14725967 -0.26415017
0.06887251 0.22915865 0.38057676
0.01476511 0.60655546 0.42320791
0.30732331 -0.48225701 -0.23056084
-0.20519741 0.42647442 0.06322464
-0.22250690 0.80601990 -0.17016517
0.11336013 0.01819863 0.35106018
0.04025572 0.96643752 -0.22267681
-0.18401133 0.30469748 -0.24283972
0.10180827 -0.68373972 0.34743118
0.19676653 -0.35215965 -0.24887079
-0.21237561 -0.68853462 -0.07297466
-0.33171815 -0.38274819 0.17938915
-0.06730305 0.41014370 -0.28433299
-0.13065571 -0.67774469 0.05556457
0.18350297 0.14350581 -0.28487632
0.18887919 0.08330388 0.31123844
0.38000104 -0.47493184 -0.01052254
-0.10715549 0.31957352 0.41898558
-0.05803897 -0.25996113 -0.28373826
0.23798631 0.08194058 0.27071789
-0.34409884 -0.32857713 0.11382832
-0.34754512 -0.31077302 -0.02555308
-0.19200565 -0.15722486 -0.28713080
0.13208379 0.96433187 -0.13863944
-0.21210575 -0.67836887 0.24529752
-0.20819226 0.59529698 -0.10480604
0.33916986 0.16756888 -0.06943015
0.19999278 0.41107067 0.36685395
0.25812712 0.72166675 -0.22567368
-0.29857859 0.04809406 0.02424295
-0.34449309 -0.21302259 -0.21816421
-0.33523142 -0.52373898 -0.18952349
-0.29797119 0.09102488 0.04678574
-0.19097307 -0.45767617 -0.29345658
0.13507318 0.50159699 -0.27887148
-0.13752685 -0.68538862 -0.15741375
-0.03353157 -0.51291215 0.42895997
-0.27789402 -0.00212251 0.17172016
-0.19279152 -0.57396096 0.35448995
0.27180770 -0.68973261 -0.27150187
0.34685379 -0.21711007 0.00782755
0.08961968 0.95924389 -0.02134232
-0.06026416 0.61829257 0.28322324
0.28187874 0.18858612 0.16450779
-0.07355838 0.52828908 0.36817446
0.25965780 0.59212959 -0.22694683
0.35566035 -0.52175766 0.08684176
0.02556382 -0.27252930 0.44149536
-0.19702977 0.41856575 0.27444741
0.16001582 0.24417260 0.34168127
0.06142308 0.80197382 0.13306254
0.09748899 0.86700398 0.15215304
-0.15358861 -0.68816733 -0.32574043
0.04035313 0.21311277 0.37668678
-0.24104677 0.61566228 -0.16737024
-0.04230335 0.96562552 -0.06131024
0.21530010 0.85243165 0.05422042
0.33476800 -0.02803272 -0.23576385
-0.18062976 -0.44096208 -0.28301564
-0.26999825 0.16867077 0.13031839
-0.33154052 -0.30230936 0.10067349
0.18293247 0.68615896 -0.26667410
-0.16341640 0.14373013 0.27160278
0.19135848 -0.61444956 0.35396978
0.18574029 0.68141949 0.15728730
-0.26329446 -0.68206197 0.17942214
-0.32452655 0.03777710 -0.07915870
-0.35265386 -0.64583266 -0.07440724
0.19261883 -0.67606014 0.24277936
0.19394860 0.40041822 -0.24891174
0.33470073 -0.46276700 0.22810556
-0.20267154 0.00238279 -0.29818442
0.31917974 0.06246409 0.02068979
0.24797699 -0.52517009 0.35177636
0.25014114 0.54844183 -0.26067737
0.29425642 0.13351040 0.17851870
-0.30716449 -0.08222544 0.00463418
-0.25110942 -0.55430841 0.30932981
-0.01066629 -0.68533748 -0.19386408
0.21295746 0.44285586 -0.21022731
-0.09045821 0.95703363 0.06587559
0.23878692 0.75283951 0.03472026
0.12050739 0.96262431 0.01951361
-0.18345928 0.31787047 0.27854276
-0.17641957 0.86426985 0.06871273
-0.20075661 -0.67322522 0.22204413
0.05114649 -0.32056260 0.44009230
-0.22619808 -0.19852060 0.31491119
-0.05729058 0.17170691 0.30359015
-0.03638574 -0.50758666 -0.32023981
0.04836385 0.79667616 0.13946469
0.08211732 -0.68148845 -0.09496287
-0.29429036 0.14097615 0.05533726
0.26865333 -0.46753448 0.33340517
0.11619750 0.96328551 -0.12418395
-0.29514027 0.00434813 0.12102772
0.31408492 -0.16886061 0.03670946
-0.35881200 -0.27151352 -0.08386351
-0.10839330 0.25831956 0.37205037
0.25652206 -0.67900407 -0.03197140
-0.19886264 0.37635404 0.25429249
-0.16546345 0.72886425 -0.26647872
-0.17894170 0.94845724 -0.22101784
-0.05711973 0.69713938 0.17468122
-0.26377401 0.26624599 -0.20824111
0.35848647 -0.62299627 -0.02508900
0.20608053 0.37128025 0.37135249
0.16475153 -0.60664558 0.37444302
-0.20819303 0.73612708 -0.10007608
-0.35378066 -0.46719110 -0.15513675
0.32781196 0.11502951 0.03201391
0.23265922 0.22463818 0.08481447
0.19249789 0.31173128 0.37785098
0.25379568 0.80997401 -0.23524538
-0.24980468 0.27940354 -0.24905077
-0.37035829 -0.34695905 -0.09753495
0.36119831 -0.30393070 -0.18958670
-0.30611721 -0.25824699 0.12763944
0.22194628 0.37628073 -0.12157896
0.20288509 -0.58600312 0.37057120
0.02155425 -0.45619798 -0.30521208
0.01641342 -0.53502792 -0.32353225
-0.27553588 -0.51391166 -0.27411419
-0.16300584 0.20685998 0.22610198
-0.30062065 0.07057934 -0.04776812
0.19941784 -0.67332399 0.11140683
0.30852044 -0.68922305 -0.14597638
-0.20496622 0.42518619 -0.05823447
-0.32392529 -0.50912851 -0.22232971
0.33068344 0.21220779 -0.07743621
0.21869531 0.34062114 0.25670534
-0.32705230 -0.41396528 0.16810592
0.03963931 0.05079263 -0.29006103
-0.01310931 0.40903860 0.42759401
0.20394400 0.55534101 -0.26957056
0.33813542 0.23092088 -0.17299008
-0.32693452 -0.54350996 -0.21394372
-0.20526809 0.17183906 0.18782434
-0.19022056 0.24401318 0.11265453
0.03877869 -0.67919081 -0.15281363
-0.14488325 -0.69327968 -0.31857839
-0.05383572 -0.41494226 0.43216598
-0.35186014 -0.13773283 -0.17136528
0.32466358 -0.23095497 -0.23425168
0.12261577 0.65605229 0.20869561
0.34417462 0.13610840 -0.14645688
0.00674758 0.47600523 0.37022570
0.34276107 -0.56098890 0.03169515
-0.23267208 -0.06827004 -0.29114556
0.21671897 0.32818592 0.32571265
0.10627334 0.23385286 0.36862290
-0.30077109 0.08138867 -0.05116177
0.37814412 -0.34025446 -0.09156151
-0.33201897 -0.08083306 -0.06737627
-0.18270206 0.91438836 -0.14810257
0.32894966 -0.52267146 -0.23657060
-0.12893836 -0.23283660 -0.27945483
-0.13189100 -0.28947902 -0.27337191
-0.13364500 -0.66647130 -0.34051681
0.02435761 0.79285020 0.13564561
-0.20382924 -0.65448010 0.32325870
-0.11806188 0.59017718 0.26917094
-0.11359318 -0.09316888 0.36580589
-0.19420351 0.87559676 -0.07118759
0.30375785 -0.17800784 0.25098950
-0.19658038 0.43005693 -0.16796747
0.17081535 0.57248557 -0.27530494
-0.07077852 0.51966214 0.35798359
0.15912385 0.43723637 0.38229930
-0.09068073 0.71145564 -0.27626926
-0.23224004 0.79630327 -0.20991439
-0.33156070 -0.03229134 -0.27823442
-0.20232289 0.52970004 0.19745424
0.02629862 0.92341763 -0.26825380
0.09241121 0.23093641 0.37779102
0.07674916 0.18959337 0.32283965
-0.16782191 0.92420673 -0.23246828
0.07777079 -0.26431748 -0.27839759
-0.34672669 -0.63893998 -0.20224912
0.17705336 0.33618069 0.40002188
0.08564091 0.47862422 0.37955621
-0.36026183 -0.29706144 -0.05850197
0.07483093 -0.69104141 -0.29253671
-0.32885006 0.17931953 -0.19233403
0.17160578 -0.22857255 0.39908057
-0.27482757 -0.13524362 0.21800397
-0.22657515 -0.64754337 0.30209473
-0.21506099 -0.69128042 -0.21254387
-0.25356311 -0.11105688 -0.28638279
0.28058812 -0.64648658 -0.31827852
0.24264857 0.72278839 -0.12630001
-0.19813555 0.33565807 0.05604187
0.31840390 -0.34514725 -0.21774507
-0.23925579 0.07515438 0.22212468
0.20861091 0.50887716 -0.25535214
-0.08532102 -0.58554298 0.40651062
-0.10857908 0.96447349 -0.23073423
-0.21568616 -0.45913786 -0.28224584
0.13350241 -0.21889415 0.41249475
-0.00260889 0.70929813 0.26357454
-0.15432893 -0.68549025 0.27001482
-0.20452234 0.42642936 0.09159271
-0.03283485 0.68238288 -0.28408176
0.26617870 0.52045763 -0.14518420
0.02784617 -0.69305140 0.18281257
-0.29512215 -0.00150265 -0.28470618
0.32420900 -0.20929217 0.11571461
0.06226727 0.01150470 -0.28694609
0.26195365 0.03540057 -0.28106523
-0.08506455 0.18645838 0.29586118
0.37842247 -0.36538565 0.07525127
-0.07173674 0.14263850 0.31135517
-0.06750292 -0.19360265 -0.28969729
0.05286127 -0.67529505 -0.12136778
-0.23608448 -0.69645631 -0.21518752
-0.31982142 -0.40339124 0.19932464
-0.16610336 -0.03109203 0.32642189
0.03051894 0.44939345 0.41648147
0.23947801 0.48056835 0.21193589
0.23934250 0.54923987 0.02198732
-0.28324232 -0.33248752 0.26814988
-0.10046484 0.80325580 -0.26629889
-0.18782765 0.30231425 0.12904051
-0.19744116 0.40349650 0.24144039
0.24802504 -0.25109571 -0.26528308
-0.15677269 0.05160403 0.30238932
-0.24020110 -0.67564386 -0.03185405
-0.09100743 0.96825218 -0.16886128
0.32330641 0.16441903 0.06139946
0.14795449 -0.66994220 0.14215888
-0.11892679 0.01027408 -0.30073875
0.09606253 0.61955875 0.37168199
0.28545731 0.17611817 0.17997870
-0.23834483 -0.25942832 -0.26053026
-0.33788896 -0.30233029 0.00377820
-0.13344467 0.25669670 0.33675206
0.21761376 -0.40727264 -0.25513774
-0.30573213 -0.48761636 -0.23410711
-0.12854426 -0.68977821 -0.27869111
-0.20566931 -0.66062450 0.31445178
0.09898085 0.76411498 0.10678284
-0.13667089 -0.60841447 -0.33891821
-0.15085837 0.38747561 -0.27645367
0.06984133 0.97145200 -0.07851902
0.20771790 0.24292183 0.23849171
0.20376027 0.88518465 0.05370109
0.25220117 0.74412864 -0.14723018
-0.08925192 0.47365826 0.37030295
0.22198501 0.85474432 -0.24786380
-0.07585087 -0.13692549 -0.29085752
-0.30523774 -0.37432951 0.23735908
0.34698233 0.12771331 -0.18984468
0.29162607 -0.69016874 -0.25006035
0.23217791 -0.68128157 0.08258177
0.35268503 -0.53410065 -0.20805278
0.24509467 -0.67171919 0.25371417
0.00599235 -0.31269979 0.44195136
-0.03098966 0.24301527 -0.29685941
-0.15797034 -0.64805925 -0.34194097
0.19368985 0.28367412 0.35062873
0.24000840 0.59588265 0.04429086
-0.15133858 0.06889091 -0.29801139
0.22217725 0.33323526 0.23119313
-0.19258088 0.92692274 -0.17366984
0.33732259 -0.69107759 -0.15681855
0.17392954 -0.68306231 0.16823058
0.00412437 -0.69392973 -0.31234559
0.04123069 0.92232710 -0.26099789
-0.14901412 0.15675099 0.27681965
-0.17232208 -0.29095674 -0.26917481
-0.16117594 -0.21753648 0.37863147
0.02307004 0.56938505 -0.27853584
0.14762475 -0.68399578 0.05550437
0.07415501 -0.69616616 -0.32450143
-0.13741484 0.85509497 0.12568042
0.14638427 0.41622511 0.39962453
0.06898206 0.44324261 0.41309780
-0.19876981 0.63219136 0.10814744
0.28367570 -0.15289721 0.29452419
-0.22151586 0.48652372 -0.18724957
-0.24409138 0.64970064 -0.16841896
0.19084138 0.93329638 0.01824136
0.20931512 0.90697783 -0.22022149
0.21072237 0.31543189 -0.23131558
0.23105013 0.36776251 0.16414416
-0.18739517 0.11522187 0.26687396
-0.30317158 -0.69127262 -0.17518853
-0.34663880 -0.63242507 -0.08291206
0.31554258 -0.66870421 0.06861228
-0.07216417 -0.30068392 -0.27696514
-0.03587115 0.71406192 -0.27675056
-0.19205199 0.35415268 0.22755615
-0.34477404 -0.11367221 -0.23923892
-0.32498306 -0.65634221 -0.28902167
0.29106352 0.12450499 0.18819304
0.34842992 -0.68609107 -0.13495249
-0.10130598 -0.67703807 0.00200687
-0.16320738 0.23123851 -0.29423904
0.24180892 0.71691447 -0.11775815
-0.30559951 -0.68231952 0.07731508
0.27194887 0.55150092 -0.21152759
0.31433597 -0.39054871 -0.20653053
-0.02872217 -0.68139058 0.29627013
0.16892931 -0.58537668 0.38440728
-0.28544924 0.24197175 -0.15064147
0.16303368 -0.34377560 0.42858845
0.31782302 -0.17264375 0.05528406
-0.36393881 -0.44233775 0.04284902
-0.18394490 0.09395552 0.28632277
0.15096068 -0.31254828 -0.26299250
0.09409729 0.92498535 0.12462188
-0.23425582 -0.69375360 -0.27217764
-0.33260140 -0.61738783 -0.25427282
-0.30846876 0.24140961 -0.19630952
-0.28161991 -0.17691466 0.22456074
0.02111284 -0.66864181 0.32497984
-0.19493827 0.32160157 -0.21666679
-0.34708926 -0.58367705 -0.03821880
-0.01790788 0.48695457 0.37208357
0.10170202 -0.67952675 0.02467556
-0.20657550 0.47697079 0.14576292
-0.14902253 0.78340971 0.08342561
0.21933071 0.34564292 -0.09616351
0.36402205 -0.33528003 0.11025065
-0.02324427 0.44167954 0.40586159
-0.04943645 0.43213025 -0.28142646
0.24718443 -0.40543115 0.36759827
-0.30937672 -0.27766308 0.04962767
-0.30566704 -0.03576127 0.01982445
-0.30226478 0.20194480 -0.05400989
0.20480454 -0.62515825 0.33654991
-0.19242547 0.65608931 0.14559212
-0.20043978 0.43676278 0.15722354
-0.23951948 -0.55172145 0.32256708
-0.12194251 0.34757632 0.40502530
0.13953492 -0.06431620 0.36781505
0.09560303 0.91360158 0.13171002
-0.29689127 0.11066954 -0.01573035
-0.19602439 0.82663530 -0.00493718
0.12038979 0.36436123 0.42911920
-0.06423004 0.55027711 -0.27930596
0.07496355 -0.69452095 -0.23938137
-0.19810121 -0.68696606 -0.08616111
-0.07426158 0.55923605 0.38800439
-0.23613781 0.75916761 -0.24890190
-0.31461385 -0.29158425 -0.01368815
0.24644242 -0.44276041 0.36664984
-0.34299859 -0.31529674 -0.22022384
0.14660858 -0.65109968 0.36774752
-0.30843052 0.19157687 -0.07683498
0.23701076 0.61064053 -0.00103124
-0.26869166 -0.40298498 0.28926945
-0.04971725 -0.66269767 0.39564285
-0.17968236 0.68723875 0.13612840
0.23041600 0.76534641 0.04486595
0.21043833 0.32423419 0.36210224
-0.31479305 -0.61061954 -0.28706416
0.18864067 -0.65860116 -0.33377084
-0.24044110 0.57295960 -0.20028707
0.22114195 0.84472674 0.05079073
0.25175372 0.21252128 0.13224357
0.09835550 -0.68004632 0.27081090
0.26494387 0.73740780 -0.18600693
-0.06109037 -0.68082923 0.25475442
0.35604087 -0.14291579 -0.19140497
-0.34753069 -0.52249038 0.09484844
-0.00896885 0.96508384 0.00906090
0.14670293 0.56489289 -0.27460018
0.23241225 -0.03196089 -0.27819520
-0.21724744 0.20226693 0.13897273
0.11381793 0.85669309 0.15118454
-0.19627194 0.80215740 0.03429785
-0.35364252 -0.21875909 -0.14903803
0.34398782 -0.16964227 -0.23313516
-0.23912583 0.56238127 -0.14229262
-0.13104497 -0.69928771 -0.09444183
-0.07871599 0.85476369 0.15133646
-0.18361525 0.41565233 -0.23349857
-0.04430171 -0.68036681 -0.27552512
0.22748823 0.37943280 -0.05643516
-0.30006483 0.05226022 -0.02336419
0.31947380 -0.40828258 0.26445514
0.08005991 -0.68471175 -0.32472050
0.23160398 0.41323197 0.26624626
0.14720300 0.25102481 -0.28294185
-0.19102417 0.08183737 -0.29417178
-0.03894411 0.42801252 -0.28648931
0.28664309 -0.27598608 0.30081013
-0.20417129 0.41480643 -0.08088426
-0.35442945 -0.26064244 -0.20587482
0.09302410 0.76935053 -0.27776852
-0.28212836 -0.49042022 0.27124995
-0.20923959 0.54291391 -0.01610287
0.27306163 -0.68009293 -0.15115549
0.08485512 0.94961876 -0.25969973
-0.07321320 -0.63786542 0.40264615
0.17799646 0.72215593 0.11797295
-0.02357354 0.19644636 -0.29800496
-0.12564194 0.54468656 -0.27884188
-0.19839796 0.36042750 0.08177114
0.32066512 0.00215720 0.10390714
0.12180429 -0.33171386 0.43572804
-0.11058091 0.96309388 -0.06245772
0.17106178 0.34781712 -0.25869161
0.34625700 0.00613986 -0.19034512
0.08564696 0.71869826 0.18414178
-0.20838764 -0.20912769 -0.28053817
0.23351376 0.76316673 -0.07148045
0.24740802 -0.41511053 0.36285201
-0.11133546 -0.68735206 0.31769639
0.11509185 0.86621267 -0.27236742
-0.20248996 0.65153795 -0.00600060
0.23622142 0.54860091 0.08418243
-0.06970492 0.28022915 -0.29575163
-0.25683185 -0.15217820 0.25756022
-0.12856106 0.95765013 0.05428181
-0.04471884 0.17051028 0.31061530
0.09311020 -0.37276143 0.42844170
0.22530174 0.28402340 -0.06414527
0.25189993 0.52257097 -0.24366972
-0.14279574 -0.48492163 -0.31485599
0.23302893 0.49655083 0.13595596
0.02454350 -0.39834470 0.44930983
-0.24074875 0.53938508 -0.21528181
0.35343114 -0.30684271 -0.21199393
-0.24888948 -0.41434556 -0.25600502
-0.32554835 -0.10643834 -0.27560511
0.32550669 -0.11398502 0.01219353
0.24162914 -0.61428910 -0.31599605
0.33864164 -0.44789463 -0.15679616
0.29196367 0.11215727 0.19738717
0.23454255 0.42971215 0.00975834
0.15264821 0.69181728 0.16910937
0.28047854 -0.39829278 -0.21220195
-0.17028730 0.72690284 0.09135343
-0.20731749 0.17498708 0.16771378
0.26713201 0.22134790 -0.28248435
-0.33180952 0.09627053 -0.19694164
0.30829120 -0.69436234 -0.12442805
0.32195717 -0.22696191 0.09864686
-0.18529956 -0.61341625 -0.33084208
0.10414191 -0.02808520 0.36032730
0.22578894 0.60709512 0.20053914
-0.23007630 -0.01825461 0.25720519
0.35994297 -0.56816977 -0.05593614
0.36467788 -0.19862449 -0.09010674
-0.33455795 -0.38428158 0.16835123
-0.34939045 -0.13166389 -0.15398315
0.35276157 -0.07012767 -0.04201006
0.26381624 0.52528745 -0.23551005
-0.34576648 -0.64317173 -0.21637043
-0.07615185 0.11878715 0.32610396
0.09714400 0.95582807 0.08051623
-0.17546564 0.29470569 0.29253966
-0.13349223 -0.01126023 0.33698663
-0.30343673 -0.19937119 -0.27589846
-0.18380670 0.80870223 0.08008382
-0.32908732 -0.11313260 -0.26546761
-0.09477647 -0.00135954 -0.30464208
0.32641104 -0.18162116 0.11102796
-0.12792657 -0.21812314 0.39109108
0.00842990 0.89689416 0.16753161
-0.22924046 0.75756782 -0.18331255
0.22891444 0.43943876 0.30745056
-0.30351731 -0.46924698 0.24897471
0.11302340 0.45756689 -0.28457427
-0.26609230 -0.18384442 0.24642593
0.20973177 0.88351685 -0.21471462
-0.12239246 0.95698720 -0.20334770
0.01788500 0.95779097 0.05428596
-0.11327624 0.43192568 0.38474768
-0.12360574 0.66283435 0.17613135
0.04595233 -0.69437999 -0.30080292
0.19937214 -0.04256003 0.33312181
0.37586617 -0.35274398 0.07255584
0.35294172 -0.20595363 -0.21167380
-0.04624251 0.74772114 0.13064441
-0.05251422 -0.39241701 -0.28787574
-0.20760761 0.66083395 -0.08409686
-0.20419069 0.27703953 -0.17648859
-0.35462537 -0.24581793 -0.13230485
-0.23565511 -0.44479465 -0.26953778
0.13508475 -0.52799571 0.41101673
0.34822473 -0.22005373 -0.00323306
-0.20525870 0.80116928 -0.12432665
-0.33657351 -0.08818765 -0.15803111
0.04633326 0.61237252 -0.28233999
0.14659107 0.09669909 -0.29302442
0.22534262 0.34013301 0.28889641
-0.34807909 -0.25469339 -0.23776782
0.35253057 -0.29673925 -0.21910501
-0.06074774 0.48486456 -0.29150245
0.27290770 -0.04406556 0.27268201
-0.01496902 -0.65067220 0.41736278
0.23815757 -0.55038345 -0.30094367
0.36699444 -0.21161792 -0.07694307
-0.19242363 0.89748371 -0.10762449
0.23849191 0.50554633 0.00961953
0.09100679 -0.69368386 -0.15457390
0.32724822 -0.01285475 -0.25121388
-0.33237574 -0.05838640 -0.06891597
-0.22012375 0.51873469 -0.12253474
0.21725251 0.23499462 0.17716457
-0.13662304 0.53835154 0.33145240
0.13586222 0.74031568 0.11477450
0.31900251 0.02004811 0.04121340
0.15079193 0.06338127 0.32754019
0.32768992 -0.43711239 0.22945908
0.27037016 -0.68368214 0.16063571
-0.07820150 0.51819527 0.35311463
0.03536892 -0.20984182 -0.28476575
-0.20649585 0.22191125 -0.29771402
0.36357725 -0.35808390 0.13052925
0.33755180 -0.47895139 0.20288800
0.09406278 0.65126872 0.28429598
0.31122065 -0.58345801 0.13541280
-0.11373743 -0.31189242 0.42310077
-0.12012012 0.57559931 0.36119226
-0.16684322 0.96494639 -0.17185843
0.37101072 -0.49146497 -0.02150146
-0.32765657 0.16592690 -0.13361794
0.23699862 0.62167931 0.08523393
0.31933931 -0.21880013 0.09254407
0.09193247 0.96133596 -0.20845997
0.34698981 0.09439281 -0.12192777
-0.15433055 -0.69398987 -0.01261500
-0.20295924 0.79694945 -0.04961699
-0.26007390 -0.68722755 -0.01463787
-0.26440114 -0.67181683 0.20923808
-0.19135159 -0.42997253 0.38557756
0.17043258 0.88884002 -0.25610301
-0.19310071 0.42702734 0.27369195
-0.35986862 -0.26482815 -0.17403205
-0.05778223 0.36044544 -0.29409298
-0.35004023 -0.28785267 -0.21653527
0.31805670 -0.17849055 0.03247882
-0.34553036 -0.07097965 -0.24836537
-0.19713446 0.45118260 0.22338697
-0.01339099 -0.05162749 0.37647107
-0.20103320 0.75323528 -0.26714149
0.31567103 -0.48602021 0.27622235
0.21776934 0.31597930 0.22281198
0.23743777 0.56044304 0.14346829
0.02159967 -0.04021436 0.37376693
-0.16339312 -0.66498154 0.09842949
0.09657536 0.29707709 -0.28396103
-0.33696988 0.17968911 -0.23841363
-0.04202986 0.63731569 0.31323496
-0.32703474 -0.00226463 -0.24156851
0.17829898 -0.55497998 -0.31534901
-0.20547219 0.52474511 -0.01745319
-0.27763161 -0.27441302 0.24325889
0.12280415 0.01332763 0.34744963
0.11260097 0.52181506 -0.28035545
-0.29137820 -0.63138038 -0.30163291
-0.28120607 -0.42998606 0.27764767
-0.34156859 -0.06508146 -0.23988849
-0.03606170 -0.68027329 -0.19964807
0.20728792 -0.68291116 -0.13541177
-0.00566497 0.96459407 -0.18984699
-0.35033530 -0.30710232 -0.01995872
-0.27919576 -0.10889320 -0.28308326
-0.34898287 -0.12484613 -0.17646769
-0.22647695 0.27445996 -0.22375265
-0.17416403 0.36274427 0.35821030
0.21185409 0.40532270 -0.20603675
0.08077237 -0.67773974 0.35106906
-0.20033039 0.62974465 0.09020229
-0.34891495 -0.18968424 -0.23103914
0.17123227 -0.69066679 -0.22421432
0.02781139 -0.67460585 -0.15470088
-0.18530245 0.33519924 -0.20082271
-0.34596655 -0.50765419 -0.16110648
0.00523238 -0.66923428 -0.02745485
0.29433751 -0.30313405 0.28134963
0.30507326 -0.57299143 0.18961920
-0.18923831 0.61879396 -0.26852363
0.05624434 -0.11468390 -0.28560358
-0.19085412 0.29769397 0.00608437
0.21820951 0.37495580 -0.14982212
0.34730366 -0.42769307 -0.16760676
-0.31488737 -0.56292504 -0.26977301
-0.26271951 -0.70098662 -0.21888325
0.10006784 0.01202129 0.35482678
-0.35344568 -0.33419332 0.02385020
0.07556167 -0.68185419 0.15310408
-0.18437137 0.02927810 -0.29265106
-0.11450259 0.64795244 -0.27444974
-0.31105414 -0.54465055 -0.26115406
0.17439780 0.88982379 -0.26390335
0.35288411 -0.05670266 -0.06948461
0.14052984 -0.52002734 -0.31411576
0.09776881 -0.65230340 -0.32992694
0.26904312 0.60310423 -0.13153435
0.18152283 -0.68886709 -0.29556987
-0.15076549 -0.34980372 -0.26038000
0.26435006 -0.68486023 -0.19557144
-0.07820488 -0.70022106 -0.14252377
-0.09844846 0.96452445 -0.07252155
0.32776681 0.03706378 -0.24316534
-0.01867954 -0.35775337 0.43881989
-0.14485796 0.35184675 -0.28249294
-0.20450914 0.59925395 0.04051507
0.07659756 -0.63025296 0.42737857
-0.03355133 -0.10975067 0.38224107
0.30430713 -0.18911055 0.24891986
0.20131433 -0.37255901 0.40110248
-0.17776458 -0.07709527 0.32988089
-0.32843557 -0.15947852 -0.25807902
0.01535511 -0.06760801 -0.28897402
-0.08064535 -0.67538714 0.03019725
-0.03422286 0.36604211 0.43794599
-0.28973693 -0.57267106 0.23431583
-0.09661198 0.86296493 0.14746587
-0.36506209 -0.36790645 -0.16233192
0.35290813 -0.56354475 0.01259897
-0.27874240 -0.68426764 -0.30226606
0.06380463 -0.48192763 0.44122997
0.24995947 0.83052295 -0.20031160
0.22069247 0.26630634 -0.05308180
-0.06279057 0.95617688 -0.02484336
-0.07426467 0.96411157 -0.21612912
-0.24336320 -0.32932407 0.32771072
0.08975274 0.64184594 0.29841337
-0.29073575 -0.41635579 -0.23868874
0.13805616 0.44086522 -0.27426517
0.19382179 0.18370745 -0.28251311
-0.19600052 0.86343002 -0.13916631
-0.35357276 -0.20978224 -0.16096371
-0.01063444 -0.16768458 0.40748724
-0.07810497 0.59015417 0.28519171
-0.00139038 0.96221381 -0.12495542
0.13665491 0.42389697 0.39776924
0.05455989 -0.14892033 0.40732783
0.17033434 0.49913999 -0.26272786
0.31823394 -0.08278009 0.06587580
-0.30259243 -0.09036447 0.01103817
0.25570557 0.59640563 -0.26080847
0.34434205 -0.29987246 0.14905156
-0.18407123 -0.25705564 0.37272286
-0.15085146 -0.42931473 -0.28872830
-0.12930164 -0.53893167 -0.32977557
0.01061752 -0.15454370 0.40964949
-0.11913565 0.27281994 0.38649994
0.16713201 -0.66987777 0.01500856
0.20144106 0.86980510 0.06888134
-0.08408313 -0.08468887 -0.29570737
0.32250312 -0.43019456 0.25519305
-0.01982077 -0.43482333 0.44355050
0.31750339 0.23517168 -0.09388229
-0.14131202 0.56755364 0.27239949
0.34651357 -0.54339153 -0.22445014
0.26099476 0.54787481 -0.11124189
0.21864404 -0.68103206 0.11271796
0.15410160 0.04383282 0.33109349
-0.20673326 0.64245510 -0.00997525
0.08339062 0.96055502 -0.16984282
-0.03006354 -0.36233979 0.44383472
-0.19902825 0.48305804 0.24096562
0.36662367 -0.58480632 -0.07111984
-0.16317095 -0.40024519 0.40162587
0.34127757 0.02728464 -0.03554272
-0.34261033 -0.56788856 0.03903362
0.08405697 -0.02610853 0.36739248
0.07609799 -0.69286609 -0.25661248
-0.19392355 -0.49854469 0.37622827
-0.26645911 0.22957654 -0.09103033
-0.21394269 0.25058019 -0.11216159
-0.20417248 0.45670754 0.09719829
-0.31011435 -0.62370408 0.16722974
-0.23047334 -0.00186166 0.25873923
-0.18778591 -0.28747496 0.37607452
0.09166394 -0.58213389 -0.33098531
-0.18595351 0.34913689 0.33107865
-0.15348414 0.95142692 0.00791695
-0.27369267 0.05093439 -0.28937316
0.29338294 0.04326434 0.20110689
-0.03286706 0.81345892 0.13398908
-0.35298303 -0.38899845 -0.19884960
-0.20114277 0.23285577 0.00231977
0.30217299 0.04641597 -0.27145520
0.01649174 0.34763908 -0.28473559
-0.28522032 -0.69637156 -0.15034443
0.30595168 0.26121980 -0.23914140
0.27113134 0.06055567 -0.27485937
-0.32909051 0.12327556 -0.25270405
-0.25280014 -0.45526427 -0.26315284
-0.28652301 -0.20349056 -0.27706170
0.09894834 -0.51408529 0.43525708
-0.18581028 0.41922757 -0.20849472
0.01321976 -0.16630566 -0.28973711
-0.18810363 0.27533764 -0.01936480
-0.15051508 -0.38539594 -0.27197582
-0.04323863 -0.34652480 -0.27946925
0.24538617 0.71340895 -0.12847719
0.22074619 0.08287635 0.28222924
-0.32931048 -0.38057935 -0.21697277
-0.01001059 0.80423552 0.13291031
0.04727251 -0.37250972 0.43355563
-0.05802635 0.18477993 0.32287964
0.38178509 -0.32037315 -0.08496320
-0.21542539 -0.07926285 -0.29092807
0.33156115 -0.36129084 0.24282074
-0.14245771 -0.39434636 0.41713595
-0.17942102 0.25464499 0.17898068
0.24224962 0.67692643 0.08844976
0.17593014 -0.63512939 -0.33198756
0.22096246 0.27534443 0.22109297
0.21831411 0.30343997 -0.06545591
-0.01284438 0.54060692 -0.27252588
-0.30787441 -0.29399595 0.15527879
0.05332134 -0.68756539 -0.33345237
-0.30172753 0.05098620 0.05525561
0.05967857 -0.19312686 -0.28167635
0.18695991 -0.00640628 -0.28609261
0.05840302 0.43127275 0.41664916
-0.05989610 -0.67592329 0.05295836
-0.24278373 0.53304172 -0.14922297
0.11100243 0.36686176 -0.28015363
0.18348251 -0.68945408 -0.21422845
0.17139196 0.27963015 0.38258049
0.23559064 -0.29333159 0.38266584
-0.24679305 -0.41886991 0.32671735
-0.23538141 0.25333339 -0.08569095
-0.05782091 -0.27209175 0.43331611
-0.20931770 -0.26379725 0.35796088
0.28700250 -0.04859802 0.23543110
-0.20239192 0.68322337 0.07303102
-0.31249812 -0.44491863 0.21072175
-0.25744215 -0.48736489 -0.28322992
-0.13945587 0.18414815 0.25894314
-0.08443303 0.96109670 -0.03835991
-0.23157088 0.57935584 -0.27033198
-0.33064377 -0.30216989 -0.00907645
-0.10942571 0.53422052 0.36762992
0.21038455 0.21342465 0.19994533
-0.12931912 0.89461190 0.11204019
-0.14190423 0.95566839 0.02943002
-0.07357673 -0.17339602 0.40248609
-0.35585782 -0.55818510 -0.06404731
0.14700010 0.92510271 -0.26296636
0.10538413 -0.60588074 -0.33614659
0.37314335 -0.50722760 -0.05514022
0.21848132 0.88568026 -0.17575869
-0.24355856 -0.68185538 0.04007801
-0.06118876 -0.67656314 0.24117963
0.35086673 -0.08144072 -0.12686545
-0.19667228 0.78200859 0.04936652
-0.13277799 0.32461119 -0.28184271
0.35965958 -0.28560343 -0.20424920
0.06575961 -0.12737626 -0.28245458
-0.13720106 -0.69362611 -0.16499493
0.20342162 0.24810010 0.26609844
-0.23630172 0.76715952 -0.25302967
0.12000623 0.59551823 0.33526805
-0.19585881 0.38212109 -0.14650048
0.27091426 -0.43210840 0.33843222
0.21720187 0.46127400 0.31382105
0.04340418 0.76009285 0.18149151
0.25422314 0.59782726 -0.21864095
-0.10327472 0.57528794 0.33532402
0.32017979 -0.01600547 0.07679324
-0.05242452 0.45360166 0.39323607
0.08743849 0.56562817 0.39472568
-0.26360387 -0.53910458 -0.29633045
-0.06070102 -0.39060694 -0.29602277
-0.30176437 -0.68787080 -0.14128141
0.22843155 0.81371093 -0.13426378
0.12877284 0.50925440 0.36723751
0.07624805 0.59291244 0.40508118
-0.00478281 0.49673006 0.35902032
-0.35214952 -0.53386366 0.07689983
0.28849429 -0.48175412 -0.24743757
-0.29897732 0.07014472 0.06474549
0.18216489 0.57567072 0.29124790
-0.19542968 0.34501082 0.22141056
-0.35298461 -0.22207701 -0.22233006
0.35544631 -0.03171250 -0.15843008
0.11557173 0.94645500 0.08076520
-0.04845881 0.61146772 0.40596822
-0.13597284 0.70203006 -0.27384323
0.02733592 -0.00851281 0.36629227
0.35978338 -0.12612447 -0.14657584
-0.36949134 -0.41084528 -0.07884847
0.01810367 -0.23770142 -0.28590426
0.31989443 -0.68805206 -0.09373142
-0.23840626 0.55892181 -0.17741933
0.30911669 -0.17776123 0.21199113
0.14628287 0.29782048 0.41638654
0.16165264 -0.55461055 -0.32144833
0.22558169 0.32735097 0.26794869
-0.00391971 -0.67373967 0.33302870
-0.36711004 -0.41517127 -0.12943698
-0.10957381 0.83858800 -0.26646745
-0.00346707 -0.68013489 -0.11794776
0.02612721 -0.68152320 -0.10792707
0.30690557 -0.68705857 -0.20987651
-0.12637383 0.57889587 0.29401195
0.19494535 0.10616945 0.29281271
0.10421681 0.51940405 -0.28024471
0.12083424 0.68184447 0.18380567
0.02245620 -0.50469327 -0.31626579
-0.33146518 0.06740698 -0.12564790
0.22414298 0.33159935 0.04260319
-0.04175346 0.82594544 -0.27538756
0.31761703 -0.54807436 0.19064724
-0.11015852 0.64853489 0.21204562
-0.15144449 0.43363640 -0.27333367
0.14471285 -0.68494594 0.07175608
-0.09008786 0.86242980 0.15100980
-0.21324238 -0.14285141 0.31052443
-0.20770015 -0.32976070 -0.26340029
-0.02527503 -0.41081178 0.43241513
0.16446070 -0.68381155 0.27693626
0.18677188 0.32109341 -0.26019791
-0.27156350 -0.53655708 0.28379542
-0.23514622 -0.23173419 0.30813727
0.13417491 0.21249521 -0.28894338
-0.20444693 -0.67319959 -0.32760620
-0.02185767 0.17149816 -0.29848191
-0.18949480 0.31877112 -0.14140567
-0.20544873 0.52201593 -0.07261570
0.02139495 -0.13364697 0.39902762
0.19438934 0.39403465 -0.24718609
0.22430459 0.91371369 -0.09259741
-0.17849201 0.91274571 -0.22639745
-0.10957545 -0.68555045 0.33200240
0.22358023 0.27683240 0.07901909
0.14644422 -0.11079571 0.37212738
-0.14944845 0.21048741 0.25857246
0.03836840 0.72053564 0.23883271
0.02430595 0.09666580 0.33847645
0.25007394 -0.04117469 -0.27678460
-0.06698525 0.05210744 0.34751898
0.07668606 0.63839847 0.36107296
-0.14722288 -0.67254698 0.20218229
-0.16356154 0.18323694 0.22470292
-0.08622676 -0.38767648 0.43043929
0.17331523 0.52876782 0.34189612
0.23646453 0.21305287 0.13354604
-0.28475699 -0.00567228 0.14434096
0.12209135 0.41881126 0.40882781
-0.19648264 0.41950634 -0.19834425
-0.06589161 -0.67168301 0.05312287
0.17580774 -0.46173871 0.41577876
-0.15676977 0.88810015 0.08030924
0.24150907 0.50283009 -0.24357209
0.37492403 -0.33711350 0.07401241
0.23791514 -0.67762262 0.25338238
0.32306013 -0.36696538 0.26020274
-0.24195428 0.17101932 0.14239305
-0.32238063 0.12838930 -0.08665243
0.23435049 0.55133474 -0.07049827
0.34120306 0.02087352 -0.20990568
0.04358185 0.32427737 0.44869313
0.30639893 -0.56613594 0.20958732
-0.33110014 -0.49717170 0.15893200
-0.05108117 0.63355285 0.30197728
-0.23175105 -0.61795855 0.30911535
0.28450096 -0.52930808 -0.27577803
-0.18090232 -0.10072386 0.33040723
-0.22586702 -0.29305464 0.34081596
0.12643024 0.74980718 0.11976597
-0.30719543 -0.05482234 -0.01451000
0.37728792 -0.27804926 -0.08683147
0.12392437 0.17662333 0.30390820
0.01558591 -0.67605633 -0.10088234
-0.22382304 0.03100235 0.25482020
0.15546924 -0.69030315 -0.26820803
0.12881820 -0.15008822 -0.28012222
0.03919184 0.29364645 -0.28364608
-0.07689027 0.85942656 0.15957950
0.08366081 -0.68335479 0.11548970
-0.20536524 0.06470188 0.27036595
0.09761311 0.25982434 -0.28397304
-0.32580718 -0.37356657 -0.21626809
-0.35334727 -0.55960876 -0.09331875
-0.28523698 -0.66800028 -0.31148764
-0.05719908 0.08677711 0.33870730
0.09831475 -0.67988563 0.05372471
0.25205892 0.27783999 -0.16115817
-0.01006818 -0.68788648 0.18720961
0.23146261 -0.61198735 0.30772659
0.04462497 0.65984797 0.36607093
-0.18037978 0.63796729 -0.27149299
-0.12771463 0.74940503 0.08907316
-0.06592298 0.48260191 0.36569723
0.11058289 -0.68844646 0.16164050
-0.12741959 0.29650727 0.39693186
-0.17641859 0.17961182 -0.29961541
0.12512708 -0.62289929 0.39616075
0.08476257 0.71147478 0.19796620
0.18997897 -0.36059487 0.41057071
0.12777527 -0.27917832 0.42468125
0.20851763 0.22103196 0.20467052
0.20963973 0.40160584 0.35888237
-0.01466871 0.20381930 0.36112198
-0.13403328 -0.58255559 0.38793880
0.02920042 -0.62712258 0.42662349
-0.19862413 0.24616379 -0.01831491
-0.19648786 0.69426054 -0.26023784
0.27123579 0.21901852 0.06957568
-0.06714162 0.69007200 0.19324823
0.24440892 -0.67318684 -0.01605479
-0.06184068 -0.11995611 -0.29519165
0.08136190 0.23226082 -0.28294128
-0.10401315 0.96373874 0.02564869
-0.09213934 -0.08804388 -0.29427025
0.04129558 0.79820800 -0.28078735
-0.06469154 -0.67841917 -0.12999710
-0.19175486 -0.67590058 0.11471856
-0.13008550 -0.62861669 -0.34661260
0.37328663 -0.36888048 0.08430760
-0.29966834 0.08122404 -0.29215494
0.36306426 -0.52332908 -0.02787843
-0.21747160 -0.69441611 0.01811641
0.33318272 -0.39638382 0.23134959
-0.20426567 0.52333510 0.08306218
-0.02879225 -0.64840692 0.41598326
0.14843026 -0.67758107 0.18647052
0.34355626 -0.66522545 -0.01677419
-0.29803830 0.10565253 0.05574247
-0.20249525 0.60146213 -0.09106386
0.01206119 0.78940994 0.13901977
-0.15626840 0.34937629 0.37328473
-0.18880701 0.88926256 -0.07581504
0.22549629 0.23771402 0.08424701
0.37757781 -0.32240948 -0.02391774
-0.27112889 -0.06404953 0.19670554
0.26115257 0.18364748 0.19517423
0.12493500 0.67475581 0.19765602
0.04742589 -0.57792687 0.43353656
-0.02537070 -0.68219149 0.34195405
0.01599227 -0.21939075 0.42298621
-0.10765042 0.23160054 0.34163907
-0.34289840 -0.67442155 -0.19342315
-0.16743536 0.31197825 -0.26211420
-0.22260582 0.19803159 0.09344724
-0.02531255 -0.30898920 0.44876370
0.31727403 -0.02604169 0.11423969
-0.12272316 -0.66879117 0.08439209
0.31612393 -0.03881027 0.09526125
-0.22124642 0.48267567 -0.19720119
-0.13198197 0.32304120 0.40461460
-0.05275995 -0.53873134 -0.32556650
0.34042937 -0.09347308 -0.01745253
-0.36545965 -0.43964666 0.03567776
-0.02911301 -0.67910212 -0.33443138
0.04373701 -0.11573154 -0.28773293
-0.23416427 0.60650170 -0.26967132
0.01019926 -0.03127733 0.37146497
-0.36734045 -0.36042547 -0.14164975
0.15155175 0.58418852 0.33145240
-0.10700836 0.69176513 0.16195369
0.31511560 -0.07609831 0.16190331
-0.28775722 -0.69185537 -0.08703008
0.01277858 -0.58666229 -0.34230390
0.08943105 -0.68064904 -0.01471703
0.31131926 0.19160572 0.06017333
0.36100131 -0.14026266 -0.17163807
0.17281656 -0.39804876 -0.27226660
-0.10219802 -0.35361606 -0.26929492
0.24368212 0.83428097 -0.23553652
-0.29533410 0.01615740 0.10423942
0.30391419 -0.10859938 0.20974615
0.33939496 -0.68338645 -0.05875681
-0.37575284 -0.47300035 -0.11164014
-0.20225710 -0.68291241 -0.33318821
0.00544605 0.96697438 -0.02831783
-0.06676225 -0.66863346 0.11256740
0.27191103 0.19206291 0.16117013
-0.27009860 -0.31015337 -0.25990820
-0.30411044 -0.47179037 0.24104238
0.22486383 -0.67726099 0.26920035
0.28618476 -0.53996116 0.27875644
-0.10727035 0.12369769 0.31583133
-0.13867618 0.59599257 -0.27330589
-0.04299038 -0.60012305 0.42677742
0.38147032 -0.44140381 -0.06074223
0.10377090 0.18890531 -0.28700149
0.22796763 0.82288462 -0.13045476
0.21860264 -0.22117087 0.37447307
-0.35054275 -0.24005216 -0.23056805
-0.30490664 -0.26572457 0.12040412
0.03064184 0.60373402 -0.28136513
0.33275962 -0.68793595 -0.21255010
0.10589422 0.23181723 -0.28267032
0.11299692 0.59609711 0.38052353
0.08287065 -0.68777341 -0.28782943
-0.02646861 0.58509195 -0.28501624
-0.25637749 -0.25377312 0.29019397
-0.31427035 0.20749435 -0.10293977
0.21277858 -0.28858596 -0.25741452
-0.22495902 0.26505566 -0.16650614
0.04959571 0.96626168 -0.00931405
0.02339451 0.02243850 0.36171111
0.20253001 0.86618584 0.07993937
0.27106667 0.64174998 -0.16894312
0.07472418 0.95867079 0.08762009
-0.30717197 -0.25222039 0.00618502
-0.29782870 0.09100231 -0.00907707
0.22079460 -0.59217495 0.34912893
-0.19120796 -0.67660326 0.09790523
0.05380207 0.96341419 -0.15220663
0.38238102 -0.34434655 -0.02024137
-0.11722603 0.57948321 0.35264221
-0.19853474 -0.51030385 -0.30720380
-0.28277209 0.05136787 0.11855572
0.16537464 0.64538223 -0.26363936
0.35284984 -0.08073221 -0.09570190
-0.25331411 -0.40906054 -0.24941978
-0.03900592 -0.62985194 -0.34396869
-0.19447513 0.33479857 0.10534158
0.08111758 0.85817051 0.15668996
-0.17294826 0.47894159 -0.26241326
-0.00664572 -0.67102009 0.13426009
0.34855637 -0.33835337 0.19126132
-0.19555394 0.40406874 -0.13124400
-0.01474706 -0.17896438 0.41073257
-0.09439151 0.29817700 0.41884908
-0.26632389 -0.08682123 0.22302432
-0.16970687 0.31476590 0.33611530
0.26058307 0.67001987 -0.21267116
-0.28614271 0.22741866 -0.10396703
-0.23801087 0.80570567 -0.23762822
-0.08061508 0.83638126 0.13677511
-0.35750872 -0.27072147 -0.09348005
-0.35487008 -0.56504691 -0.06308003
-0.19412087 0.37366700 0.30020192
-0.17228386 -0.67997473 0.16115120
-0.16316681 -0.11127275 0.34360263
-0.12109949 0.79003549 0.10718756
-0.13886529 -0.68849742 -0.13714978
0.09900081 -0.68801898 -0.31895190
0.09779570 0.64615011 0.26238501
-0.26085865 0.17851412 -0.29356524
0.28154680 -0.20547789 -0.25073159
0.16739361 -0.67777526 0.00251452
-0.16595840 -0.67085737 -0.05749720
-0.17270416 0.33888316 -0.24663293
-0.28773904 -0.10854322 0.18073317
-0.15424493 0.71348190 0.11853882
-0.33466637 -0.55776972 0.12603188
0.25526184 -0.33261925 0.35941228
-0.23842107 -0.69096082 -0.19814779
-0.27664420 0.24874538 -0.28677946
0.05771980 0.35741174 0.44024649
-0.01212932 0.78597522 0.14480186
0.30863914 -0.62619686 0.15269497
-0.05922842 -0.49197727 0.42392266
-0.35631245 -0.46510887 0.06418511
0.26919064 -0.33069453 0.34800285
-0.33790201 -0.19432268 -0.04061795
-0.05289846 -0.58225501 0.42499852
-0.19553420 0.39765704 0.14022943
0.04717835 0.63779610 0.40498605
-0.21977293 0.25894272 -0.13872136
0.15620616 0.61062229 0.23593068
-0.19522609 0.89166754 -0.05575621
-0.20457174 0.42397049 -0.04542555
0.20759349 0.70799112 0.11759134
0.19804256 -0.67808419 0.07449332
-0.30787674 0.22715513 -0.13865063
-0.19609976 0.31578070 0.02931775
0.00274430 -0.25237817 0.43236786
-0.28708926 0.17132834 0.05688088
0.11275107 0.95447868 0.06678589
0.04594876 0.96290720 -0.12517995
-0.07610326 0.57520413 0.39234641
-0.36550468 -0.52248788 -0.05299357
-0.34145856 -0.08762126 -0.25984424
-0.18319084 0.91576844 0.00465336
-0.30608898 -0.12102425 0.02930807
0.22660747 0.27197862 0.05709822
0.01794454 0.17353086 0.33663964
-0.11686202 -0.68055964 -0.06966285
0.22486439 0.38259482 0.19466168
-0.18201703 -0.30914229 0.37796977
0.23377870 0.79717785 -0.14178465
-0.18132797 0.26529956 0.15818450
-0.23857644 -0.02837324 -0.29207292
0.17470697 -0.52019751 -0.30462879
0.20764336 0.45468259 -0.23743835
-0.07146042 0.95790517 0.00964716
0.22186315 0.20475140 0.15110269
0.01851559 -0.59965080 -0.34436217
0.32221752 -0.68287414 -0.02719560
-0.23727730 0.70673227 -0.26135257
-0.03930941 0.48425466 0.37687939
-0.19890074 0.32464522 0.05735930
0.28075814 -0.68793070 -0.04672576
-0.00779975 0.39349264 -0.29128894
-0.11644369 0.56733555 0.36675072
0.24337634 0.64590496 0.11066124
-0.16325331 -0.67742461 0.12164627
0.21534652 0.27067995 -0.28290054
0.19809885 -0.02716851 -0.28572977
0.09162674 -0.68790036 0.29128414
0.02276810 -0.26654541 0.44158250
0.25655362 0.59567487 -0.18884805
-0.22646353 0.49049428 -0.21925166
-0.18875344 0.91933393 -0.01808601
-0.34729284 -0.15332913 -0.05554166
0.31673229 -0.20237491 0.03358748
0.20164974 -0.69379395 -0.25891584
-0.02819549 0.95995498 -0.25916967
0.16267636 0.40229753 -0.27605963
-0.34734198 -0.31063890 -0.00195147
-0.18183798 0.50325370 0.26156434
0.25329760 0.21864834 -0.28266984
0.10516515 0.96668178 -0.17021170
0.32673898 -0.14443028 0.00773827
0.32059950 -0.18903169 0.09495445
0.18152079 0.96300948 -0.10958408
-0.35440856 -0.18519819 -0.16199110
-0.02410582 -0.67574584 0.10413720
-0.13493426 -0.51421249 -0.32358214
0.05409085 -0.26472181 -0.27724594
-0.19619983 0.86575478 -0.18851501
-0.22164954 -0.29045725 -0.26034212
-0.34082747 -0.65156066 -0.27017930
-0.31174269 -0.11010678 -0.01692463
-0.31091732 -0.47279453 0.22221355
-0.23176941 0.05511516 0.22885914
0.19557367 0.85292691 -0.26289758
-0.28365904 -0.22685114 0.22568324
-0.20221956 0.80373448 -0.09335686
-0.11880217 -0.09505686 -0.29404259
-0.11858765 0.53493035 0.35216856
0.16841759 -0.14206347 -0.28564388
-0.08764017 -0.34379968 0.43756756
-0.21762607 -0.67780364 0.07409497
-0.31002972 -0.27525249 -0.01313041
0.33732775 -0.66418970 -0.00121021
-0.21002916 0.51745534 -0.03374131
-0.33689243 -0.15856931 -0.25082555
0.23548543 0.79464847 -0.26358959
-0.10640485 -0.44904900 0.42429283
-0.01430419 0.08010804 0.34504020
0.16889967 0.15178005 0.28448108
0.23282874 0.71179801 -0.26759723
0.00923229 0.96329170 0.08063367
-0.32073274 -0.28094482 -0.25939974
0.34555018 -0.03220868 -0.19666931
-0.21052706 0.13578631 -0.29891565
-0.26604515 0.28321159 -0.26625091
-0.07881014 0.30349377 -0.29065436
0.07399420 0.76222962 0.13940567
-0.18132916 0.63765544 0.17761482
0.14902259 -0.66124028 0.18756439
0.36650586 -0.49713624 0.10424086
0.18654373 -0.68148035 0.21857418
0.33134845 -0.38276780 0.24497080
-0.21279562 -0.43590885 0.36205050
0.06451851 0.34523910 0.44400814
0.36776611 -0.34263313 0.09613943
-0.10002066 0.47684297 0.36407116
-0.14865375 0.54553914 0.29486528
0.21024093 0.85216707 0.06591953
0.22683886 0.78212422 0.02107018
0.31783858 -0.52928412 0.22207722
-0.08050779 -0.67540944 -0.24716038
-0.31145400 -0.48002309 0.21951224
-0.32667091 0.15394980 -0.24515477
0.23140369 0.37681434 0.09139027
0.26105052 -0.68580359 -0.14862961
0.16060847 0.62663060 -0.27153516
-0.18229194 0.14460856 -0.29731140
-0.19397429 0.61511290 0.18482016
0.33060020 -0.18168223 -0.24130327
0.12977071 0.22435921 -0.28361681
0.09614471 0.65360457 0.25774589
-0.00590675 -0.65787888 -0.35347319
-0.14049946 0.31786305 -0.28010979
0.37679440 -0.46544600 0.07563248
-0.18176338 0.41775250 -0.24057809
-0.18402919 0.03669877 0.29387370
-0.32795620 0.16833358 -0.18175545
-0.05557843 0.31963500 0.43157321
0.03712892 0.71365529 0.27279788
-0.03658916 0.49999157 -0.28253040
-0.19644314 0.42145553 -0.14124694
0.37773147 -0.59626400 -0.14750405
0.23781595 0.49990240 0.21824057
-0.28698421 0.07831013 0.12354032
0.13483365 0.28950283 -0.28007698
-0.33397362 0.06094059 -0.13142049
0.36214796 -0.16337731 -0.11166893
0.24514061 0.52723432 -0.25360599
-0.15612446 -0.68592286 -0.00688427
0.23329683 0.25552192 -0.05426842
0.16867961 0.29169756 -0.27792311
0.09391489 -0.68729174 -0.30307907
0.27199429 0.18405989 0.18285742
-0.29230589 -0.05544826 0.10882199
-0.35681242 -0.32760748 0.02215643
-0.27413040 -0.61818796 0.23910104
0.10427164 -0.20499146 0.41491678
0.35913792 -0.57113862 -0.19657567
0.01595058 -0.68127978 -0.32892826
0.23059979 -0.48251855 0.37771520
-0.34688434 -0.58334160 -0.14219493
0.16265041 -0.66248465 0.34762111
-0.32419753 -0.61181384 -0.27421084
-0.05837526 0.64507371 0.25220686
0.24690075 -0.17684272 -0.26259896
0.14095064 0.85655749 0.13719660
0.24834886 0.60636848 -0.27379385
0.18702877 0.19719754 -0.28360260
0.23056248 0.46172959 -0.02040111
0.11811232 -0.63508964 0.40386939
-0.35622516 -0.30676109 -0.18658711
0.31076798 -0.16175264 0.03180494
0.20674866 -0.08948781 0.34605694
-0.20354074 0.54034150 0.08665150
0.04029300 0.95935440 -0.22520173
-0.29038876 -0.19838017 0.19096094
0.35904670 -0.16338283 -0.07328235
-0.12478926 -0.30112898 -0.27353022
0.31490636 -0.08560908 0.04855819
-0.04036896 -0.68160284 0.31441841
-0.26080957 0.06937556 0.18504225
0.12186015 -0.13401541 0.39140704
0.22839490 0.46835726 -0.13589339
-0.32299665 -0.34144902 0.18722720
0.11462758 -0.35761163 -0.26733938
0.19793619 0.44858187 0.34099832
0.25185376 0.05945655 0.26278961
-0.09563491 0.01792208 0.35175523
0.21085657 -0.26499748 -0.26219136
0.25364000 0.07576425 0.25427407
0.15836871 0.67952901 -0.26547980
-0.16078267 0.24701613 0.26740757
-0.30524522 0.24815211 -0.16504788
0.02899243 0.96605510 -0.14207797
0.31072006 -0.67839605 0.09169604
0.25143307 -0.05840895 0.30078653
0.33050731 -0.59326363 -0.27117684
-0.34338963 -0.66254234 -0.20181881
-0.08954083 0.95545453 0.01451995
0.16341610 -0.68544346 0.26303566
-0.27645069 -0.40103561 -0.24968791
-0.20252138 0.73847711 -0.12363882
0.02183766 0.96553409 0.09235662
-0.07593499 -0.52273273 0.42555591
0.34946862 -0.06168135 -0.20097911
0.24802029 0.75956511 -0.15327452
0.22658239 -0.11015183 0.33323658
0.24153994 -0.56414276 0.34485704
-0.09100085 -0.14868382 0.38331163
-0.06544616 0.17299666 0.30997485
0.33277282 -0.63082558 0.04903323
0.35330039 -0.00496294 -0.09187487
