-0.04362442 0.61250049 -0.33952141
-0.01522206 0.58272719 0.40680555
-0.75905895 -0.02834892 0.20084888
0.35010496 -0.19453797 -0.45428172
-0.00246936 0.73640811 -0.26117289
-0.21920122 0.12124290 -0.64622700
-0.14641349 0.02641007 -0.82851458
-0.51292264 0.47167924 0.03636293
-0.20912486 0.69477707 -0.08023661
0.07018752 0.79235029 0.15757053
-0.06589539 0.06482883 -0.85733628
-0.03097593 0.79884714 0.19515657
-0.10760305 0.01424290 -0.85345328
-0.22616485 0.01739864 0.76442116
0.37677416 0.48576877 -0.14700790
-0.45797157 0.37126529 -0.15994546
-0.11367992 -0.07515508 -0.78776801
-0.27641809 -0.14980550 0.56881231
0.69832641 0.20144667 -0.10261467
0.31626359 0.01621044 -0.66840535
-0.82490295 -0.03797986 0.13983060
0.29770908 0.10762822 -0.61020768
-0.42977345 -0.02422077 0.53590208
-0.30945882 0.61552072 0.07517637
-0.47937199 0.47963524 0.05237736
-0.04610363 -0.90518397 -0.00504513
0.02147123 0.71819896 0.24956904
-0.71032840 -0.19610083 0.09313271
0.27893493 0.66406631 -0.06178179
0.00031907 0.31982252 0.69047737
0.40524241 0.29286596 0.32467809
-0.50811762 0.35196391 -0.13021073
-0.21043782 0.63422978 -0.14720963
0.82003695 -0.04491464 -0.11972170
0.02253081 0.30466694 -0.67239976
-0.31163985 0.65317845 0.04719430
0.32696342 -0.66332757 0.00550629
0.56464386 -0.02273753 -0.41617066
-0.00208030 -0.02260001 -0.94873130
-0.09291338 0.82270181 0.07788504
0.04502486 0.10411513 -0.84818494
-0.15268630 -0.69997120 -0.11565983
0.40195242 0.59350103 -0.00907606
0.33419076 0.59759712 -0.07479552
-0.78161478 0.02403434 0.20294404
-0.17479093 0.09216669 -0.72902387
0.46761417 -0.08367165 0.46216196
0.13473134 0.43238199 -0.43566301
0.04480235 -0.73331535 -0.20704859
0.17444421 0.69534051 0.14496818
0.25792563 -0.25581992 0.50072461
0.25484970 -0.62349111 0.13293211
0.04576317 0.66081059 -0.29437673
0.22953576 0.74017537 0.05291608
-0.06231442 -0.32168317 0.61224258
-0.33890757 -0.17865066 0.47491822
0.08579636 0.57686007 -0.34234235
0.06748002 -0.16590273 -0.77457345
-0.75293082 -0.14237785 0.09742984
0.10419665 -0.52242845 -0.35608485
0.40777585 0.42094395 0.18722306
-0.11810379 0.46432424 0.42153880
-0.42922214 0.02768204 0.56616330
-0.07792322 0.67933297 0.23754321
0.11746724 -0.04724517 0.84056854
0.42884842 0.29089203 -0.28462714
0.19756073 -0.19023836 -0.61633468
0.24656543 0.26810277 0.50057280
0.05553495 -0.62761909 0.31361830
0.11414903 -0.81193012 -0.05092796
0.30262733 0.52186722 -0.18665908
-0.11252453 0.79998493 -0.07080960
0.28443235 0.47434103 0.26849267
0.55671734 -0.26086429 -0.19093427
-0.35474515 0.53850073 0.11199327
-0.01542499 0.15939748 -0.81058890
-0.30250111 0.32213333 -0.35933277
0.13605398 0.46479541 0.41661820
0.02613680 0.65053940 -0.32902676
0.51116347 -0.29475784 -0.19884571
0.11171883 0.04334730 -0.85992193
0.24452546 0.26732445 -0.49494010
0.40310577 0.21679258 -0.38858494
-0.13819320 0.65771574 0.21286333
0.02232810 0.50317395 0.49672487
0.83194512 0.03679304 -0.13482153
-0.30894417 0.46698314 0.22673494
0.59490526 -0.39058405 -0.01559007
0.23590164 0.56739557 0.21156348
-0.39560637 0.09098841 0.50535184
-0.19896910 -0.39671248 -0.38362509
-0.20203090 0.75726366 -0.02303470
-0.00166783 -0.00428616 -0.97392440
0.41284290 -0.44373259 0.15103391
-0.04783246 -0.55948222 -0.37657171
0.05581864 0.67599201 0.28745291
-0.27086926 0.05985682 0.65424782
-0.33949119 0.59495449 -0.05510050
0.13220035 -0.18682536 -0.66232836
0.68020326 0.03254533 -0.28938815
-0.28149810 0.22528061 -0.48806590
0.37370005 -0.54711002 -0.07055899
-0.09958238 0.65696293 0.25276116
-0.25389194 0.26166117 -0.46867844
0.21243501 0.46932107 0.33762974
0.52159715 -0.14157510 -0.33550939
-0.30204582 0.19864675 -0.49268913
0.20207107 0.54994172 0.26929274
-0.26429293 -0.46220475 0.26705885
0.23454013 0.30059785 -0.46577433
-0.12526037 0.31205872 0.55581534
0.25546718 0.52569669 -0.22485296
0.17577738 -0.55333692 0.28543541
0.43974853 0.29192990 0.30097824
-0.88639247 -0.03732007 0.07622708
-0.49366403 0.42790419 -0.06763927
-0.06488356 0.13354711 -0.80127084
-0.12612274 -0.58589399 -0.26868236
0.16722064 0.73475802 -0.10670049
-0.03324218 0.48590550 0.49490899
0.71489602 -0.17480865 0.12534940
0.12696034 0.72814727 -0.14469856
-0.21635470 0.58528137 -0.18837349
0.09698163 -0.29882598 -0.57557374
-0.79583234 0.00036538 -0.18652794
-0.14815143 0.25057578 -0.59805322
-0.55353242 -0.16616040 -0.24954692
0.63932168 -0.27201685 0.09891457
-0.04192836 0.60670471 0.35778633
-0.38058239 0.37763774 -0.22587880
0.35678774 0.35595441 0.30782485
0.52966404 0.47217527 -0.00305774
0.03777219 0.89922720 -0.07587283
0.17306758 0.66297209 -0.16977480
-0.44775283 0.36529568 0.19364183
-0.02481051 -0.28574416 -0.66519499
0.97462684 0.01971705 -0.01783282
-0.14476132 0.49060214 0.37388223
0.65508646 0.21012345 0.15600021
0.56113935 -0.10789362 0.33625454
0.04927487 0.42678475 0.53847855
0.54011035 -0.01129686 -0.45773369
-0.25471726 0.47545794 0.28258511
0.03753158 -0.13343003 0.84684604
0.64324886 0.03829114 -0.31550989
0.54958224 0.27893633 0.17839317
-0.47355551 -0.43260333 0.09301208
0.01878580 -0.09699956 0.90543795
-0.29684001 0.58936244 -0.09778333
0.20595425 0.65828514 -0.14293286
0.34927177 0.56929994 -0.08779780
-0.10613247 0.36702695 0.52401108
0.07010593 -0.31152323 -0.62010789
0.44330931 0.13559969 0.43772143
-0.01407730 0.03624410 -0.93483526
0.26567745 0.17594637 -0.55894262
-0.34074572 0.40558863 0.26983735
0.57510072 0.13148968 0.31813401
0.56134766 -0.07750139 -0.36509672
0.01665862 0.17476301 0.83101708
-0.59283328 0.12982421 -0.26834491
-0.27864826 0.56275147 -0.14646721
0.29283330 -0.01361819 -0.69560182
-0.39248887 0.57371080 0.03315536
0.31531659 -0.46744356 -0.21268494
0.68988407 -0.29623526 0.01934379
0.36083084 0.53190279 0.12802151
0.62527579 0.04931045 0.34265417
-0.40929785 0.48225760 -0.08202685
-0.00621881 0.21975447 0.78983772
-0.02582934 -0.21064645 0.77042925
0.32369614 0.66678029 -0.02647886
0.28695762 -0.08552825 0.63863373
-0.07296941 0.84512162 0.09216340
-0.26486355 0.71309692 -0.02412117
0.75002307 -0.10839475 0.16714120
-0.16862226 0.38195625 -0.43606302
-0.12826328 0.29249442 0.57932693
-0.22031496 0.34874159 -0.42054150
0.82857215 0.10954228 0.09829846
-0.35437366 -0.04205195 0.59443277
0.28382316 0.71050483 -0.00830487
-0.04757941 -0.74068141 -0.18907215
-0.00084782 -0.93959457 0.04085116
0.54957610 -0.42974231 -0.02234799
-0.25089866 0.46683839 -0.27121234
0.80017477 0.05471910 0.17237903
0.21332069 -0.20870684 0.58548373
-0.55065042 0.13479482 0.32733849
-0.11881039 -0.65500283 -0.20187265
0.14332713 -0.46131736 -0.40121821
-0.01385399 0.68146360 0.31218335
-0.74238932 -0.16416371 -0.07270163
0.04096521 0.39189366 -0.58546436
0.02158988 -0.83532929 0.14795530
0.42985114 -0.36008933 0.21920586
0.43251103 0.14025435 -0.43319765
-0.67650825 0.10265141 0.22160366
-0.77099687 -0.11028601 0.11030426
0.03473219 0.22271147 -0.75343210
0.12582266 0.59620088 0.29406685
-0.53459269 0.36737746 -0.06653336
-0.13163069 0.75721526 0.11444317
0.01952638 0.97085941 -0.02171581
0.55476421 -0.28332999 -0.17068130
0.09378779 -0.20241132 0.71471244
0.65586442 0.33936062 0.01544507
-0.11662742 0.60178608 -0.28653249
0.13641015 -0.69231981 -0.17334919
0.09956509 0.50992203 0.40132716
0.51276135 0.06300965 -0.43224952
-0.44583759 -0.14412101 -0.39686900
-0.27788410 0.13913895 0.57747388
-0.17739899 -0.43134543 0.38367820
0.28879324 0.12158109 0.61560130
0.26213545 0.43397865 0.34183237
0.13962577 -0.32955691 0.54744953
-0.01061928 0.94171315 0.06038732
0.01593760 0.38700083 0.62155622
-0.31876838 -0.27158055 -0.39222056
0.02969323 -0.39831191 0.57556516
-0.61739063 0.31163198 0.05739371
-0.58676916 -0.29096252 -0.08618508
0.25868666 0.17575951 0.58669579
-0.36277556 0.22149201 -0.40437552
-0.27697948 -0.08667053 -0.62831688
0.64468896 -0.28134578 -0.07590173
-0.43437555 0.31369001 0.24595125
0.30104369 -0.67216527 0.04302879
-0.01863089 0.88990867 0.10849798
0.71124423 -0.18163989 -0.09822372
-0.79464948 -0.11226460 -0.07631639
-0.30080381 0.65699327 -0.04220819
-0.33379608 0.34832010 -0.30416173
0.02122716 0.33471712 0.65954500
-0.23381300 0.16847689 0.60560614
-0.69978029 0.23474725 -0.05391451
0.55055672 0.05849048 0.41036731
-0.57657039 0.08746323 0.34233174
-0.35159570 -0.26929986 0.36623204
-0.07116930 -0.06057148 -0.83691633
-0.09446024 0.75078863 -0.15389051
0.54006755 0.19564499 0.28480816
0.13009545 0.54423559 -0.33264896
-0.29326841 -0.56658328 0.14334288
0.38013044 -0.15522136 -0.46957657
-0.05403422 0.55769080 0.38302693
-0.74611259 0.17028566 0.09714802
0.47112113 0.24420941 0.30604875
0.30143771 -0.63769579 -0.04090063
-0.36331436 0.38565502 0.25307566
-0.21751337 0.26360250 -0.50896305
-0.17950590 -0.20854902 -0.60265392
0.35246256 0.38717276 -0.25807178
0.47289160 -0.52141523 -0.01814175
0.15271935 -0.37323117 0.48288524
0.49281344 -0.39865690 -0.10143939
0.14168188 -0.51676702 0.35284349
0.11973558 0.82078469 -0.07712481
-0.04603318 -0.36808136 -0.56480497
-0.24280001 0.55384594 0.20436685
0.07895018 -0.51395458 -0.40880916
0.02768525 0.05532064 -0.91745508
0.64954555 0.11419392 -0.24389966
0.35606122 -0.00597037 0.64564848
-0.57847387 -0.03991746 -0.36185265
-0.07748369 -0.79566896 0.11928229
0.36233261 -0.49998540 0.13272038
-0.40603358 0.26163250 0.34009948
-0.43547583 -0.39568520 -0.15633878
-0.07849605 -0.43794942 -0.46014902
0.02725257 -0.58017480 0.39567706
0.30551925 -0.64424938 0.06437571
0.79674190 0.18852352 0.02599265
0.25293076 -0.59853399 -0.13892391
-0.21569169 0.44350123 -0.32872581
-0.38310230 -0.09343518 0.52141303
-0.05416515 -0.26514295 -0.65719026
0.42691219 0.52350235 -0.04884712
-0.07803647 0.64482278 0.28034058
-0.25258145 -0.16803946 0.57501024
0.39783809 0.13461924 0.48606881
-0.48352545 -0.16196863 0.35117561
-0.20367235 -0.43760157 0.35040253
-0.48307762 -0.49397710 -0.01131125
0.28923014 0.33755845 -0.38168547
-0.51272762 -0.03106971 0.45954433
0.20587957 -0.45407397 -0.32012171
0.24440573 -0.66523987 -0.07879084
-0.37204349 -0.45654041 0.17300723
-0.19841082 -0.68562353 0.11255763
-0.43754598 0.46294269 0.11655435
-0.15050988 0.40630862 0.45540833
-0.44158003 0.52125901 0.00613904
0.37704793 -0.55734903 0.07052670
-0.10142631 -0.48026383 0.41032609
0.16600694 0.35418040 0.50137955
-0.09143186 -0.39721996 -0.48439518
-0.83262360 0.02894431 0.16092509
-0.33510429 0.63235247 0.04599318
-0.17063825 0.53164423 0.30187199
-0.26992336 -0.12210456 -0.57825929
-0.01565987 -0.16882290 0.80720788
0.39311317 -0.28044868 0.33949238
-0.89539361 -0.04152655 -0.04073715
-0.18742196 -0.72811627 0.07780997
-0.26311520 -0.66132510 -0.04140600
0.05907485 0.72729635 -0.21998990
-0.57993627 0.23163144 0.20604277
0.33029422 0.08457422 0.62205309
-0.23906152 -0.64914805 -0.08859240
0.20503077 0.64725214 0.15622753
0.07125468 0.48433724 -0.44523570
-0.01867691 0.29829267 -0.66897762
-0.82142699 -0.09681208 0.07550596
-0.39065397 0.31580839 -0.27310055
-0.04997835 0.18709317 0.77723384
0.39558169 -0.25221062 0.35516036
-0.01514699 0.82863528 0.15405089
-0.13679709 -0.06610269 0.78283954
-0.49191320 0.23891360 0.28039193
0.30897427 -0.42071265 0.28130385
0.43608156 0.11244681 -0.47290936
0.47281241 0.05421225 -0.48178855
-0.22714470 0.73757911 0.05620885
-0.31994441 -0.10275553 0.56549370
-0.09997121 -0.60219646 0.30041212
0.20991972 0.51197755 0.29679534
-0.14792921 0.84189075 0.01133099
-0.19769725 -0.72978044 -0.05337752
-0.03209212 -0.48455164 0.48650971
-0.48502707 0.20432873 -0.29897591
0.80208212 0.03549253 -0.16793685
0.41126743 0.02354370 0.58193362
-0.86920267 0.10845783 -0.01861769
0.22417241 -0.49036270 -0.28429192
0.37712860 0.12733103 -0.50014979
0.73167616 0.08670869 -0.17655644
-0.16561194 -0.50284421 -0.31833687
-0.08374842 0.86652100 0.02419534
0.32890460 0.46253309 0.24338746
0.23017107 0.62516081 -0.14190336
-0.56565237 -0.13860819 -0.27459902
-0.73765320 -0.10844914 0.14911377
0.75678390 0.02694115 -0.22672461
0.32792395 -0.33725849 0.34370762
0.03055996 0.85749185 0.13981919
-0.10773697 -0.78702140 -0.07524350
0.78624469 -0.03035269 -0.16527137
-0.46757698 -0.03487329 0.48965988
0.91490483 0.05807657 0.05543619
0.16441847 0.77560800 -0.05137897
-0.17600915 0.37755117 0.44394416
-0.17466795 0.69998103 -0.11439376
0.81998616 -0.02953927 0.17651376
0.63313371 -0.11138821 0.26757389
-0.25443646 0.02989556 -0.70163238
0.18401207 -0.76739067 0.05888675
-0.31571689 -0.38989046 -0.27340776
0.17211239 0.45652437 0.38391668
0.25673559 0.02902637 -0.71593070
-0.39619017 0.60307604 0.00244146
0.11399766 0.31221062 0.58614272
0.30707511 0.33631349 -0.35831651
0.13328274 -0.19857548 0.67451507
0.69727236 0.29776239 0.00914756
-0.27649558 0.46571046 -0.22974084
-0.24087682 0.08744416 0.68632829
-0.10001951 0.52934092 0.37957180
0.13701044 0.33091170 0.54697835
0.01447435 0.83902639 0.17192435
-0.36200431 0.47406289 -0.15655836
-0.12418799 0.08872923 -0.76347357
-0.32101288 0.58482623 0.09678034
0.62442344 0.21109632 0.18378812
0.68675137 -0.18990993 0.13328335
0.21329214 0.52403635 -0.26145077
0.70897305 0.03846192 -0.26186165
0.79644281 -0.09264998 0.12568264
-0.59222323 0.05016447 -0.34303942
-0.08685732 0.72223324 0.20781682
0.64102674 -0.35343939 0.00676856
-0.44499019 0.44614935 -0.09687028
0.17016660 -0.55487329 -0.27471074
0.62376356 0.26201549 -0.12364045
0.11391411 -0.86332846 0.00404293
-0.16974762 0.12526143 -0.68807232
0.77874064 0.02030466 0.22864603
-0.15139136 -0.17710307 0.67075169
-0.08792955 -0.74126226 -0.13375971
-0.23968397 -0.42894945 -0.31868431
-0.49294940 0.29846969 -0.20255534
-0.10322668 -0.83144736 -0.03452843
0.16563135 -0.02069438 -0.81364596
0.14054793 -0.31780511 -0.55055737
-0.09041665 0.62284076 0.29514638
0.27412981 0.62246591 -0.10470098
-0.69623452 0.18193942 0.13355251
0.02985968 0.44606802 0.55639827
0.30498192 -0.56517231 -0.12289448
-0.86225528 0.07664201 -0.05201668
-0.09455791 -0.13771799 -0.74939615
-0.01109205 -0.73045576 0.24538480
0.02436589 0.89681250 0.09394933
0.43187916 -0.31967261 -0.23941766
0.60474145 -0.29125488 0.10925424
0.09790356 0.68854636 -0.21829766
0.28417036 -0.26157391 0.45106539
-0.79451197 0.19897127 0.01007895
0.54366302 -0.20672768 0.26065800
-0.22014986 -0.27987212 0.48990220
-0.33790043 0.09430222 0.58371645
0.58481801 -0.01523808 0.40928331
0.34524402 -0.62805891 0.03761095
-0.41185823 -0.17894107 -0.37926161
0.23188259 0.69998628 -0.07455192
0.54470611 0.25135908 -0.21097907
0.51684749 0.27499062 0.22939636
0.15487187 -0.44019821 0.41872859
0.04722437 0.79616058 0.18113795
-0.76078594 0.08929972 0.15189774
-0.16701753 0.46767756 -0.34609735
-0.62616622 0.17573175 0.20840858
-0.41780907 0.27618116 -0.29511037
0.67318636 -0.20208354 -0.12942338
-0.25817642 0.34683979 -0.38135877
-0.42315421 0.39371911 -0.17077085
0.39304531 0.49434254 0.12890600
-0.22738130 0.54718822 -0.21179540
0.28621289 0.41979799 -0.30196610
-0.74814194 0.22223552 0.03183457
0.06150973 0.58873892 0.37290862
-0.30268231 -0.49007130 0.20247604
-0.02236319 -0.90094692 0.07429875
-0.23111652 -0.74184722 -0.00899834
-0.10119328 0.75704825 0.15547268
0.04320014 -0.80982071 0.14881296
-0.57800144 0.34901336 0.07465301
0.22640225 -0.66214359 0.11552599
0.52617627 -0.26598611 -0.20972034
-0.57202733 0.31639048 -0.09752855
-0.07591299 -0.61792189 -0.28530884
-0.41429317 -0.46751961 -0.09431577
-0.45814282 0.48072952 -0.05059779
-0.17133079 0.00978649 0.82006043
-0.52492684 0.41688636 -0.04685911
-0.09245978 0.01760525 -0.88625896
-0.28409424 0.08175096 -0.62246877
-0.15008138 -0.41117811 -0.42077401
-0.27165422 0.16730501 -0.53818107
-0.31334502 -0.07671812 -0.60025251
0.71181750 -0.15263699 -0.11483758
-0.47875768 -0.31097847 -0.19400546
0.40135062 0.07238329 0.53655618
0.67283463 -0.06638540 0.27562976
-0.23344116 0.09206811 -0.65715206
-0.11879297 -0.56036645 -0.30910185
-0.03442879 0.37119281 0.61246496
-0.21863168 0.51341736 -0.26073930
-0.28993809 -0.59979832 -0.08756982
-0.39001429 -0.23406617 -0.34876436
-0.37989259 -0.55543673 -0.03745013
0.28622645 -0.37262052 0.35803619
-0.49197981 0.35886827 0.15362406
0.04526622 0.03114235 0.93772393
-0.53372049 -0.38131887 0.06922811
-0.58986944 0.16430837 -0.23025237
0.06870458 -0.06116034 -0.87152308
0.40433654 0.20385161 0.41254976
-0.21822168 -0.18086226 0.59372365
-0.01525488 -0.51017505 0.46608827
0.38057134 0.58746034 0.05493685
0.11263627 -0.58883333 -0.28911197
-0.67189437 0.25186256 0.09019524
0.72232622 0.17292394 0.12429708
0.78097427 0.05334307 -0.17566684
0.40305087 -0.30420828 -0.28958872
0.15385234 -0.35303402 -0.48987255
-0.05682630 0.05958078 -0.88405395
0.17726327 0.01485896 -0.80250353
0.46401480 -0.11714462 -0.41119766
-0.26355964 0.68349373 -0.03876669
-0.35319763 -0.61338586 0.04490149
-0.16192378 0.28706694 0.55097568
0.01521521 0.28196687 -0.70350689
0.01849731 0.14044367 0.84966350
0.25272366 0.44892281 0.31684965
0.51681024 0.40908301 -0.07654974
0.02134666 0.76880807 -0.21814431
0.20234369 -0.12894566 0.67691284
-0.03356079 -0.42791429 0.53213841
-0.05190378 0.56060892 -0.37593314
-0.40195474 -0.07661860 -0.50562167
-0.34462029 0.41666886 -0.22471738
0.29809940 -0.11582469 -0.58544368
-0.32448137 -0.14736116 -0.51380610
-0.24148652 -0.50872552 0.23828979
-0.14113370 0.26178992 0.59689486
-0.58179861 -0.04522059 0.37319914
-0.11210541 0.38451028 -0.51661837
0.26004785 -0.68512744 0.06794175
-0.48504764 0.49814224 -0.00171977
0.19561666 -0.33191943 0.47743776
-0.07533946 -0.66068834 -0.23989040
0.06014649 0.85486674 0.10370854
0.38401628 0.28494766 0.35199341
0.64963174 -0.23105517 -0.12020002
-0.04660065 0.68754160 -0.24862829
0.40120611 0.58997697 0.02490369
0.32184860 -0.07395130 -0.59795272
-0.19318324 -0.24062279 -0.54815036
0.30398259 -0.03544975 0.67242324
-0.02461495 0.63444424 -0.32786408
-0.26110953 0.12489155 -0.60700661
-0.13986938 -0.52502716 0.33542296
0.26237974 -0.32092157 0.42401227
0.84640598 -0.15134372 0.02368105
0.82559794 0.02409074 0.16874626
-0.49732143 0.01030529 0.48699492
-0.11141691 -0.56963390 0.31204107
0.24193233 0.43087071 -0.32762727
0.07180974 0.91390216 0.02431712
0.17183618 0.76008755 0.09858895
0.36990550 0.02470970 -0.60815436
0.09063836 0.74550945 -0.15289311
-0.12136120 -0.29549536 0.57223558
0.39930293 -0.34082633 0.27306083
0.28219527 0.69222331 0.05192876
-0.20853662 0.17804918 0.61574000
-0.54148692 -0.04843101 0.41078493
-0.24517587 0.28406265 0.48397550
-0.55268461 -0.14253762 0.30488181
-0.53632933 0.08367006 -0.36754662
-0.13396226 0.78235745 0.08956523
-0.09180096 0.16959570 0.74189210
-0.18082628 0.65661371 0.17363858
-0.23911127 0.45395163 0.29742926
0.02341556 0.54411954 -0.43810433
-0.07512923 0.36092409 -0.55949777
-0.34405401 -0.16611998 -0.46004975
-0.65288228 -0.03541336 -0.28832871
0.01923253 0.62563616 0.37739646
0.04904094 -0.46291924 -0.48801064
0.89567697 -0.02525307 0.09406278
-0.06185381 0.69615251 0.26156375
-0.33327174 0.18839186 -0.45632344
0.44741106 0.43571252 0.13117149
0.07975795 0.36017197 -0.54773921
0.37938422 0.39988789 0.24151570
0.10111109 0.78801095 0.12801340
0.60433257 -0.08986430 0.32000065
0.68533021 -0.10388125 -0.22246601
-0.43441761 -0.22936226 -0.31208560
0.61391747 0.00946770 0.35806859
-0.05028432 -0.09647217 0.84762096
0.28616634 0.42116544 0.31117329
0.02530559 -0.78956050 -0.16997801
-0.02933047 -0.05278148 0.91191548
-0.09205409 -0.11513811 -0.77510130
0.05839903 -0.02878789 0.92724800
0.05409672 0.62803441 0.33682927
0.62424284 0.35785294 -0.02341964
-0.12251070 -0.05511887 0.81611031
-0.86085892 0.03898600 -0.08854860
0.17512764 0.06164642 -0.76833218
0.27148575 0.55121630 -0.17434983
-0.19611476 -0.16309707 -0.63032919
0.59503710 0.15268178 -0.25387517
0.84281927 -0.02855849 0.13663217
0.80512732 -0.13800591 -0.05953320
0.10194626 0.63995618 -0.25800231
0.37339365 0.11619618 0.54299968
-0.40566903 0.47141626 0.13740568
0.12518775 -0.72497696 -0.14298281
0.61740804 0.22947648 -0.16401200
-0.23375085 0.19519690 0.56185853
0.55957252 -0.31726649 -0.12268910
0.44160622 -0.23217386 -0.31753910
0.23575056 -0.21396410 -0.54147828
-0.25397366 0.37257504 -0.36517709
-0.50123739 -0.47508100 0.01199797
0.32490489 0.55830175 0.13962214
-0.12312168 -0.49864882 -0.35890192
-0.60168183 -0.33180007 -0.04993416
0.21626484 -0.23200861 0.56482118
0.91187620 -0.01104819 -0.07894985
0.04354467 0.06654519 -0.88553077
0.06070077 -0.09025826 -0.83600283
0.27186206 0.11075994 -0.62297779
-0.36408907 0.35595733 0.29394197
0.29449752 -0.16681503 0.54556304
-0.64567530 -0.25795934 -0.06274329
-0.27828708 -0.43337068 0.27166530
0.69724274 -0.04351049 0.27252504
0.84556806 0.13917711 -0.01861645
-0.39528945 -0.32617605 -0.25925419
-0.46642902 -0.18165179 -0.33078179
0.58587599 0.07759743 -0.33834347
0.09666874 0.89931464 0.02620890
-0.27566254 -0.70398456 0.00037313
-0.57314152 -0.23287967 -0.18250804
-0.05728463 0.00016788 0.92989892
-0.41326231 0.20836674 -0.37923217
0.25332540 0.24820393 0.51964796
-0.18987988 0.62598181 -0.17843165
-0.41080073 0.41382435 0.19756123
-0.64654416 0.05355176 -0.27784875
0.06128764 0.75371540 0.20021917
0.40866846 -0.17010868 0.41973448
0.32313898 0.28785345 -0.39776778
-0.31564999 0.14100476 0.54792649
0.00995754 0.78207248 0.23008405
-0.25199816 -0.19880031 0.55066478
0.60682321 0.28195238 0.13816024
0.49249005 -0.33517152 -0.16880719
0.05601052 0.40088141 0.55329901
0.10662864 0.25138158 -0.65196407
0.15487999 0.24418859 0.61862069
0.01661910 -0.93928623 -0.00908353
-0.39131367 -0.26388100 -0.33025002
0.47046977 0.28144926 0.27175781
0.13949817 0.57349110 -0.28804436
0.68922734 -0.24426974 0.07245602
-0.17833146 0.72545356 0.09186074
-0.10577542 -0.24669714 -0.62808102
-0.64092702 0.10374852 0.27040160
0.03225864 0.48402119 -0.48242000
-0.55265462 0.34903535 0.10869755
0.35881642 -0.59356850 -0.04484544
-0.14402153 0.17701796 -0.66102952
-0.13769820 0.68785864 0.16626182
0.21699430 -0.78074515 0.01646357
-0.45898584 -0.15733470 -0.35956746
-0.25187543 -0.42505234 0.31757313
-0.17874601 -0.22378179 0.59721094
0.26677862 -0.53658694 -0.17901635
0.50121224 0.48338202 -0.01496951
-0.58833909 -0.37232199 -0.01821501
-0.30501765 -0.21157946 0.47743005
-0.93374854 0.01421452 0.02735499
0.57279330 -0.05194070 -0.36913574
0.33063400 0.23710227 0.45486197
-0.56256711 0.16013432 0.27494767
0.04545291 -0.69178498 -0.24844646
0.31759232 -0.54002494 0.15182213
0.34177732 0.65017474 0.03058519
-0.47178715 -0.33923870 -0.17508805
0.58053726 -0.26717076 -0.14275229
0.23108156 -0.30768171 -0.44543353
-0.72216129 0.25191823 0.01989041
-0.04894401 0.91619426 -0.02746692
-0.34744701 -0.26617190 -0.35874918
0.29209822 0.26543108 0.46472377
0.24504037 -0.01898569 -0.73071742
-0.57534182 0.39595914 0.00706234
-0.44764721 0.04314401 0.51201999
-0.36767828 -0.10186070 -0.51251251
-0.83643341 -0.05066107 0.10583007
0.65587926 -0.15182158 -0.17821488
0.14171129 0.10375875 0.78100026
-0.15421204 -0.23991048 -0.58188051
0.05693815 -0.38268545 -0.54252046
0.45024672 -0.10250306 0.44761512
-0.31134310 -0.53438061 -0.14166406
-0.08357019 -0.83749634 -0.05742479
-0.05474385 0.62733108 0.33749351
-0.19342677 0.50670248 -0.28309569
-0.53432506 -0.08041649 0.38596526
0.41964170 0.44293848 0.16306135
0.02323899 -0.76040125 0.22118831
0.54812628 -0.18081374 -0.27532038
0.48757085 0.11066562 0.42911184
0.31425089 0.42474234 -0.25522959
-0.93329585 0.04973536 -0.00618639
-0.23169395 -0.02536220 0.74909610
-0.15742297 -0.29972023 0.52909583
0.20535995 0.75525171 0.05705227
-0.23426788 -0.51705515 -0.22936459
0.28453860 0.23461114 0.50000560
-0.21455179 0.04373904 -0.73063910
-0.02043900 0.90039557 -0.05910774
-0.43475118 0.19858339 0.35724780
-0.42540503 0.56934512 0.01718715
0.22394729 -0.69294178 0.08839066
-0.34815001 0.19633447 0.46529636
-0.36985987 0.62690616 0.02204860
-0.10441368 -0.32955042 0.56509036
-0.55663085 0.30267814 -0.12082449
0.34759831 -0.20620701 0.45398870
-0.02618652 -0.09271871 0.87213206
0.18472739 -0.30380279 0.52434909
0.44594595 0.33253250 0.24417827
0.01635082 -0.32480440 -0.64108545
0.35816538 -0.32777813 -0.29554671
-0.19608651 -0.02384302 0.78023654
-0.07140114 -0.37642556 0.55080026
0.59410071 -0.13670795 0.28667995
-0.27025253 -0.64386815 0.08891441
-0.00846670 0.56255466 -0.41141000
-0.11363587 0.53562838 0.35574394
-0.19082239 -0.13851327 -0.64974087
-0.83799267 0.11820284 -0.02700168
-0.17519829 0.04199029 -0.77316552
-0.14123563 0.80294347 0.04425260
0.32395163 0.45405006 -0.22182807
0.05722807 -0.59157777 0.34839514
0.05021415 -0.50798047 -0.44002226
-0.66496980 0.00974012 0.31746158
0.54186702 0.17533749 -0.28558385
-0.31369007 -0.03421305 -0.62806702
0.25910053 -0.50018597 0.25357035
0.66061479 -0.20005809 0.13552512
0.11050640 -0.34703591 -0.53326094
-0.81479043 0.01049272 -0.13489938
-0.57125270 0.27747101 -0.14216529
-0.10229407 -0.17370547 -0.70554608
0.93160897 -0.05079244 0.02242833
0.52865982 0.29211569 0.19237030
-0.05074666 0.06082141 0.91402477
-0.01017692 0.47290787 0.53358090
0.50294387 -0.34323314 0.16392824
-0.19973963 -0.59777611 -0.17729884
-0.44224608 0.41180512 0.15685694
0.13997915 -0.22422017 -0.62038225
-0.43745062 -0.48269647 -0.06525956
-0.45809412 -0.22934633 -0.28936011
-0.07855489 -0.53890336 0.37852541
-0.18111420 0.12798060 0.71177197
0.29276383 0.54754233 0.17581069
-0.30694291 -0.20355852 -0.46706685
0.49628457 -0.02740319 0.49122006
-0.06688651 0.40998262 -0.51621670
0.94029438 -0.02966313 -0.02690154
-0.04080032 0.84744340 -0.10076739
-0.14816314 -0.53439265 0.30168337
-0.34618294 0.16472316 -0.48253441
0.01834003 -0.63258642 0.34942433
0.19292909 -0.61922961 0.20322445
0.04530274 0.25402421 0.72558171
-0.11387397 0.44119495 0.44789001
-0.30735159 -0.43069237 0.25321600
-0.46576554 -0.27919170 0.25703493
0.17712718 -0.43979120 -0.37996072
-0.40421930 0.33086649 0.26382467
0.06425613 0.27989331 -0.65793049
0.73642814 -0.23944226 0.04031442
-0.20349224 -0.21511160 0.58096898
0.27880678 0.73131281 0.01691589
-0.02502313 -0.10675000 -0.84024984
0.04070757 -0.22993888 0.72934532
-0.29148319 0.34159893 0.36789569
0.64827210 0.15920568 -0.21118128
-0.54808980 0.21045288 0.24574989
-0.51695359 0.12876697 -0.33687827
0.29841772 0.14379014 0.58717805
0.07425614 0.12361082 0.83464617
-0.32755178 -0.48612165 -0.16083294
0.26317912 -0.02149550 -0.70223600
0.17846470 -0.16975820 0.65617806
-0.61833537 0.33327761 -0.03740690
0.70225763 -0.20671070 -0.08650669
-0.40696138 0.44232646 0.16376643
-0.34004864 0.56160229 -0.08718915
0.67088562 -0.16151010 0.18062073
0.13706215 0.85368764 0.03016472
0.19257572 -0.37154028 0.45341054
-0.60097021 0.28885591 0.13169529
0.83342576 -0.14221080 -0.03059183
0.74337506 0.25545484 0.00032514
-0.15167663 -0.53646296 -0.28720105
0.43603179 -0.41676852 0.15639792
-0.23319465 -0.14771537 0.60466790
0.16226700 -0.38868326 -0.43442515
0.12781391 -0.15804768 0.73585939
-0.31448588 -0.33754551 -0.32812202
-0.33613732 -0.51435190 -0.11942592
-0.31091237 -0.55945879 -0.10236460
-0.78418571 0.12119807 -0.08669759
-0.47356856 0.26916128 -0.25975519
0.93573785 0.02417175 -0.04011740
0.00836461 -0.93309653 0.06733596
0.90531808 0.07894025 -0.01501191
0.12652998 0.38958061 0.49875021
0.12582001 -0.12617102 0.76224625
-0.11993639 -0.20498449 -0.66311055
0.47181374 -0.25941154 -0.27662119
0.17528594 0.70472574 -0.12908365
-0.51042789 0.13487165 0.36059919
-0.44116428 0.47048780 -0.08314278
-0.40887135 0.29602340 0.30148169
-0.74038941 -0.05279005 0.20077193
-0.21382076 0.07754313 -0.69421077
0.58990705 0.11582579 -0.29785648
-0.31442013 0.11294169 0.59041959
0.21455687 0.09766828 0.70122170
0.09364711 -0.00383734 -0.90543717
0.01824619 0.54154420 0.45422783
-0.68171674 -0.10201699 -0.18707845
-0.57730174 0.02496605 -0.38117722
-0.19454668 0.24736276 -0.54644263
0.06176368 -0.23420849 -0.69968808
-0.66737568 0.07689728 -0.24232763
-0.46221447 0.39109322 0.14600661
0.15689680 -0.05080380 0.80517077
0.14352964 0.66728455 -0.18599252
-0.79265368 0.00921828 -0.16027236
-0.53754258 0.09722175 0.36398456
-0.44999892 0.34634638 -0.18908508
0.07820203 0.39289904 -0.54376024
-0.29182434 0.19907771 0.52627820
-0.30516434 -0.67151850 -0.00458002
-0.01280755 -0.09510058 -0.86952180
-0.29797128 -0.47151259 0.22274025
0.10369109 0.36378404 0.54893035
0.02438840 -0.29929876 0.68348050
0.09410831 0.72668689 -0.18715200
0.01871681 0.24127170 -0.73863333
-0.27567104 -0.34225667 -0.36647221
0.10844008 0.47629675 0.43444881
0.09005032 0.38698074 0.54130018
0.59536326 -0.24486646 -0.15041809
-0.09120225 0.59710860 -0.29690656
0.59110707 -0.32864040 -0.08857181
0.51486737 0.28494459 -0.20018397
0.72758663 -0.24353945 -0.02454543
0.15872672 -0.28915703 0.56573147
0.11632714 0.86083269 -0.02886979
-0.27692890 0.30274981 -0.40637919
0.80057633 0.07658539 -0.12676735
-0.52696896 0.02462593 0.44837350
0.00035529 -0.36497471 0.62697721
-0.22603191 0.44189593 0.34351611
-0.15422581 0.73595768 0.12324321
-0.53174204 0.18250434 -0.27576283
-0.38847026 -0.38966435 -0.20336132
0.05868255 -0.57350540 -0.36047810
-0.24431124 0.71684808 0.04570363
-0.12339251 -0.35542059 -0.50811005
0.23851714 -0.72625041 0.04083180
-0.55958527 0.39890623 0.05234229
-0.00856549 0.67989182 -0.29810342
0.35311994 0.27781564 -0.37946478
-0.14620535 -0.12902099 0.71525240
0.03699842 -0.78832990 0.18741094
-0.15754391 -0.41447374 0.42630515
-0.38219222 0.24688144 0.38944775
0.24862003 -0.10631424 0.65897560
-0.37605518 0.39387655 0.22931488
0.34184265 0.09456791 0.58372515
-0.62497824 -0.25098014 -0.10031164
-0.27800110 0.31749830 0.42361152
0.93703932 0.00289026 0.06468518
-0.73548728 0.19313568 0.08479273
-0.02076346 0.65367901 0.32976407
-0.38996840 0.44548252 -0.15834415
0.63221323 -0.02039125 -0.34886023
-0.22245425 0.38229224 0.38247040
0.38523993 -0.57932204 -0.03796524
0.38736558 0.35688400 -0.26179793
0.02188057 0.69740111 0.30228296
-0.25173119 0.21322294 -0.51471388
0.82541871 -0.17194808 0.00148859
-0.23586965 0.75847220 0.00505359
0.12187424 -0.43102241 0.45866591
-0.47771943 0.13521264 -0.37569016
-0.01748209 0.07031749 0.92826390
-0.28429714 -0.40101218 -0.30001405
0.60684568 -0.25550595 0.13954023
-0.54654282 -0.12272893 -0.31197250
-0.28027824 -0.66836292 0.03629521
0.37991637 0.23205264 -0.38828507
0.06288838 0.20244990 0.75335240
-0.14203632 -0.16922083 -0.67429620
0.70141488 -0.26995429 0.03537626
0.73686284 0.16656141 -0.09795427
0.42650932 -0.33457851 0.26062962
-0.63315839 0.29965687 0.08442347
-0.30673254 0.53295994 -0.15607107
0.36337546 0.25709087 0.39722463
-0.17507114 0.53973955 -0.27563083
-0.41677994 0.11289382 0.46885034
0.09099863 0.82197171 0.11057987
-0.17678368 -0.20612171 0.61890733
0.47813192 -0.18623254 -0.33381215
-0.91565979 0.00689035 -0.05022179
-0.67262572 -0.18350857 -0.12105243
0.75815147 0.23663898 0.04044774
-0.47496596 0.20923053 0.32699680
-0.77056241 0.17634873 -0.02193034
-0.35647672 0.42785549 -0.19995064
-0.28462797 -0.14416444 -0.54150379
-0.30825815 0.35857916 0.34257692
-0.20459186 0.58548892 0.21700463
-0.06284377 0.10077500 0.84825969
-0.45825386 -0.37712651 0.15271334
-0.00229302 0.94716567 -0.05217917
0.26263422 -0.26957008 -0.47924638
0.14581154 0.83030480 0.04978665
-0.02536045 0.54383731 0.44005421
0.09722445 -0.72567683 -0.17688701
0.22367004 0.34016645 -0.43902671
-0.20198587 0.38388959 0.42602450
0.04676531 0.87165761 -0.09192661
-0.02546541 0.19136116 0.78937793
-0.20648518 -0.17145371 -0.59979320
0.38535371 -0.29919440 -0.32220677
0.09346289 -0.44353035 0.46658698
0.11240181 0.43400699 0.46702996
0.50039583 0.48217130 0.03558913
0.51917976 0.21223603 0.29212746
0.12017329 0.20859325 -0.67676073
0.20154867 -0.22765118 -0.57335544
-0.78356636 -0.03077319 0.18471724
0.15640613 0.83176517 -0.00191536
0.17072484 0.53217041 -0.31170303
0.44506919 -0.08176344 -0.47559625
0.02189189 0.94026923 0.05621145
0.46753475 0.17528808 -0.36054197
0.59834516 -0.07454245 -0.32412624
0.44104853 0.52265823 0.05175225
0.13364190 -0.62522042 0.25716305
-0.09531981 -0.44008446 -0.43833923
0.07180680 -0.88394749 0.04966823
-0.71760988 0.15650387 0.13105690
0.68397415 0.13450235 -0.18108612
-0.26384839 -0.20818232 -0.50618035
-0.16433883 0.70921111 0.12752399
-0.30314368 0.25622678 0.44642708
-0.11290064 0.57751179 0.31438598
-0.28998888 -0.55223489 -0.13481610
-0.04501472 0.02595647 0.93920928
0.83282572 0.09014693 -0.08347267
0.40663204 0.29325074 -0.31202060
-0.23447281 -0.71533358 0.04489748
0.07066879 0.22966285 0.72599876
-0.67602384 0.00275957 -0.31448743
-0.92056781 -0.05358126 0.02394248
-0.72044510 0.06153823 0.22421108
-0.44483727 0.22473390 -0.32855693
-0.09125320 0.58582252 0.33422333
0.22394024 0.17275931 0.62677276
-0.69982690 0.20459276 0.10829766
0.19641717 -0.02251233 0.79616731
-0.73129719 0.24476190 -0.02150981
-0.50736457 -0.14266583 0.34252757
-0.03457339 -0.94853789 0.00639986
-0.26016754 -0.28143963 -0.43224964
-0.34267762 0.24699108 0.42747113
0.33664194 0.58368742 0.10460823
-0.89392292 -0.09078223 0.00291055
0.31067598 0.56230152 -0.12144782
0.34719938 0.59492290 0.07012171
0.25766748 -0.07435750 -0.66091454
0.06464645 -0.26461905 -0.65582389
0.11407008 0.49523544 -0.40079552
-0.50716996 0.39102313 -0.09908623
-0.43023056 -0.07991876 0.48739785
0.28561640 0.45185798 -0.26668057
0.57610303 0.01148428 0.42282760
-0.55333805 0.01229732 0.43440524
-0.06718076 0.09520058 -0.81836402
0.37945020 0.56738567 -0.07583281
-0.01668838 -0.69432747 -0.27364373
0.45706651 -0.39481086 -0.13200879
0.56174475 -0.39454740 -0.04230754
0.13326032 -0.65146142 -0.21265367
-0.14845169 -0.75761718 -0.07743419
0.39789164 0.55475312 -0.04604826
-0.28778553 0.66663629 0.05585385
0.25673965 0.06478761 -0.68079007
0.64206308 0.09626748 0.27825436
0.43917611 0.06735620 -0.50688076
-0.17378360 -0.04062865 -0.75158840
-0.11218159 -0.52988607 0.35312605
0.28351757 -0.70780206 -0.01386706
-0.39135438 0.50225401 0.11623805
-0.44796845 0.33147010 0.22687237
-0.89343196 0.01033485 0.09266403
0.13457265 -0.56220287 0.31945702
0.22685245 -0.13780782 0.64095908
-0.67462415 0.13245040 -0.19751151
-0.61757636 -0.17968744 -0.17571279
0.52703875 0.43873423 -0.03108207
0.18215759 0.81998020 0.02109004
0.61722976 0.35104269 0.05461618
0.52976048 -0.05895886 0.41150305
0.45859405 -0.28939560 -0.25706413
-0.22091845 -0.28940260 -0.46902576
-0.46888483 0.44785959 0.07253301
0.71561980 -0.05713001 0.23529060
-0.70497513 0.12917498 0.17889391
-0.25836915 -0.24573910 0.48756287
0.50450861 -0.00303316 0.50309253
-0.09940986 0.80417317 0.10712201
0.00535577 0.98398900 0.02610702
-0.11656035 0.13489528 0.76761669
-0.10982577 0.13396294 -0.74328160
-0.01106498 -0.47361711 -0.49233326
0.66026932 -0.09817360 0.24786398
0.33500338 -0.25846580 0.42247134
0.14702122 -0.77041596 -0.07557427
-0.04861495 -0.10108123 -0.82638192
-0.03124344 0.69545561 0.29114637
0.39682043 0.13537550 -0.47470078
-0.15087566 0.44951871 0.40259266
-0.24910352 -0.10100312 0.64241648
-0.14557755 0.06472234 -0.77740020
-0.35287517 0.36179182 -0.27437881
-0.79345310 0.09862421 0.13340250
0.86346900 0.08571957 -0.04870158
-0.82875085 -0.12017067 0.04486046
0.53816420 0.03308265 0.45201454
0.72983491 0.03121948 0.26435241
0.05010916 0.35071129 -0.59393704
-0.61659867 0.14625075 -0.23014352
-0.20477924 -0.74888527 -0.01577929
0.09228797 -0.85652924 0.06382854
0.56909102 0.43397766 -0.00181651
-0.18779160 -0.44100773 -0.34939256
-0.14563833 0.36075497 -0.48234999
0.40444902 0.11196108 0.49994302
-0.86414063 0.00095622 0.12891698
0.70855141 -0.04725320 -0.25313827
-0.60365695 0.26581812 -0.11823075
-0.18915592 -0.10665804 0.69925165
0.44092351 0.25573844 -0.31016526
-0.10616118 0.50405216 0.39041367
0.19906168 0.04054065 -0.75104368
-0.49635237 0.32822803 -0.16046466
0.10819599 -0.63731712 0.25943425
0.37186703 -0.25573960 0.38433987
0.40774146 -0.07397952 0.52903652
0.46290103 0.06811229 0.49505085
-0.33430290 0.52451205 -0.13748758
-0.01900572 0.11539911 -0.84835148
0.24842888 -0.74736834 -0.00946519
-0.02727144 0.44018191 0.54145378
0.43626127 -0.38352996 0.19141312
-0.21124639 0.36591300 -0.40132305
-0.63193816 0.28034371 0.10690074
-0.80642813 0.03849368 0.15584663
-0.39176437 0.01000070 0.60051334
0.78368539 -0.17580549 -0.04380402
0.24162579 0.73379719 -0.04099349
-0.10748304 0.10602757 -0.78406090
0.55020982 0.02150406 -0.43315962
0.02589422 0.69339806 -0.28460041
-0.06541586 -0.86153084 0.06772753
0.06541306 -0.80786455 0.13298860
-0.55927986 0.28074205 0.14716937
0.47404724 0.43526855 0.10443441
-0.14111322 0.38300386 0.48000407
-0.58495408 -0.18814501 0.22742331
-0.40519959 0.39293736 -0.20530047
0.02256928 0.10560341 -0.88756645
-0.35715720 -0.43808234 -0.18143517
-0.65963465 0.22065610 0.11663431
-0.26149991 0.34310868 0.40674371
0.46550366 -0.03857435 0.49667633
0.59176558 0.25486419 -0.15839754
-0.61076260 0.19067983 0.19157660
0.63390529 0.30231813 -0.08201942
-0.55102181 0.08912655 -0.34221870
-0.33909264 -0.33227730 0.32333449
-0.01574936 0.79588997 -0.18918495
0.06210991 0.16225223 0.79670346
-0.60543454 0.01106111 0.37907687
0.64423275 0.13498318 0.24002001
-0.78457934 -0.13353349 -0.06216189
-0.22488549 0.20318551 -0.56301641
0.18787928 0.09629664 0.74048787
-0.41590565 0.34269196 -0.24275638
-0.29702657 0.27563706 -0.41472968
-0.01256925 -0.84883922 -0.10968697
-0.80622375 -0.15827151 0.02185299
0.07160915 -0.61095041 -0.32132757
-0.50882328 0.24486969 0.25327426
0.08345840 0.72887874 0.20903301
0.59887588 0.24375400 0.16235016
0.07365146 -0.48779690 0.44383454
0.62426472 0.06724347 0.32216889
-0.31274864 -0.25579154 0.42824692
-0.72143400 -0.13147406 0.13724525
0.34710962 -0.15832563 0.49713781
-0.28494313 0.40264603 -0.30818957
-0.06332626 -0.18524344 -0.73256689
0.51988590 0.14401069 0.35844743
-0.01689682 -0.45052162 0.52783096
0.12079652 -0.00672708 0.88420236
0.34408563 0.24497561 0.42983922
0.84848297 0.13703151 0.04150092
0.56097543 0.12354279 -0.32436356
0.34389067 -0.54941422 0.11541233
-0.36185023 0.51980174 0.13044885
-0.27851465 0.58497560 0.14800787
-0.03134809 0.83789349 -0.12443209
-0.54563391 0.03911891 -0.41350108
0.34940940 0.16446517 -0.48748437
0.15621157 -0.83593327 0.01781173
0.29352239 -0.45894885 0.25311249
-0.17552549 -0.35943839 0.46284914
0.91261810 -0.04197742 0.05950556
0.09268481 -0.41466641 -0.47016424
-0.10371292 0.05673494 -0.81872839
0.08785623 -0.10764020 -0.78464973
0.49008581 -0.04660051 -0.45458707
0.87838572 0.10174061 -0.01707217
0.62567943 -0.14012437 0.24228084
-0.38949800 0.04853145 0.57798904
0.04119140 0.75127023 0.23004298
0.08076133 0.46795410 0.46921939
-0.74498403 0.02257153 0.23423165
-0.01984490 0.31935605 0.67226887
-0.11235889 -0.75113243 0.12677026
0.46530473 0.21223029 0.34198987
0.19872731 0.73215157 -0.07709093
0.23687838 0.20357528 0.57543999
-0.36747229 0.18555842 -0.43424913
0.02599360 0.97234231 0.00462407
-0.33592734 0.09238646 -0.57331336
0.27930674 -0.41194099 0.32294920
-0.38448390 0.52366817 -0.08851711
0.93757725 0.05309766 -0.02722822
0.31484190 -0.61061841 0.08917632
-0.05596891 -0.74929696 0.19256409
0.23359461 -0.23807865 -0.52449942
0.39821735 0.55429333 0.06720417
0.01737687 -0.06058717 0.93757391
0.75526750 0.20306216 -0.04703807
0.44836372 0.25790322 0.32098374
-0.94041640 -0.02915502 -0.01626681
-0.27987948 0.27060002 0.45776090
0.20542583 -0.25588426 -0.54075795
-0.02147931 0.74205446 -0.23522358
-0.09071153 -0.29506394 0.60939217
0.44705829 -0.44693610 0.11190577
0.77974105 0.12075938 0.10913754
0.37742212 0.21187334 0.43394083
-0.36749414 0.30415589 -0.31142721
0.19148673 -0.74267668 -0.06623014
0.67600238 -0.23599014 -0.07863978
-0.01303666 0.09816312 0.90018249
-0.33301741 0.33338296 0.33189812
0.07196386 -0.76940048 -0.15991706
-0.21577288 0.10557522 0.68464458
0.47977662 0.10013875 -0.42268416
0.45065746 0.02620442 0.54118979
-0.35621089 0.39413232 -0.23830201
-0.01206851 -0.95297450 -0.00851236
0.23492734 0.19246422 -0.57478124
-0.03712854 0.30642363 -0.64176387
-0.02640225 -0.15455756 -0.80268663
-0.61202574 0.08676536 -0.30066603
-0.43094507 0.17899431 -0.37966615
0.05163096 -0.88068360 -0.04551098
-0.32086468 0.52544850 0.16534613
0.17000888 -0.37927046 -0.46254098
0.51996130 -0.29485723 0.19884109
-0.92867613 0.05789345 0.02715010
-0.17251360 -0.03235240 0.79045081
0.45969695 0.48900187 -0.05650617
0.70042473 0.24795488 -0.05743362
-0.12621307 0.72413158 -0.13748823
0.38542640 0.05726760 0.57390684
0.72171307 0.28195077 0.01103212
-0.23065294 -0.08401804 -0.65730226
0.21728139 0.55915272 -0.22673944
0.88280994 0.00508451 -0.10820027
-0.26615006 0.17026061 0.55881351
-0.01894661 -0.35404128 -0.61660028
0.21206184 -0.04853976 0.74538505
-0.07675915 -0.78436214 -0.11922409
-0.11971021 0.34567183 -0.52577960
-0.60920900 -0.36111227 0.02852411
-0.00689848 -0.07041793 -0.90346819
-0.40377620 0.36650318 0.22307681
0.01869103 0.83338809 -0.15897037
-0.24769202 0.67275923 -0.06353194
-0.61795175 -0.21995981 -0.14179499
0.67476720 0.29876241 0.04458258
0.55372697 0.20289373 0.25639719
0.08002111 -0.42444825 0.48955202
0.16312675 -0.20465350 0.64084303
-0.03886760 0.77235377 0.20877180
-0.60182190 0.32139826 0.09841380
-0.83028448 -0.11621895 -0.03593630
-0.45182231 0.03469610 -0.50080347
0.50126708 -0.36472070 -0.12466094
0.43024686 -0.53507572 -0.01860742
-0.11472011 0.27107304 -0.60854793
0.34306103 -0.49841741 -0.15846381
-0.17844965 0.15910237 -0.64735973
0.08807080 -0.89227462 0.02489583
0.76763046 0.12236808 -0.11508858
0.44306260 0.02315066 -0.52546895
0.04387641 -0.48199606 -0.46449709
-0.32177702 -0.08483946 0.58830273
0.01884833 -0.68065542 -0.30775458
0.19220972 0.32031450 0.50384122
-0.18877810 -0.62061781 0.19020391
-0.38634503 -0.22502024 0.38901877
0.19151449 0.20562370 -0.61142772
0.37518254 -0.21414180 -0.40934509
0.10068665 0.45683154 -0.44548437
0.75213343 0.11362173 -0.13815171
0.14505300 0.43403736 0.43859032
-0.62160403 0.09465138 -0.27625576
-0.02262922 0.87028408 -0.08995996
0.17962848 -0.72874308 0.09603026
0.36657995 0.52311182 -0.11155280
0.69131052 0.14367220 0.18297358
0.00587026 -0.77098864 -0.21088138
0.04363951 -0.25879499 -0.68645555
-0.46510294 0.27906728 0.25895789
-0.10773468 0.44999871 -0.42097226
-0.42898193 0.07716499 0.51225978
-0.29540485 -0.17518556 -0.50041676
0.23970574 0.61944532 0.16164948
0.49424985 0.06378592 0.45707959
0.22484389 -0.34975511 0.43524772
-0.13602020 0.57796288 0.26652282
-0.19260070 0.66347122 -0.13462831
0.38162294 -0.18285422 -0.41512349
0.45773306 -0.52522838 0.02404987
0.13006140 -0.05884270 0.81979781
0.40662131 -0.48292121 0.11892579
-0.19464089 0.79492337 0.00644424
0.48200727 -0.00194442 0.53004336
-0.18364182 0.29277653 0.52470285
-0.48972821 0.46041092 -0.05018406
0.27342439 0.38759342 -0.33924729
-0.23692408 0.35374933 0.42583448
0.17315333 0.58995014 -0.23981602
0.09327689 0.39705095 -0.51562333
-0.24242820 -0.39755464 0.35383719
-0.49956596 -0.38096628 -0.10049112
-0.41584134 -0.44512245 0.13232289
-0.01702563 0.48950624 -0.48811674
-0.17493430 0.21188161 -0.59925103
-0.07402347 0.20722854 0.73005062
-0.36145061 -0.23277552 0.39776546
-0.74864483 -0.07246143 0.17331272
0.09666888 -0.76626921 0.15328094
-0.07029462 0.86853909 -0.05520482
0.60221124 -0.01467284 -0.38606396
-0.07994044 -0.19071840 0.72668725
-0.61667788 -0.18443018 0.18892388
0.11256474 -0.68117094 0.20969383
0.19428852 0.28597301 -0.52553642
-0.06595650 0.24240273 0.69553757
0.45956433 0.52747399 0.00945708
-0.26567209 0.15435925 -0.56093723
0.11081532 0.24541958 0.66144866
-0.01571069 0.75909591 -0.20983602
-0.00312611 0.05881588 -0.91888374
-0.42891398 -0.44707793 -0.10376962
0.49865496 -0.26538867 0.24281043
-0.00558532 0.92444366 -0.06623937
0.86239606 0.02915800 0.12962909
-0.16172971 -0.25176418 0.58884686
0.69386274 -0.14813001 0.16763510
0.47069433 0.36289045 -0.16997749
0.21536902 -0.30678499 0.47548684
-0.00988632 -0.40686363 -0.55943912
0.17858848 -0.08453818 -0.72907084
0.51968998 -0.14070776 0.34365177
-0.90416330 0.08818169 0.01690836
0.02939147 -0.17579126 0.80353510
0.23179530 0.48699367 -0.30065367
-0.36941487 -0.19425501 0.43374097
-0.06001185 0.14719555 -0.77870047
-0.32193208 0.00667901 -0.64096522
0.19960274 -0.35390916 -0.46063715
-0.91331661 0.04987441 0.04799299
-0.77860618 -0.15106545 0.05912102
0.07152857 0.64083976 -0.29492968
-0.20041141 -0.02358085 -0.77120674
0.30636659 -0.59964097 -0.09400233
-0.00066729 -0.55853868 0.42452797
0.03054253 -0.58854300 -0.37998229
-0.77026606 0.15910013 -0.05831426
0.29985231 0.28676152 0.43583289
-0.06205913 -0.70146996 0.23484232
0.47744212 0.46621773 -0.05393843
-0.15014762 0.67910963 -0.15578683
0.38427240 -0.53342164 0.09410526
-0.95918155 -0.01696207 0.01077300
0.45963967 -0.15864474 0.38081181
-0.49995244 0.39203629 0.11059648
-0.08949576 0.70891619 -0.18957728
0.17635576 0.25229576 0.59017456
-0.74072617 0.10781467 0.14452995
-0.78714132 0.18161407 0.04067182
0.25492233 0.10593033 -0.64493436
0.77395147 -0.14359306 -0.09042978
0.75766295 0.04182107 0.22829863
0.51708704 0.38733774 0.11428592
-0.73760056 0.08506177 0.16741969
0.21619543 0.05817706 0.74904346
-0.52140987 0.25992855 -0.20087399
0.66989028 0.03430096 0.31748453
0.10686521 -0.52431220 0.37178475
-0.43162295 -0.27845010 0.29651904
0.67897415 0.12920050 0.20889921
-0.50375330 0.20408921 0.30634698
-0.19635397 0.53335845 0.26790187
-0.29407468 -0.12755147 0.57978195
-0.33402014 -0.01635567 -0.62580669
0.38679916 0.32020259 0.31031156
-0.04046806 -0.33127159 0.62429744
-0.18386918 -0.12841134 0.68299705
-0.24362606 0.59241790 -0.14083065
-0.01443622 -0.30186397 0.68301731
-0.00584810 0.76252782 0.24207842
-0.26900697 0.03764616 0.68874353
-0.38232943 0.22524080 -0.37607601
0.93738598 -0.00637961 -0.05072316
-0.24142161 0.23745485 0.53606004
0.07009608 -0.66284853 0.28077954
-0.23323385 -0.53516352 -0.20812413
-0.18209016 0.21493062 0.62420690
0.03332819 -0.07125805 -0.88203830
0.85476685 0.05345967 -0.09386171
-0.51740086 -0.12164752 0.35771552
0.14290966 0.11996568 -0.75260371
-0.54959506 0.40776986 -0.02334902
-0.39210632 0.53714007 0.05582567
-0.53794283 -0.23669758 0.21272184
0.29097074 0.50292468 0.21782134
0.27635467 -0.57741481 0.15864679
0.20184389 0.69405878 -0.11038458
-0.08318967 0.50138146 -0.40803036
-0.51306409 -0.16367751 -0.30257353
-0.40306792 0.53937739 -0.04425418
-0.03059253 -0.93885225 0.03090732
0.18241894 0.08662395 -0.73128849
-0.66808450 0.13758361 0.21310602
0.60451347 -0.06955502 0.33724687
0.46990156 0.00722870 -0.52545810
-0.02905620 0.81525660 -0.14674130
-0.48337185 -0.11754312 -0.38990006
0.18326557 -0.26331994 0.56514853
-0.35556024 -0.13476743 0.49990019
-0.04483774 0.37382466 -0.56481916
0.52902752 -0.22869024 0.25575516
0.53556311 -0.15106824 -0.31307006
0.63255906 -0.35734344 -0.01817770
-0.11520243 -0.46890599 -0.38793218
0.15920557 0.28293478 0.58183551
-0.24605566 0.62289405 0.14582469
-0.07713532 0.89584172 -0.01678844
-0.23992629 0.68745422 0.08153356
0.11801688 -0.83822572 -0.04065169
0.50014585 -0.49799499 0.01113334
0.21745023 -0.52556551 -0.23930548
-0.49924380 -0.06086083 0.42969111
0.27263385 -0.24148050 -0.47962961
-0.52030647 0.43018615 0.04017185
0.38186929 -0.43962568 -0.16290045
-0.38019064 0.16166821 0.45969161
0.14624606 0.40316683 0.47548679
0.39400402 0.35618752 0.27241829
0.19150469 -0.71819997 -0.08578782
0.33527052 0.30304283 -0.36466369
0.10705663 -0.60432404 0.30086371
0.01642097 0.41972125 0.58249849
0.21056221 0.45736444 -0.32918721
-0.01132912 -0.26892227 0.70250201
-0.18175074 -0.27504924 -0.51487678
-0.65318710 0.10047743 -0.23663945
-0.14114089 0.46841288 -0.37006503
0.63807964 -0.07809015 -0.26829734
0.09953936 -0.05129131 -0.82946861
-0.41889751 -0.20302977 -0.34934700
0.01679869 0.12597112 -0.86766511
-0.07860556 -0.04861012 0.86087638
-0.10350244 0.20807201 -0.66091633
0.11038195 -0.26198587 -0.62196660
-0.23944521 -0.36747018 0.38652083
-0.33624008 0.25602299 0.40333718
-0.55139565 0.27894256 -0.16576131
0.40418398 -0.15270151 -0.44242099
0.00200618 -0.82513505 -0.14545599
-0.41059157 0.18463244 -0.40008530
-0.11900122 -0.60865527 0.26400033
-0.34231564 0.04890669 0.61299968
-0.06525189 0.22088411 -0.71530485
-0.24815169 0.63301605 -0.10560974
0.24152145 0.41667235 -0.35168940
-0.41155246 -0.22550228 0.34995818
-0.13732396 0.23403677 -0.62701553
0.55628395 0.40113637 0.06067009
-0.27719098 0.45928779 -0.26577324
-0.60969138 0.36266491 -0.01034047
