0.17392109 0.17816040 0.16006701
-0.18584341 0.09511773 0.44070661
-0.18992515 -0.01091155 -0.11574328
0.21423784 -0.33254683 0.76872021
0.02865193 -0.29685658 -0.20500055
-0.19236954 -0.15907910 -0.05737646
0.29582375 -0.23133734 0.69035041
-0.00394169 -0.13446997 0.94107932
-0.38937682 -0.11019720 -0.40884846
0.26377368 -0.23764087 0.79180622
-0.24824257 -0.12232206 0.33745593
0.25903511 -0.15987423 0.34581739
-0.19225609 -0.15793985 0.89499104
0.21181172 0.01758453 -0.08363399
0.02346004 0.27726138 -0.42550457
-0.05341629 0.28396827 -0.40603471
0.29383928 0.18250823 0.07205594
0.28667331 0.08610269 0.55468619
-0.19540232 -0.11840416 -0.24423197
-0.27729359 0.15511203 0.06066451
-0.12392563 0.19291049 0.13269964
0.06087167 -0.42215624 0.17813358
0.07699730 0.17964050 0.33376974
0.13667355 0.26372939 -0.33769870
-0.07240547 0.27540192 -0.31752980
0.04840926 0.08850215 0.74019611
-0.04893205 -0.18800840 0.95250845
-0.06708837 -0.21907723 -0.32945800
0.16998607 0.23481464 -0.46871895
-0.13599180 -0.39734918 0.34670153
-0.35495985 -0.09062929 -0.37752461
0.23283474 -0.32594576 0.46443540
0.21491767 -0.07064837 -0.41055894
0.15913782 0.15133259 -0.09834564
0.00274628 -0.46991763 0.51759899
-0.04362326 -0.35475522 -0.08342865
0.12975505 -0.38903716 0.24478108
-0.26734886 -0.15613128 -0.45662624
0.25872564 0.18534642 -0.41236573
0.18764769 0.03605594 0.80511010
0.28702611 -0.08263445 -0.38234270
-0.03742539 0.18970424 -0.61050415
-0.29204345 -0.19753952 0.71044987
-0.26124361 -0.23660323 0.48340240
0.30934396 -0.09324217 0.57678556
0.17437807 0.19613102 -0.05138449
0.31024978 0.19886827 0.51314086
-0.24459219 -0.10800593 -0.47417372
-0.09153972 0.24345085 -0.52826095
-0.02587734 0.20824113 0.06545456
0.22440507 -0.04960973 -0.03385793
0.00697002 0.27095708 -0.44582897
-0.26939064 -0.08593610 -0.38702935
-0.19290861 -0.35531628 0.73417127
0.03621006 0.14373547 0.64006591
-0.20401058 -0.17373487 -0.38287252
-0.13746351 0.16502613 -0.04231429
-0.18101488 0.20251021 0.14224853
0.18244728 0.08422519 -0.05352932
-0.17109603 -0.17831093 -0.12565568
-0.23528010 -0.21707748 0.15579055
0.02085724 -0.44846618 0.77230138
0.11458122 0.16687030 0.62099397
-0.10926571 0.27374279 -0.33086535
0.22067866 -0.11076491 -0.05245325
0.12379304 0.25621676 -0.45483601
-0.17095713 0.24640962 -0.33932692
0.09675965 0.21138620 0.05252001
0.43953052 -0.12691690 -0.36038518
0.14356001 -0.19743922 0.93502736
0.15703428 -0.37965617 0.25728470
-0.24177162 -0.16004124 0.32411230
0.19321625 0.01969352 0.82532310
0.29738107 -0.09292758 -0.43130046
-0.00218502 -0.42722470 0.25827003
0.25859293 0.17942056 0.64867586
-0.14087968 0.19523269 0.42910454
-0.23635493 -0.32067591 0.68361253
-0.28474814 0.17303729 0.42355239
-0.10424263 -0.31151697 -0.07421465
-0.19968797 0.02997255 -0.45142382
0.01721714 0.24385846 -0.18215945
-0.07069569 -0.00530688 0.86942464
0.18930250 -0.20765638 -0.08152863
-0.01610153 -0.41342643 0.06894689
-0.02514736 -0.32250255 -0.16789165
0.10647988 -0.03456329 -0.50474566
-0.23672211 0.11380255 -0.21780986
-0.28820348 -0.00038572 0.63621604
-0.22937472 -0.31088281 0.75234067
0.22150111 -0.27990228 0.09406020
0.00711049 -0.07863776 0.92817855
0.05546582 0.24559850 -0.17882171
0.13135874 -0.20981744 -0.26500776
0.01817273 0.21767297 -0.02868940
-0.15582079 -0.16139489 -0.40671521
-0.21036012 -0.04777622 0.85119504
0.17049710 -0.14733166 0.91810149
-0.20432355 0.15642393 0.41611415
0.26310802 -0.14465182 0.41491044
-0.30699369 -0.09648088 0.65859270
0.16715141 0.20648077 0.62630445
-0.19854811 -0.16371629 -0.43170708
0.26023281 0.12717247 -0.42350137
-0.12879324 -0.20017135 -0.25478071
0.12934776 -0.39071628 0.18287033
0.01723878 0.27646321 -0.28518745
0.14391285 -0.43652490 0.59053177
-0.23124276 0.09365954 0.46742710
0.12197614 0.20094052 0.10917658
0.20407367 0.07032333 0.75967360
-0.28081760 0.16259372 0.02326386
-0.28901184 -0.06825393 -0.37297869
0.17375480 0.18489382 -0.49438429
0.28741848 -0.01124435 0.15706423
-0.25140375 0.00780876 -0.38095367
0.02924757 -0.42284334 0.17553340
-0.14389388 0.13332953 0.69368237
-0.00096057 -0.23502620 -0.33138663
-0.29491597 -0.09096407 0.57722473
0.12390319 0.17140442 -0.53766668
0.15057172 -0.37922901 0.79784870
0.06206460 0.08414719 -0.52003735
0.10794029 -0.25415668 -0.21899548
0.24236405 -0.08306648 -0.40583819
0.23058061 0.22012436 -0.30382428
0.03678299 -0.40481406 0.02362724
-0.27616468 -0.01392056 0.14956060
0.14132932 -0.39064524 0.26670411
0.17005076 -0.41647017 0.54047382
0.29501447 0.13301168 0.51072806
-0.11904374 -0.43802416 0.51012230
-0.23396973 0.05621278 0.49443394
-0.07237898 -0.32807511 -0.10690299
-0.10640589 0.19885314 -0.01703818
-0.09283814 0.17787075 0.12974212
-0.16480874 0.09216636 0.36931163
-0.27014175 0.07859939 0.13061585
0.28097075 0.03064969 0.69430470
-0.17777091 0.23758790 -0.38364387
0.20409453 -0.09689023 -0.12477905
-0.18311112 -0.38919547 0.51385510
-0.26667461 -0.02894754 0.02561238
-0.01602082 0.06707898 0.77668536
0.12695092 0.15729305 0.64310908
-0.00059262 0.14862269 0.61699611
-0.11045543 -0.29507858 -0.09498945
-0.00532480 0.20479485 0.09787461
-0.27295625 -0.05018356 0.16533422
-0.23956451 -0.07385981 0.30837226
-0.27786747 0.16633233 0.04908463
0.11917537 -0.32071033 -0.07503274
-0.11632799 -0.14361180 -0.42621887
-0.27052376 -0.15706368 0.49838856
-0.14750512 0.17703274 -0.14514762
-0.24630094 -0.07549732 -0.25875965
0.13331200 0.25633034 -0.29510462
-0.22644632 0.06263649 -0.41304797
-0.11393958 -0.39238390 0.80252647
-0.27117562 -0.25636965 0.69118005
0.06300930 0.15322486 -0.58697426
-0.01960149 0.28536656 -0.40294152
0.23444691 0.07532598 -0.43443441
0.20740320 0.09652431 -0.02663918
0.20316206 -0.33824211 0.34194618
0.28490838 0.15362418 -0.00641747
0.07499868 0.20262128 0.10056084
0.27365947 -0.18180968 0.11626983
-0.25138789 0.16870511 -0.03138271
-0.04583318 0.17932591 0.53338194
-0.10295647 -0.29379410 -0.11397269
-0.23884483 0.17792538 -0.44072539
0.02302126 -0.47052115 0.49929696
-0.27890691 0.14600232 0.08677004
0.13419290 -0.32837245 -0.02496977
0.02291711 0.09125932 0.74010891
-0.30276373 -0.11199533 -0.43166792
0.01640520 -0.46269056 0.41999927
-0.14079499 -0.41323996 0.69489485
0.13188742 0.22102845 -0.52852279
-0.21690562 0.07522261 0.46352193
-0.22243275 0.22166723 -0.29831561
-0.06162146 0.23531047 -0.14046761
-0.01073181 0.16557726 0.57676715
0.21232180 -0.02054494 -0.12588361
0.02257710 0.14209861 0.64230639
0.18423830 -0.18428341 -0.12133011
-0.19211254 0.07946801 -0.12664694
0.13785006 -0.14898878 -0.41834217
0.42468011 -0.11503721 -0.38054329
0.16088057 -0.39846879 0.70975393
-0.24171792 -0.07784134 0.32356977
-0.09503532 0.06219520 0.79974264
-0.18888070 -0.34253737 0.78946769
0.13789083 -0.43406370 0.46896514
-0.28366375 -0.00766549 0.58748496
-0.29567483 -0.13955143 0.71407759
0.26225588 -0.09023927 -0.44118953
-0.02565482 -0.43481591 0.30898324
-0.21715358 -0.27591383 0.35389066
-0.17193283 -0.25300765 0.89052933
-0.25312248 0.15551826 0.66863406
0.28480944 -0.25559217 0.70265263
0.18965843 0.14036231 -0.04162115
0.19746082 0.13227090 0.19899841
0.31490859 -0.11221356 0.68916357
-0.04584262 0.18753824 0.35883239
-0.28487280 -0.03263743 0.10476878
-0.08613525 0.26766667 -0.41687697
0.08135735 -0.46872354 0.58698475
0.12170719 0.24677366 -0.48719615
0.24419647 -0.08449864 -0.24826264
-0.38114789 -0.15406176 -0.44131762
0.01820095 -0.46387413 0.71368706
-0.23150097 0.11496547 -0.01997483
-0.11059695 0.23666540 -0.55003083
0.08977150 -0.09014133 -0.49004674
0.18368308 -0.35935545 0.79648060
0.10101265 -0.24892378 -0.22035202
-0.00397557 0.23632118 -0.12287271
-0.02988405 -0.35264426 -0.08302611
-0.21270293 0.03923543 0.31433237
0.15268005 -0.42203653 0.44848296
-0.33916813 -0.13628225 -0.36673313
-0.24677491 -0.16639300 0.22292605
-0.01266747 0.22251272 0.03344537
0.29232246 -0.09731123 -0.45755577
0.09046481 0.16741568 -0.56952447
-0.40129447 -0.13894022 -0.37389606
0.20493877 0.11479639 -0.03338988
0.23040290 0.09549756 0.73064208
-0.04265608 0.24411345 -0.15908894
-0.13712783 -0.07385831 0.91436911
0.17931737 -0.16735271 -0.25821912
0.24118973 -0.01955053 0.34973383
0.30317232 -0.22882214 0.59495199
-0.23299761 -0.33910972 0.58703327
0.17054817 -0.21270801 -0.16278231
0.01084058 0.16342327 0.55959487
-0.25173408 -0.08315094 0.21019764
-0.22173454 -0.25897968 0.31991693
-0.13635451 0.12489782 0.39822716
-0.00638285 0.05171220 0.79962671
0.04391658 -0.08999638 -0.49410284
-0.07810977 0.11318566 -0.51754159
-0.32353079 -0.11968098 -0.48771518
-0.11723498 0.19416600 -0.04528984
0.21533087 0.13374552 0.44293997
-0.30083567 -0.13494092 0.65457642
-0.05363229 0.25945446 -0.49051058
0.31145939 -0.06419750 0.63183057
-0.06434779 -0.01834052 0.88444895
-0.05216006 -0.17346986 -0.41834867
0.11324696 0.17741469 0.20440161
0.11604001 0.21971500 -0.56474370
0.18784152 -0.16148257 -0.23627552
0.12638378 0.26736188 -0.33042225
-0.23048903 -0.01667984 0.31323880
0.07103262 -0.38824546 0.01260616
-0.18768471 -0.13976341 -0.26276362
-0.15172608 -0.02887421 -0.47850794
-0.17381655 0.06812482 0.77353793
-0.28647062 -0.05964992 0.56509256
-0.03834656 0.19464520 0.18600513
-0.26988456 -0.13593352 0.09324330
-0.15993153 0.03046922 -0.47691447
0.22264571 -0.16780217 -0.38913417
-0.11941330 0.25123727 -0.23850936
0.25343138 -0.17219339 0.83058590
-0.22462203 0.04589739 -0.17956442
0.23335712 -0.26039979 0.38465631
0.26655751 -0.00327445 0.20541559
-0.25328925 -0.17495048 0.17841293
-0.15543336 0.17200613 0.40453544
-0.26319245 -0.26183599 0.71649569
-0.18300040 -0.14304085 -0.23797983
0.00760123 -0.47312257 0.57520956
0.22092140 0.11506742 0.72009778
-0.24381857 -0.08246396 0.27823818
0.19203410 -0.28865236 0.02340026
-0.12249020 0.19980091 0.12939726
0.23427157 0.03725526 0.47293550
-0.14789401 0.12460071 0.71369416
0.28520861 0.17386326 0.42300364
0.28811061 0.11375837 0.50653040
0.16299894 0.17686683 -0.51132083
0.20225368 -0.00066622 -0.44913727
0.26946363 -0.11466263 -0.28846732
-0.13014989 0.25951612 -0.42475706
0.15808807 -0.17867869 -0.34858227
-0.25429228 0.05692153 0.02432673
0.11521681 -0.30272800 0.91736048
-0.20699266 0.11415140 -0.02522549
-0.16594921 -0.33565927 0.16550618
-0.12756436 0.16260743 0.64600909
0.13537593 0.10082929 -0.48935217
0.10785536 0.16574189 0.34364170
0.20583880 -0.05905310 -0.41842300
0.16941465 -0.12975584 -0.42958605
-0.19954281 -0.03748530 -0.15012443
0.24836928 0.18793127 0.64807129
0.31775895 -0.15861449 0.64627004
0.10029764 -0.38501716 0.04336855
-0.17984615 -0.38157499 0.48034543
-0.02242855 -0.46652505 0.63868517
-0.25659049 0.11998668 0.47344008
0.30401790 -0.16403040 -0.38847697
-0.13506474 -0.38785064 0.77563620
-0.20847753 -0.17411828 -0.39539146
-0.17081898 0.22891095 -0.43906170
-0.13087620 0.07131501 0.78978467
-0.27883264 -0.13862117 -0.33099037
0.19085099 0.15772042 -0.48844945
-0.28963196 -0.04414342 -0.35392922
-0.13802737 -0.08124397 0.91718084
-0.17400359 0.18527380 -0.18395120
0.25579143 0.04392564 -0.22213116
0.19229822 0.23571312 -0.28888047
-0.19397004 0.05463850 -0.12055561
-0.08447301 0.17452103 0.59321254
-0.04942302 0.14557225 -0.57502860
0.08853758 -0.23043910 -0.28637734
-0.02449560 0.17625600 0.44250473
0.28077164 -0.12217736 -0.48421037
-0.17872676 -0.17152992 -0.08436921
0.01373544 -0.47239348 0.60555995
-0.13235506 0.12983087 0.41205135
-0.26414654 -0.05173285 0.50846946
-0.22940324 -0.15583459 -0.00686648
-0.28785324 -0.10525128 -0.41038132
0.07569877 -0.43563941 0.32485455
0.23765415 0.04414892 0.48239139
0.26038930 0.10241957 0.70474565
-0.11329515 -0.43316314 0.45416543
0.14113013 -0.34105936 -0.00129436
0.24626350 0.07411158 0.73349518
-0.07497578 0.17408696 0.37884653
-0.16011786 0.00089267 -0.48604769
-0.18124197 0.20945832 -0.21740758
-0.11284025 0.19486341 -0.15771875
-0.22034217 -0.13536125 0.86214823
-0.36859027 -0.09889041 -0.42989010
-0.08290900 -0.29550576 -0.16097605
0.01365215 0.12542555 0.68425328
-0.19820188 -0.17617857 -0.38361394
0.22231917 -0.32178408 0.78208065
-0.10701402 -0.10472551 -0.45507950
0.16084950 -0.41940215 0.60299611
-0.04335873 0.07666866 0.77586156
-0.00107233 -0.46159559 0.73916113
0.32275856 -0.02388912 -0.33235568
-0.21586320 0.22600493 0.62124813
-0.14345893 -0.40587893 0.40994197
-0.20668583 -0.27408767 0.15379880
0.02487229 -0.47514439 0.48184267
-0.03488526 -0.34293652 0.92600644
0.01584220 -0.14725290 -0.45326871
0.18237229 -0.12114160 -0.44859296
0.09864877 0.09066866 0.74734735
-0.16734089 -0.39072940 0.67707914
-0.30593225 0.18883133 0.44675580
-0.17132556 -0.03945982 0.87815964
-0.29995304 -0.10204349 0.60372424
0.12133418 0.20000333 -0.03751734
-0.27440807 0.13496907 0.02818535
-0.21121259 -0.26980990 0.23319969
-0.21942045 -0.11042273 -0.47131294
-0.07416585 -0.45635429 0.56516349
-0.27402210 -0.02632806 0.73161095
-0.23148675 -0.04826847 0.40932733
-0.21227734 0.03183565 0.44297892
0.20470443 -0.31594887 0.28911495
0.03595996 -0.32300484 -0.16516048
-0.21107738 0.02408127 0.39781183
0.15076964 -0.42374140 0.66309226
-0.07500322 -0.37373269 0.01107058
0.23526451 0.01488365 0.31055561
-0.16681349 -0.14747462 0.91422272
0.22578305 0.14362273 -0.20259923
0.21401419 0.15111244 -0.04088323
-0.07454447 -0.45552012 0.47396490
-0.26462710 -0.13539533 0.16040926
0.02410049 -0.17756486 0.94784784
0.26534650 -0.17162776 0.22019608
0.14106932 0.12379345 0.40911335
-0.07406967 0.12179275 0.70356363
0.12709603 -0.22114034 0.94674140
0.13606748 -0.21264428 -0.27333450
-0.00526349 0.13093540 0.67990834
0.23951946 -0.00810685 0.80494136
-0.07394068 0.20854127 -0.08449543
-0.42718989 -0.15366809 -0.37426341
-0.07485242 0.08889669 0.76404893
-0.04127085 0.26305631 -0.49031669
0.26686040 0.13544206 0.67600179
-0.26456764 0.21689391 0.61126316
-0.11118729 -0.42234495 0.38220996
-0.21613802 0.17114809 0.40577295
-0.04957471 0.21381864 -0.12867543
0.15248206 0.17047209 0.65764499
-0.23387484 0.05890541 -0.40988404
0.03300534 0.09267269 -0.53923041
0.26772451 -0.09866263 0.23495099
-0.26603204 -0.15059194 0.48501113
0.04300337 0.16693076 0.55244303
0.29781720 0.16498926 0.57210040
-0.28316042 -0.04243929 0.72589070
0.07393830 -0.47261301 0.61307967
0.06521518 -0.35638148 -0.03758991
0.30783957 -0.16885737 -0.38674915
-0.21739858 -0.04462951 -0.38640559
-0.24339803 0.13618141 -0.25063932
0.26535967 0.02359924 0.19474089
-0.22551341 0.02682953 -0.40712172
0.21769910 0.17514744 -0.22155651
0.14459355 -0.12006442 0.92604136
0.25321957 0.07803482 -0.00901979
-0.19679621 -0.32714963 0.39688024
0.09372548 0.19025016 0.15713648
0.01163905 -0.46791747 0.65557081
-0.22052288 0.14027239 0.70873523
-0.24378853 -0.08549594 0.35356042
-0.14773712 0.17286780 0.15598939
-0.39909622 -0.13584706 -0.45854574
0.26503864 0.03596117 -0.24950495
-0.05651953 0.16293585 0.43597823
-0.17804340 -0.24419343 -0.03384915
-0.30131808 -0.07845306 0.66755295
0.04514788 -0.21232894 0.95922041
-0.28061858 0.16364473 0.59117746
0.12040690 0.17878559 -0.07582973
0.11657980 -0.43985012 0.71124095
-0.02486384 -0.41280743 0.17858082
0.09038676 0.25245541 -0.21991161
-0.27608430 -0.27008206 0.58056962
-0.27659658 -0.26226193 0.58031964
0.26371756 -0.07536168 0.22576740
-0.23804769 -0.01953106 0.23335999
-0.20154470 -0.36360872 0.68498433
0.32931331 -0.12617114 -0.32187757
0.26670668 -0.11565074 0.01768790
0.29556945 -0.24207526 0.71611130
-0.14185901 0.20453316 0.43772301
0.28448457 -0.26796091 0.52203822
0.22727098 -0.27917141 0.34981462
-0.03184755 0.13703160 -0.57812983
0.05955061 -0.14455220 -0.44741809
-0.17421526 -0.22932678 0.89421195
-0.28002444 -0.21556741 0.72963667
-0.27122280 -0.11840849 0.07586669
-0.22678906 -0.34019375 0.70798612
-0.20416720 -0.37659839 0.61301613
0.24661899 0.12255599 -0.21292353
0.23110013 -0.26195782 0.27092651
0.15388952 -0.21625382 0.92364025
-0.17827021 -0.14774063 -0.11261743
-0.38953760 -0.15356803 -0.44085681
0.29795024 0.12030843 0.54739368
-0.08966269 0.17867956 0.58374316
0.04352807 -0.23680583 -0.32754198
-0.26453984 0.13628602 0.11161689
-0.03828818 0.27649277 -0.46410358
0.06966810 0.26462388 -0.27415001
0.01798422 -0.38550118 -0.03279699
-0.23826541 -0.15847254 0.37378553
-0.01446158 -0.31178021 -0.18846351
-0.26466337 -0.12240078 0.05422167
0.10134383 0.20741591 -0.03489333
-0.12158645 0.14595169 0.38583523
-0.18428825 0.11161229 0.43353897
-0.14968956 -0.17477933 -0.34645802
0.11800896 -0.32005513 -0.08695590
0.10798656 -0.45167971 0.65887308
-0.23660950 -0.02489240 0.33673942
-0.27762327 0.13908665 0.04398090
-0.26689589 -0.19454011 0.47872299
0.07815181 -0.41061470 0.15826473
0.16190864 -0.27027905 -0.09106955
-0.28144389 0.16540483 0.01497559
-0.29363525 -0.20427296 0.64870054
-0.25033543 0.18100077 0.12296394
-0.24382089 0.12899788 -0.24214259
0.11830712 0.16941431 0.30391568
-0.28715694 -0.22411950 0.69428802
-0.17345674 -0.12994571 -0.13222322
-0.04501565 -0.45784742 0.69131351
0.08782511 0.19825161 0.04983308
0.03285114 0.19214913 -0.60905260
-0.24416867 -0.01420088 -0.00163524
-0.29107165 -0.10062198 0.53318864
-0.26832092 -0.13484229 0.47356486
-0.25891027 -0.13276207 0.19270530
0.16619283 0.21766889 0.12393580
0.06395908 0.01547569 0.85641813
-0.12655084 0.19731390 -0.16342920
-0.25384641 -0.13800228 -0.31174079
-0.18580644 -0.16411823 -0.41090107
0.03311923 0.24344319 -0.14639753
0.21775869 -0.10762326 -0.46131080
-0.21190289 0.01995918 0.38463765
0.23674573 0.00572404 0.31832913
0.30006659 -0.07730382 0.72503871
0.01640803 0.27285233 -0.51720905
0.26702324 0.12346607 -0.24813375
0.04889452 0.11864121 -0.55720890
0.06930679 0.18183130 0.38269091
0.06469418 0.13744400 0.64355338
-0.07316504 -0.42803755 0.31633210
-0.19956331 0.03870860 0.80145520
0.26463819 -0.14426829 -0.30986130
0.01366787 0.19374549 0.35794544
0.15948419 0.15001705 0.24354729
0.06575541 -0.37572533 -0.01360667
-0.05333835 -0.18328038 -0.39131683
-0.07464445 0.17375752 0.29512349
0.10342836 -0.45890903 0.54592431
0.09729302 0.07776362 -0.49484241
0.25091687 0.03444903 -0.39608538
0.17346622 -0.40304410 0.62563968
0.28588018 0.04374333 0.56682366
-0.26884273 0.20618170 -0.03940140
-0.04858476 0.09663321 -0.52777767
0.06447575 0.02240239 0.84559673
-0.14291134 -0.35716504 0.18275279
-0.01116504 -0.41933298 0.17039689
-0.26488927 -0.29236391 0.63013685
0.18214130 -0.29987621 0.01069398
0.27044532 -0.05976065 -0.27431971
0.20326236 -0.08425301 -0.14140749
0.23380814 -0.35086736 0.56505728
0.32098433 -0.09345648 -0.42019469
0.27376926 -0.10442062 0.02930684
-0.23046164 -0.21004248 0.26540047
0.28260356 0.11128168 0.03094389
0.24255885 -0.32782987 0.47880477
0.06958364 -0.27796194 -0.22707191
0.02275590 -0.44625959 0.33225584
0.16182688 0.16280872 0.66739476
0.14343278 -0.40937805 0.36055118
0.14680667 0.23603964 -0.48030645
-0.03862575 0.09095560 -0.54008132
-0.18185756 -0.22562814 0.88753051
-0.28873566 -0.14639750 -0.46276999
0.28368539 0.13247646 0.46790296
0.22266020 0.02153644 0.37880337
-0.21084701 -0.03135479 -0.16612536
0.12335612 0.21237007 0.02078436
0.18551727 -0.37976822 0.40322334
-0.09490842 0.19513762 -0.10536566
0.08171144 -0.15476288 -0.42680413
-0.17941736 -0.38032311 0.66620368
-0.07843553 -0.05626338 -0.50298989
-0.13937108 0.13758878 0.69465142
0.27418655 -0.09782238 0.02752273
-0.07350469 0.18130156 0.13162619
0.12229814 0.25373831 -0.26249453
0.29194504 -0.04088566 0.07017155
-0.04192735 0.23048463 -0.16890299
-0.28567994 -0.01029591 -0.29453889
-0.07633043 -0.44286895 0.71608013
-0.28159118 -0.16956411 -0.38531166
-0.06089898 -0.02988934 0.89716476
0.25454390 -0.19307438 0.29025009
-0.23130418 -0.15599521 0.84999287
-0.09194110 0.18206131 0.57689881
-0.31395656 -0.15313521 -0.45246774
0.30845475 -0.16983543 0.70308053
-0.24724868 -0.03006580 0.20624289
0.24180317 -0.01085086 0.37658700
0.21651167 0.15378442 0.69243240
-0.02031608 -0.33080786 -0.15698496
-0.20938189 -0.27269009 0.18074656
-0.11299407 0.17933989 0.13654131
0.06055283 -0.24118364 -0.31582037
0.14941509 0.14748368 0.27068910
0.04994229 0.18639222 -0.61017299
-0.27583182 -0.03659252 0.74211466
0.00303538 -0.47493118 0.62049055
0.07985063 -0.43951258 0.42859253
0.20433594 -0.22577907 0.88196468
-0.36805016 -0.14379172 -0.37355942
0.21150638 -0.31210089 0.37928706
0.17085646 0.17716908 0.41838437
0.02580957 -0.01560964 -0.50911081
0.10874137 -0.33582523 -0.04909763
0.06424937 -0.44607052 0.35682166
0.21105017 -0.01880380 -0.08038095
0.03397511 0.20805910 0.13896506
0.07158051 0.11650045 0.70313734
-0.27886465 0.12065057 0.60869431
-0.12379047 -0.38224003 0.21158196
0.32022488 -0.08257067 -0.40094233
-0.09789024 0.07949370 -0.48974776
0.30944246 -0.16374208 -0.46161008
-0.26879224 0.08983336 0.51076037
-0.03998075 0.20327273 0.15839235
-0.41865399 -0.15175352 -0.37528181
-0.27356333 0.18411237 0.07936952
-0.08949540 0.17484671 0.23420143
0.30552679 -0.07934061 0.70819443
-0.00029500 0.20643368 0.18589096
-0.25539806 0.08090620 -0.26233768
0.02755859 -0.12106404 -0.48072404
0.03719476 -0.07474712 0.92567796
0.09374059 -0.42733118 0.76497406
0.27359927 0.07554686 0.01494640
0.24932820 -0.22617380 0.04394029
0.28102455 0.09349400 -0.37080938
-0.01920117 -0.19216549 -0.39642537
0.10088684 -0.40047941 0.13544731
-0.14849991 0.14616317 -0.11859581
-0.35552770 -0.15782197 -0.41938907
-0.18810272 0.14623767 0.70137954
-0.10312287 -0.44675231 0.59128261
-0.00225208 -0.25393084 -0.29650757
-0.12902434 -0.36712843 0.15691416
-0.23526068 -0.21389934 0.25815237
0.12705384 0.14837679 0.40124941
-0.07650961 0.17292812 -0.57442826
-0.03458745 -0.39894605 0.85354131
0.25128326 0.00059969 0.77952141
-0.03148820 0.15342429 0.61049640
0.06606593 -0.44805026 0.74482203
-0.26686513 -0.28268069 0.62097645
0.24564712 0.06098595 0.73859823
-0.25138330 -0.17257893 -0.40512377
-0.02302664 0.15035126 -0.59399819
0.03481849 -0.17243125 -0.42690551
-0.07026895 0.01267280 0.86106128
0.10042032 -0.08472009 0.92821389
-0.23127973 0.19246477 -0.36776751
-0.24562408 -0.12605426 -0.29176491
-0.02147497 -0.30524415 0.95039290
-0.28243607 -0.07144350 0.11727126
-0.17618296 -0.25745878 0.88000613
-0.27656829 0.01252664 0.65450251
-0.16181308 0.23282257 -0.24571997
0.17088145 -0.02601051 -0.48339540
-0.24895416 -0.32930315 0.60328889
0.29570737 -0.07354397 0.11044328
0.01262348 0.26114699 -0.54446959
0.25831014 -0.18697298 0.26815987
0.08710870 -0.43279314 0.76944137
0.20809814 -0.36456746 0.70738876
-0.22902758 0.04339613 0.77013022
0.04993887 0.27803710 -0.37722725
-0.02150983 0.07777314 0.77180326
-0.13349548 -0.39153513 0.32856202
0.16819046 0.25853288 -0.38472831
0.26344419 0.19175020 -0.34232223
-0.02810869 0.25794810 -0.23732635
-0.20676292 0.09145465 0.22312070
-0.09026115 -0.04876324 -0.50415349
0.30919018 0.20972633 0.52017361
-0.06780066 -0.17396435 -0.39611787
0.08130790 -0.15865651 -0.43843108
-0.29484648 -0.13244455 0.56404781
-0.23792014 -0.01634841 0.46710929
-0.18146466 0.05098885 -0.08374527
-0.19211429 0.20068011 0.64112115
-0.19251016 -0.11404042 -0.20706499
0.12046628 0.17003256 0.64211297
-0.06146271 -0.45834905 0.58314753
-0.26926050 -0.04344926 0.16678859
-0.10877994 -0.44108436 0.53675497
0.27267012 0.20524374 0.09389269
-0.14923425 -0.41701305 0.58876002
0.05223215 0.15459347 -0.59716696
-0.24930081 0.08089337 -0.40098727
-0.14640674 -0.18188013 -0.32883531
-0.23650648 -0.23458162 0.42493552
-0.03140387 0.08762470 0.74886799
-0.10783631 0.20851710 0.09506047
-0.23732755 0.03725748 0.75102299
0.09935033 0.10242744 -0.50407028
0.30438438 -0.02588783 0.63839281
0.31087989 -0.04982369 0.66991305
-0.00139195 -0.43017969 0.23683164
0.29185739 -0.01891406 0.69163275
-0.15108009 0.17688394 0.42371383
-0.27887529 -0.08320694 -0.41660899
0.01396844 -0.31212175 0.95131189
0.27373922 0.08927479 0.01485337
-0.21866681 0.22158158 0.62496305
-0.22612862 0.01375673 0.47814372
-0.22623374 0.07363133 0.20487219
-0.24865787 -0.16402438 -0.33086145
-0.13400802 -0.20624542 -0.22540268
0.14224352 -0.35703117 0.11036184
-0.27670428 0.05516256 0.65605867
-0.29921094 -0.02704189 -0.29065251
-0.10903515 -0.44171834 0.55213493
-0.25866657 0.14357737 -0.33322370
-0.25082418 0.12163469 0.45613775
-0.05636209 -0.10942208 -0.48227894
0.24130869 -0.11915597 -0.27019253
0.19979492 -0.34102750 0.37462932
-0.27591586 -0.03702724 0.72546154
-0.23893015 -0.19665770 0.31458232
0.26200452 -0.12632836 0.32296062
0.22892901 -0.03678565 -0.39976060
-0.26230744 0.00716440 -0.28240165
0.14608078 -0.37150955 0.16049863
-0.21966797 -0.21160109 0.00299619
-0.12671545 0.17810112 0.13775745
-0.09846363 0.27286312 -0.42955005
-0.05684184 0.04633844 0.81854624
0.07301079 -0.31817067 -0.15363264
0.26122713 -0.18403065 0.36816823
-0.18765247 -0.07787232 -0.42664981
0.23247437 -0.22593826 0.84056932
0.12233411 -0.44196117 0.67967272
0.13481988 0.18250626 -0.10300463
0.44900209 -0.13868648 -0.37955523
-0.33409694 -0.05877188 -0.33009508
0.03829358 0.00294066 0.86002076
0.21054558 -0.01531054 -0.11641175
-0.25287047 -0.00073942 -0.26049376
0.05349535 0.16006610 0.56021440
0.08875412 -0.03530436 -0.50474906
-0.25908267 -0.28712934 0.53068513
0.23566417 0.02832909 -0.41964674
0.31161118 -0.01835466 0.63735735
-0.07539722 0.20307985 -0.11015442
0.16737717 -0.38236916 0.76980913
0.22335307 -0.09936233 -0.04849824
0.31759673 -0.13986890 -0.47100013
0.12632872 0.17237920 0.19702511
0.17229041 -0.13363579 0.91575575
0.20432335 -0.27248114 0.00925353
-0.23548594 -0.32658595 0.68762046
-0.24323484 -0.17857689 0.35469657
-0.23630570 -0.19843906 0.20215276
0.19866982 0.21086448 0.63073468
-0.15907045 -0.27009553 -0.03773518
-0.00168437 0.18870929 0.44043553
0.02538534 -0.46435112 0.46519148
0.16530611 0.11937319 0.36713767
0.19691665 -0.13843289 0.90763956
-0.08531703 0.27067101 -0.32784051
-0.20625900 -0.33277395 0.45223022
0.38946322 -0.10500245 -0.42889959
0.05863223 -0.35866645 -0.06515044
0.00029040 -0.43065315 0.23109341
0.00749751 -0.47290891 0.43363455
0.21299927 0.17174381 -0.21137208
0.15883884 -0.40110710 0.36198443
0.26358864 -0.14016311 0.22937538
0.28459835 0.03910406 0.05835544
-0.10143818 0.18315190 0.58753026
-0.27295122 -0.09104292 -0.41651475
-0.18236607 -0.38879591 0.63308275
-0.20909110 0.11763544 0.18647964
0.09174484 -0.33363548 -0.06046297
0.20278868 -0.11196205 -0.10951382
0.25066149 -0.09145281 -0.44422913
0.12541544 -0.20637918 -0.29975799
-0.15025505 -0.12779349 -0.44324052
-0.08186653 -0.29791179 -0.13897303
-0.07742000 0.28138551 -0.36977208
-0.11921152 0.05808036 0.79959553
0.31987804 -0.11115102 0.62075293
0.26565129 -0.04144682 0.21978930
-0.19083291 0.14170384 0.18207535
0.20640844 0.14302361 -0.05238841
-0.29919353 -0.06935245 0.60181093
0.23786609 -0.30827636 0.76050478
-0.18012525 -0.04266200 -0.44203514
0.20577043 -0.34310740 0.33560419
-0.23354258 0.00995544 0.22360018
0.23507906 -0.35825402 0.57271534
0.08640774 0.12728812 -0.52475423
0.11632639 -0.44276246 0.66055238
0.05079180 0.18306953 0.41536409
0.00798753 -0.24314402 0.95933563
-0.05823273 -0.46225443 0.59224176
0.16081916 -0.41129470 0.68497318
-0.20047233 -0.30868390 0.31904832
-0.23801710 -0.20548654 0.42158929
-0.06445462 0.18438616 0.54141581
0.17437379 0.13958509 -0.07108048
-0.03669302 0.08829570 -0.52786267
-0.19893511 -0.08577401 -0.44700766
0.20743635 -0.38148698 0.64387739
-0.25702196 -0.08483794 0.48624295
-0.08158754 -0.32693940 -0.07930686
-0.17296158 -0.32202408 0.13272510
-0.25847420 0.12156466 -0.27055395
-0.25660023 0.20574903 -0.05108470
-0.26030856 -0.15497233 0.80095142
0.07605743 0.16469923 0.52629733
0.02232120 0.27565056 -0.27526057
-0.19916631 -0.30672935 0.29401898
-0.39230362 -0.14017940 -0.36540174
0.21561289 -0.09150165 -0.18477759
-0.20382619 -0.27571458 0.09546672
-0.11434855 -0.35378492 0.85644299
0.11935639 -0.45019585 0.59614444
-0.24062982 -0.07778097 0.35368001
-0.23962721 -0.25728637 0.45071155
0.02259362 -0.39328408 -0.00373875
-0.26359430 0.11454543 0.49645680
-0.19665197 -0.03135009 -0.12697175
0.21022578 0.14262971 0.18132997
-0.03684722 -0.32559231 -0.14348614
0.27881292 -0.29352784 0.66811681
-0.24635760 -0.12834573 0.82033199
0.13712738 0.14308545 0.69404262
0.18152076 0.13299112 0.22425321
0.22229670 -0.26738012 0.83956712
-0.25265715 -0.30205315 0.51952183
0.19453102 0.24889687 -0.38228583
-0.08072665 0.18950269 0.55205321
0.24575828 0.07243451 0.48905465
-0.25781250 0.02047239 -0.31426471
-0.23410206 -0.03109022 0.34811074
0.06087366 0.02612214 0.84033656
-0.12120865 -0.19556400 -0.29515603
-0.01980282 -0.43129206 0.30857742
-0.18505719 -0.11710199 -0.11159024
0.22223932 -0.27837729 0.26786810
0.20229790 0.06864317 0.42792976
0.17402978 -0.16429868 -0.41169995
-0.26032308 -0.10373037 0.04063579
-0.05380449 0.23516724 -0.16376927
0.08425006 -0.41480112 0.16593188
-0.25862610 0.14455128 -0.41663182
-0.21898080 -0.17723423 -0.37284148
-0.29299843 -0.12913042 0.72348952
-0.29557022 -0.05211167 -0.35602218
-0.10138773 0.20708716 -0.03604205
0.18308024 -0.17924093 -0.13342187
0.16330729 -0.29211137 -0.05068699
0.32920781 -0.10583076 -0.48347580
-0.22632027 -0.12813826 -0.28852388
0.27728486 -0.15128431 0.45794538
-0.06156758 -0.45685339 0.46473837
-0.18162030 0.16116419 0.69075835
-0.08119896 0.18821776 0.53448749
-0.23365821 -0.07931173 -0.39096850
-0.21371801 -0.26178429 0.21232706
-0.10502038 0.18473560 0.57734668
0.27251801 0.19818845 0.09367397
0.04184669 0.19556531 0.23199457
0.07891236 -0.14412604 -0.45284832
-0.12578318 0.19344884 0.14164557
-0.28400841 -0.07252921 -0.37357974
0.15016396 -0.39388594 0.29929936
0.04746920 0.13894102 0.62038445
0.34793946 -0.08676061 -0.39677781
0.01657082 -0.10922316 0.93369687
0.20974256 0.17261255 0.67149645
0.23833944 0.21855563 -0.36085755
-0.23566221 -0.33018032 0.69504893
0.25259477 -0.20801529 0.29605114
-0.06540878 0.22070837 -0.01310316
-0.13174623 0.21550772 -0.50459331
-0.14184096 -0.24253860 -0.13254461
0.20281458 0.04062617 -0.04949015
0.23764080 -0.00225753 -0.01157288
0.20295028 -0.14754468 -0.25378498
0.13848920 0.17879462 0.15233602
0.04895504 0.11307976 0.70000643
-0.18125863 0.17761025 0.40551010
0.26277086 -0.11278019 -0.28976119
0.04721908 -0.46829894 0.65336895
0.26128864 -0.03538768 0.79774106
0.19610631 -0.36776322 0.74154776
-0.19006796 -0.09232263 -0.44642913
-0.25904134 0.07492460 0.69898218
-0.25054908 -0.11053297 -0.28578150
-0.16292876 0.24757048 -0.40979373
0.24721113 0.00075752 -0.20510280
-0.16761774 -0.38873485 0.43226632
0.05530703 0.21349934 -0.05851263
0.00867080 0.18786544 0.44217610
-0.27907619 0.08991323 0.57817608
0.16129121 -0.42998582 0.54957259
0.28786412 -0.15746257 -0.37369251
-0.29540122 -0.16114806 -0.37767214
-0.27084962 -0.01317918 0.15351939
0.28043827 -0.28616315 0.67645550
0.07360882 -0.45411712 0.43750730
0.20411088 0.09707431 0.25535774
-0.25840285 -0.05917274 0.01989745
0.07641167 0.14141573 -0.56670362
0.12603806 -0.39808226 0.79944170
0.20900226 0.09463660 0.46670946
-0.26656580 0.05950981 -0.31186286
-0.16200402 -0.17399247 -0.31585339
0.04603588 -0.13984308 -0.46131134
-0.16712722 -0.18226135 -0.11524567
0.08738986 -0.20876291 -0.35119325
-0.26390663 -0.16840152 -0.44173217
0.12250042 0.20907876 0.03049670
-0.24964607 -0.04236655 0.20744948
0.10151582 -0.45057416 0.70006311
-0.19786704 -0.37596574 0.65432560
0.02213231 -0.26366517 -0.29917318
0.20492938 0.24174863 -0.36479813
0.28671536 -0.12500410 0.05959546
-0.24643849 0.01997991 -0.37551910
-0.06501777 -0.38899958 0.85519749
-0.26850310 -0.14235011 0.78732091
0.31312022 0.16212896 0.52218485
0.04399002 0.22996086 -0.58772725
0.16904628 0.20299834 -0.19844609
-0.07933217 0.24821609 -0.51724076
0.05299680 0.18255135 0.39938998
0.00897800 0.00096718 -0.51406145
0.02423392 0.19436520 -0.60708237
0.02507382 0.22526503 -0.05073233
-0.28135774 -0.08439268 0.10838214
-0.12556663 0.16048008 0.26569259
-0.14962633 -0.40622833 0.68898350
-0.22217821 -0.02605392 -0.20092210
0.06309146 0.16590443 0.50940442
-0.29564726 -0.15065746 -0.34566534
-0.12564535 0.15310100 -0.50606382
-0.09515350 0.16596481 0.28903952
0.24583505 -0.30789474 0.74202472
-0.39952329 -0.11781283 -0.42424828
0.22569148 -0.26754376 0.18376614
-0.26519972 -0.02160428 0.04231346
-0.28637543 0.20908758 -0.01037806
0.25697917 -0.26292491 0.46740299
0.13383819 0.19265029 0.46320692
-0.27903619 -0.06221346 0.54369849
0.24805871 -0.16283113 -0.43070847
-0.20764805 0.03422056 0.35021842
-0.24826632 0.02687155 -0.36925262
0.07613432 0.19946197 0.11882867
-0.00948135 0.14592555 -0.57763594
-0.24158727 0.10836844 0.16698593
0.26428598 -0.07283480 0.25519821
0.19176093 -0.29243684 0.03601046
-0.08535064 -0.38028100 0.06215730
0.01060525 0.27414849 -0.28090611
0.31184301 0.15485302 0.53147197
-0.25160527 -0.10080895 -0.47447973
-0.17511152 -0.19560504 -0.08769467
0.24074982 0.18092433 -0.45386207
-0.28063571 0.00999022 0.66988409
-0.24061562 -0.31429619 0.50242168
0.20940028 -0.38721189 0.52642465
-0.01519215 0.22677574 -0.07284266
-0.28389990 -0.01274238 0.10280816
-0.18256402 -0.13324949 -0.20869127
0.27078545 -0.19243562 0.11151963
-0.01952480 -0.23941940 -0.31495211
0.29828420 -0.00808094 -0.33630788
-0.06999864 -0.44373322 0.41648644
0.20455746 0.01169720 -0.46098697
0.28798419 0.14436010 0.03482473
-0.24349853 -0.18304469 0.82686955
-0.18052603 0.15233478 0.42852655
-0.19326037 -0.26920027 0.03156102
0.21371406 0.23049903 -0.32246479
0.26629907 -0.12223701 -0.29274684
-0.20855100 -0.27504125 0.16394565
-0.31078050 -0.09480250 -0.30597192
0.27058437 -0.12348562 0.80901319
-0.00677538 -0.35916480 -0.09909394
0.21247692 -0.30509347 0.30436778
-0.21745647 -0.17612922 -0.38343030
-0.26002860 -0.28739512 0.62833190
-0.13900086 -0.37772477 0.80864257
-0.03409564 0.27572116 -0.49611109
-0.21839613 0.00248300 0.39305156
0.10167298 -0.31744546 0.91500497
-0.06509018 0.18053174 0.19761553
-0.27726865 -0.03444070 0.14158034
0.28459027 -0.06325910 0.17011702
0.27764210 0.07480259 0.68307352
0.20562640 -0.29751959 0.06789465
-0.28361061 -0.22959767 0.54726541
0.30945450 -0.11287710 0.57703125
0.06894623 0.26684240 -0.50417572
0.09750140 -0.24206635 -0.26499471
-0.22215262 0.21219271 -0.31709725
0.23072143 0.02287312 0.37937275
0.18063690 -0.01365021 0.86807948
0.40587687 -0.09668272 -0.37189311
0.00811392 -0.39697251 0.00033315
0.01829963 -0.29660881 -0.23503914
0.24742976 0.09997420 0.71454030
-0.24517730 0.09869146 -0.00019968
0.19830626 -0.24604982 -0.04678933
0.05725795 -0.47252893 0.65703464
0.11503933 -0.40127131 0.18774176
0.14554483 -0.23963657 0.92569101
0.24049805 0.07043457 0.74508345
-0.01094718 0.18521610 -0.61197770
0.31283030 0.19532368 0.43093276
0.16504802 0.18924806 -0.05082560
0.31094566 -0.11961057 -0.47804743
0.04387351 -0.43014190 0.26520893
0.02394903 0.17417720 0.52920163
0.25136909 0.22462645 0.61168754
0.28785506 0.14760670 0.10161591
0.17052649 -0.02529674 -0.47086120
0.19412205 -0.15065688 -0.26245886
-0.16382240 -0.35124049 0.24950498
-0.17402090 -0.07909733 -0.43845737
0.27972889 -0.01691885 0.04744301
0.08041275 -0.38448179 0.08987274
0.12527895 0.26420569 -0.30426347
0.11246574 0.19306305 -0.03723669
0.25347421 -0.13393322 0.84437960
0.09324026 0.19648808 -0.06269950
-0.04819637 -0.13823602 0.94099188
0.07901452 -0.22818384 0.95575005
0.03123500 0.13280354 0.65345657
-0.21270491 0.11566943 0.72844446
-0.16263327 0.07044327 0.78204584
-0.11247352 0.11739326 0.72146320
0.21392651 0.23114601 -0.31591189
-0.08239070 0.18429586 -0.58804244
0.26410061 -0.12395948 0.82008910
-0.15585983 0.17898190 -0.15640342
-0.06340513 0.27908018 -0.43013388
0.03602014 -0.22700873 -0.34660602
0.27999794 0.13226756 -0.30881494
0.02057257 -0.16979600 -0.42118990
0.09227177 -0.41437852 0.29699165
-0.00661354 -0.42326477 0.21303976
-0.16082101 -0.32031134 0.05854139
-0.20883586 0.09541979 0.46244842
0.24905905 -0.21705770 0.02821627
0.27097869 -0.10921656 0.46398726
0.25714028 -0.32107544 0.54842067
0.27213514 0.18919793 0.63001531
-0.24790969 0.17491475 0.66368604
0.20608892 0.01594639 0.81345320
0.13959624 -0.27869710 0.91296363
-0.07507751 0.17934087 0.14864105
-0.00342334 0.18892616 0.43359643
-0.23639759 -0.19185109 0.39256179
-0.13347830 -0.38784182 0.27976605
-0.18803796 -0.28795815 0.06321866
0.20985468 -0.05747005 -0.11095819
0.27353299 0.21588269 0.08400930
0.05634323 -0.44509193 0.33648059
0.08823362 -0.09954435 -0.47323030
-0.33254915 -0.13805042 -0.48464698
-0.17441538 -0.23965244 -0.05098709
-0.19056243 0.11507247 0.20957357
0.29184058 -0.08545000 0.08575296
0.22805297 -0.25851440 0.22726399
-0.22490631 -0.05804844 -0.01480304
0.02362759 0.17518547 0.52103359
-0.16036627 -0.29425156 0.86847705
-0.28077424 -0.21849838 0.71682036
0.21547382 0.09175466 -0.44844127
0.00822972 0.27950507 -0.45190942
-0.19093534 0.07455704 0.35411164
0.22311336 0.05400857 -0.14570129
-0.26061085 0.04271547 -0.28516287
0.05294375 0.19894391 0.26013228
-0.20673120 -0.28404319 0.21527761
0.29116806 0.09462446 0.53571647
-0.24214683 -0.02623428 0.48875386
-0.25642583 -0.20911539 0.46676758
-0.23767669 0.02150157 0.20999305
0.24105677 -0.26518357 0.81245303
0.18579581 -0.31846130 0.07271990
0.28490469 -0.10507296 0.16325593
0.26137865 0.18943450 -0.38686603
-0.08574530 -0.31464541 0.92496979
0.27960679 -0.04344127 0.17678912
0.12062699 0.25901130 -0.28322387
-0.28170246 -0.01574775 -0.31128192
0.10761783 0.20248827 0.01736876
-0.02141467 -0.37225899 -0.05224405
-0.12018485 0.20312849 0.54949284
-0.09264021 0.19759098 0.04246229
0.29035363 0.11366382 0.63794172
-0.20875803 -0.12361678 -0.26567215
-0.37887254 -0.13095763 -0.46261662
-0.16870086 0.16251138 -0.15445665
0.20878080 -0.36129224 0.73270071
0.19337487 -0.13829556 -0.17881799
-0.21021283 0.03824398 0.36552629
-0.28692716 -0.09857325 0.73753750
-0.06263517 -0.41006988 0.82545406
-0.05600683 0.01659571 -0.50765836
0.07309392 -0.03801125 0.90615338
-0.02678568 -0.40968359 0.05119889
-0.15025130 -0.17591149 -0.27857512
0.21069358 0.13190573 -0.46200138
-0.18850642 -0.08769808 -0.44048518
0.27425241 -0.15574196 0.16773726
0.05696569 0.20852688 -0.04150392
-0.19010510 0.11301191 0.73330861
0.18017292 0.09101497 -0.05207834
0.00384918 0.25408474 -0.55258340
0.14025624 -0.34289050 0.85961431
0.01470990 -0.01031402 0.87007183
0.12169932 -0.29328489 -0.12278298
-0.07728025 0.26332954 -0.35838944
-0.09450657 -0.23421866 -0.26047888
0.16226394 0.00422085 -0.49183023
-0.26172984 -0.05950408 0.02785133
-0.11388169 0.22118968 -0.54129022
0.13424797 0.20556992 -0.54535651
-0.26778406 -0.15235379 0.06572784
-0.13002391 -0.19101714 -0.31478071
0.13194175 0.12324157 -0.49619269
-0.19757615 0.21607584 -0.40933579
-0.28231040 -0.07024792 0.09275658
0.12359792 0.16015428 0.31572062
0.18313937 -0.36209857 0.37691057
0.38745695 -0.13914891 -0.34522879
-0.17304218 -0.17722410 -0.40266496
-0.00696330 -0.44341379 0.32014126
0.22303431 -0.37784544 0.56243384
-0.02635065 -0.03365607 0.89481479
-0.04912316 0.21573830 0.07044073
-0.15384433 -0.37437239 0.29886842
0.40222880 -0.15300097 -0.44739497
0.18010500 -0.40458366 0.47793889
0.20392114 0.05997057 0.42300931
0.22277980 0.17929715 -0.04643646
-0.24723114 -0.00953577 0.50300658
-0.15283366 0.12454648 0.30758783
0.05018528 0.22996855 -0.58886248
-0.20982964 0.18984279 0.66113555
-0.15554653 0.08943780 0.75171399
0.24838755 -0.19995934 0.01976779
-0.17585085 -0.38784018 0.44716555
0.11945735 0.17826474 -0.06257704
0.35627353 -0.09322578 -0.39147276
-0.14065023 -0.37093371 0.81667197
0.30313590 -0.13502832 -0.32526723
-0.01094525 -0.13578987 -0.46660572
0.17825671 0.14082962 -0.05386399
-0.26900086 0.01451035 0.04483882
-0.23098557 -0.32017940 0.50123626
0.27466393 0.05322422 -0.28987986
-0.26879922 -0.09433328 -0.39798003
0.20539901 -0.39057165 0.55735576
-0.02175521 -0.45580265 0.75007182
-0.15522182 -0.34873664 0.16744730
0.29125684 -0.07099904 0.14177033
-0.27891177 -0.22684672 0.71933156
0.27643126 -0.13743471 0.17818533
0.28724775 0.08709548 0.54254746
0.30477622 -0.20819090 0.56049514
0.08640422 0.22053239 -0.13753688
-0.23595864 0.06850778 0.73812032
0.25050455 0.11193182 -0.43183285
-0.29538941 -0.12954746 0.71238196
-0.27924863 -0.17895493 0.51468104
0.16003935 0.20587373 -0.19795302
-0.19365032 0.16078711 -0.47460943
0.31685370 -0.12766518 0.68084371
0.04545139 -0.03530910 0.89967477
-0.18848965 -0.05138584 -0.07464913
0.11404909 -0.14239067 -0.43415189
0.24668500 -0.03432268 0.82511866
-0.14193967 -0.18576092 -0.31562999
-0.05999822 0.18843934 0.37172318
-0.04947510 -0.10569787 -0.48250592
0.05664720 0.07631466 0.76219124
0.24040613 0.04090285 0.48844787
-0.04106963 -0.46611276 0.57507640
0.03421410 -0.38325676 -0.04331079
-0.32398808 -0.09764062 -0.32466230
0.10601330 -0.30030984 0.92726058
0.28003156 0.16891456 -0.02437121
-0.26068872 -0.23565684 0.76199895
0.14017409 0.01882800 -0.50110245
-0.28981102 -0.02740150 0.64739698
-0.13624381 -0.28829980 0.90396178
-0.26352802 0.10493563 0.13461001
0.23693362 0.15748063 0.15460135
-0.11595050 0.18170029 -0.04623552
-0.12792753 -0.42702839 0.47815868
0.14516337 -0.43533731 0.61697406
-0.07439061 -0.06165107 -0.50350815
0.20374759 -0.09637339 -0.17068362
-0.32433191 -0.10390060 -0.40179557
-0.20265867 0.16843596 0.16865268
-0.21556616 0.14766514 0.17178579
0.10843683 -0.08722944 0.92951387
0.22576275 -0.09592859 0.86932266
0.01789355 0.10944718 0.70237082
-0.12135252 0.05334535 0.80549592
0.12872720 0.20431501 -0.13627809
-0.19703637 0.20576549 -0.06286334
-0.20568655 -0.14545155 -0.46172601
-0.21340579 0.02857126 0.36869431
-0.04540052 0.21788228 -0.13846582
0.04117458 -0.20596677 -0.36808193
-0.15118341 0.18195647 -0.16454688
0.18555364 -0.41042972 0.58898842
0.18675536 -0.40504703 0.56723583
0.05040022 -0.41833252 0.14499527
0.18170162 0.11202924 0.27488589
-0.28970388 -0.02877249 0.68268561
-0.26899898 -0.12801987 0.06256814
0.15388556 -0.40378356 0.36419958
-0.16346739 -0.27029887 -0.03091387
0.31289420 -0.12146731 0.58140838
-0.05376847 -0.45703065 0.52892876
-0.27306959 0.10891050 0.50041032
-0.08614722 -0.33977622 0.90819043
0.24426170 0.11608945 0.46331951
0.29268053 0.00281414 -0.30128887
-0.07192602 0.20233491 0.09868132
0.17140728 0.15795422 -0.13324314
-0.28026536 -0.01414729 0.07445712
-0.16396585 0.05485997 0.79855663
-0.12278540 -0.39404327 0.25006986
-0.27763021 -0.05225356 0.54879105
0.10659472 -0.40617847 0.79197234
-0.31162453 -0.04306669 -0.32088253
0.10227033 0.13670164 -0.53088999
-0.28866214 0.15917277 0.46131313
0.16875692 -0.41120756 0.62481570
-0.20381846 -0.38182998 0.58356273
0.18556742 -0.40352198 0.48452383
0.16512696 0.12945595 0.28206167
-0.20048012 0.07522543 -0.13441366
-0.05292789 -0.45039973 0.72119170
-0.25973159 -0.24214128 0.74004287
0.10370755 -0.35595495 -0.00828601
0.20595157 0.12446479 -0.16417989
0.30698514 -0.11502295 0.55026430
0.38625821 -0.07308008 -0.33956003
0.16288948 0.17179248 -0.14935115
0.18281323 -0.02677679 0.87356853
0.19209211 -0.28182673 -0.01240678
0.11936779 0.16828492 0.60653889
-0.19357078 -0.30172628 0.23304033
-0.24510577 -0.19557083 0.82280195
-0.22523771 0.03767988 0.23404801
-0.23862693 -0.32977837 0.67708415
0.26765037 0.07648003 -0.25343901
-0.28861123 0.14181879 0.55412561
0.24279705 0.10185598 0.71778888
0.22653925 0.07110246 0.24689078
-0.23047480 0.11029808 0.72059828
-0.22682160 -0.01677027 0.80971247
0.14150240 -0.23900492 0.93457103
0.00258995 -0.43251836 0.24327186
-0.13663702 0.14884073 0.67964768
0.24909908 -0.17734621 -0.37780899
-0.27434415 -0.07344110 0.14238001
0.13660641 -0.20652217 -0.29427823
0.15907967 -0.18081936 -0.28557363
0.26127118 0.07462047 -0.23289916
0.26445162 -0.03906486 0.79104513
-0.22822331 0.17401612 -0.45426106
0.21294609 -0.21686640 -0.03339638
-0.15522538 -0.22104475 -0.10925594
-0.18050869 -0.15222466 -0.44770980
0.23392047 0.04291560 -0.16731837
-0.29072911 -0.21412957 0.68309420
-0.22768192 -0.16947831 -0.32980070
0.11384473 0.21194461 -0.13315168
0.29303420 0.02378698 0.09585162
-0.29701430 -0.15837771 0.69974601
-0.19246155 -0.29868364 0.18549535
0.19356717 -0.15576325 -0.14200959
0.02404739 -0.47255045 0.61548054
-0.29108456 -0.21337512 0.59233135
0.18411659 0.09091815 -0.03505085
-0.25293529 -0.12023094 0.81145203
-0.22950849 -0.29206187 0.78165627
0.22088188 -0.28279585 0.29935262
-0.11549312 -0.25883138 0.94028240
-0.22815225 -0.17897731 -0.38035411
-0.16876283 -0.16213426 -0.23197967
0.05533158 -0.22095323 -0.33997345
0.05156938 0.21624532 0.01912177
-0.17819977 -0.11265060 0.90224236
0.06360688 0.15139675 -0.57860500
0.19210532 -0.36414400 0.75752205
0.10234156 0.14890599 0.64990258
-0.26573721 -0.08805829 -0.41377705
0.31513950 -0.15748897 0.60193670
0.16738814 0.13010292 0.43626761
-0.24320579 0.15934497 0.14454624
-0.02389233 -0.01703075 0.87629485
0.00056508 0.24572873 -0.15666729
0.01960051 -0.43601966 0.80453604
0.28910029 -0.01008616 0.06740266
0.27116808 -0.17487812 0.45050609
-0.29565606 0.17711875 0.49423197
0.19187650 -0.01346369 -0.46446091
0.01434287 0.15684015 -0.60949105
-0.19908825 -0.16064325 -0.32622841
-0.23978779 0.19220296 -0.36394626
0.12200058 -0.09899965 0.92790967
0.30089575 0.19783983 0.55653805
-0.29357621 -0.08474816 -0.38257366
0.11085534 0.18209264 0.59942788
0.07703950 -0.35188010 -0.06662169
0.44371754 -0.13253084 -0.43403912
-0.15081419 -0.24528340 0.91261232
0.24210888 -0.24808808 0.12651220
0.11087013 0.18429527 0.57928908
-0.31688011 -0.16284457 -0.45736665
-0.25920776 0.08255661 -0.25553355
-0.23883919 0.04087032 -0.21369460
-0.05430193 -0.33089018 -0.10819376
-0.12117048 0.25267550 -0.41005510
-0.11372035 0.20584303 0.54400069
0.20586687 -0.21871674 -0.04226047
-0.33193383 -0.09211815 -0.38391149
0.10100827 -0.14492714 -0.42951471
0.00826159 0.21374390 -0.59894675
-0.10606197 0.24408984 -0.55070794
-0.25498170 0.15143117 -0.42017263
-0.28100979 -0.06764337 0.74373406
-0.23194061 -0.02327893 -0.22194394
-0.03631871 -0.15906604 -0.44030344
-0.11641828 -0.21073237 -0.25885385
-0.14051884 0.20253488 0.12361915
-0.27324104 -0.10802331 -0.48992586
0.10990115 0.27016607 -0.39077461
0.25474811 -0.09544493 -0.01327637
-0.12593292 0.24274650 -0.48460019
-0.27495682 0.02370067 0.67353278
0.19701417 -0.00879033 -0.45558745
-0.12581965 -0.21950975 0.93700856
-0.14749715 -0.33586472 0.05253334
0.24628088 0.13456881 0.69759536
0.20256816 -0.35136813 0.34999129
0.29052234 -0.00452814 -0.29043305
-0.02187070 -0.34769017 -0.11761367
0.13108969 0.10102476 0.74239427
0.08112992 0.20584828 -0.08865336
-0.17406817 -0.21606009 -0.06936026
0.01120548 -0.09233626 0.92913508
0.09984416 0.18573013 0.16595501
0.08618318 0.20254073 0.12432286
-0.24032591 0.01984990 -0.22685334
-0.42144176 -0.14550994 -0.39098698
0.29472870 -0.16152386 -0.35421133
-0.11582142 0.27234119 -0.36616755
-0.22515884 0.22382119 -0.32103872
0.05760562 -0.10709967 -0.48512262
-0.10034055 -0.17494465 -0.38836098
0.13785857 0.16303450 0.44040534
-0.25717399 0.21228680 0.61079562
-0.13767166 -0.16770437 -0.38277054
-0.22623080 -0.22233742 0.83276618
0.01226275 0.27742410 -0.47287697
-0.01974679 -0.35247865 0.91861707
0.24302840 0.02220517 0.24313605
0.08841705 -0.39361471 0.05479530
-0.21229893 0.06913675 0.76112145
0.25801507 -0.11706374 0.00209850
0.22073261 -0.26936990 0.21307406
0.19185463 -0.16757266 -0.32659924
0.13943222 0.17784598 -0.52373487
-0.28172830 0.06221722 0.09894759
-0.23069988 -0.08269978 -0.45359772
-0.23481989 0.14643592 0.42991310
0.30170262 -0.02053352 -0.28836027
0.13522939 -0.27152675 0.92494380
0.09257451 -0.42859197 0.31998798
-0.12694708 0.15880263 -0.09721637
-0.06615257 0.28134131 -0.36714721
0.11933155 -0.42599928 0.39152101
-0.26340342 0.21402675 0.60620415
-0.19093874 -0.18418142 -0.05090837
-0.21304920 -0.31456560 0.77953953
0.18741266 0.10924417 0.43581766
0.23555031 0.08886559 0.20148587
0.01542961 -0.42916200 0.27212662
-0.02745960 -0.11988182 -0.47448891
0.13637337 0.18944427 -0.53430098
-0.04459509 -0.24321859 -0.30153006
0.01059479 0.10485654 0.69774485
-0.30159441 -0.10602440 -0.42112035
0.25382569 0.11899625 0.16532390
-0.22027504 -0.15399423 -0.44361907
-0.15045144 0.18980163 0.41092974
0.24605280 -0.23191115 0.05980248
0.09911500 0.06628251 -0.49299300
0.00819512 0.12891018 0.66255081
-0.22693464 -0.03217030 0.40856266
-0.21360371 -0.04124252 -0.19014108
0.29212627 0.13136531 0.10395648
-0.22577463 0.13794081 -0.20100841
0.44715196 -0.13477173 -0.39312112
-0.23246720 -0.05220664 0.40373418
0.15087885 -0.09456290 -0.45659810
