0.39120311 -0.55883813 -0.46211806
0.04187329 0.32386121 0.14953202
0.30693257 -0.23215443 -0.02658528
0.10547745 0.88153386 0.32605648
0.20061453 -0.29581940 -0.08990629
-0.35272664 -0.22606063 0.11899986
0.21727669 -0.37549245 -0.30971590
0.47538829 -0.20784360 -0.19913524
-0.39410675 -0.41603515 -0.14307207
0.12208073 0.84619641 0.27857363
-0.25517005 -0.54483485 -0.26357725
-0.20120752 0.16734269 0.28991729
-0.09902446 0.89348912 0.34234601
0.46820039 -0.42970464 -0.33361557
-0.18040821 0.46805328 0.27517080
0.49943614 0.00446743 0.01987661
0.47374040 -0.10506883 -0.17916752
0.15246956 0.73542070 0.32772699
-0.35015279 0.08154675 -0.06745615
-0.02172101 -0.09098209 0.11553924
0.17765003 0.01432142 -0.19060442
-0.06962503 0.03857670 -0.13717367
0.36537462 -0.54675293 -0.45716652
0.19073163 0.69082558 0.22825725
-0.32492256 -0.60669255 -0.34920779
-0.11110000 0.03698656 0.17783140
-0.14301009 -0.19675502 -0.15896985
0.46083403 -0.68319952 -0.23018646
-0.20118190 0.52784109 0.49871972
0.10762125 -0.07634494 0.11048192
0.20305006 0.24223477 0.02809090
0.11169174 -0.21560279 -0.10504986
-0.21023387 -0.42933396 -0.17371276
-0.07515155 0.61220419 0.33160308
0.48112857 0.06020407 -0.07003237
0.49260372 -0.41936478 -0.16353381
0.47208107 -0.31827995 -0.25638178
-0.00660215 -0.23678845 -0.03596181
0.47221214 -0.11562835 -0.18230414
0.49233621 -0.11689487 -0.01985978
0.43146175 -0.59975672 -0.47627071
0.02184002 0.82117260 0.35042736
0.30559069 0.08690712 -0.00579679
0.19450137 0.40849844 0.09335656
0.36811256 -0.64489472 -0.38761473
0.01862708 0.25228706 -0.06887433
0.20900416 -0.56536424 -0.35940889
-0.34604597 -0.73062003 -0.20519459
-0.41047192 -0.66125786 -0.32141533
-0.00589144 -0.09639908 -0.19411291
0.42763335 -0.47772154 -0.13113196
0.30813938 -0.10072912 -0.25606528
-0.28014129 -0.56214547 -0.13345234
-0.14310762 0.47759372 0.18255287
0.23351179 0.39060187 0.13932286
-0.15005383 0.78881371 0.33815962
-0.36921293 -0.46030369 -0.28435382
0.28785908 -0.52685726 -0.42434695
0.16595735 -0.15470743 0.03859268
-0.18994275 0.12979266 -0.05483910
-0.20804013 0.38500813 0.30495754
-0.41097683 -0.57070744 -0.27263418
-0.41394812 -0.40072447 -0.24414378
-0.19744250 -0.33183441 0.04386942
0.21580026 0.52700299 0.26808304
0.16211401 0.39260474 0.06192608
0.23099039 -0.52436697 -0.29595086
0.18197067 0.51665401 0.24377781
0.01296546 -0.14877018 -0.20946854
-0.05195503 0.22562446 0.13840374
-0.31324685 -0.69290984 -0.29253504
-0.09072857 0.76747537 0.21503960
-0.34374064 0.08627605 0.14247929
-0.27187133 -0.51751328 -0.03788888
0.39685959 -0.16469699 0.01325548
0.49439943 -0.61380506 -0.23976165
0.29369015 -0.19399434 0.01383336
-0.36402297 0.03983939 0.23706837
-0.09338166 0.08535673 0.12229411
0.24054641 0.34996617 0.13730097
-0.39774168 0.05947178 -0.02724042
0.01190946 -0.10613781 0.10364415
0.43930650 -0.12163715 -0.28967291
-0.17406698 -0.36956012 -0.01213764
0.38818026 -0.61767364 -0.19313867
0.05467719 0.25056481 -0.06629321
0.36746913 0.06516322 0.05769139
0.09337559 -0.20658872 0.04625562
0.32187843 -0.62500405 -0.44907686
0.03362238 0.83320487 0.34005296
-0.07795858 0.56997359 0.30955461
0.11881212 0.85747743 0.21318723
-0.38418674 -0.44833532 -0.05202848
0.20991647 -0.21240911 -0.28609478
-0.28293192 -0.54790485 -0.14175829
-0.38628590 -0.36964440 -0.00995776
0.27491412 -0.41279939 -0.07499766
0.02604060 0.24710408 -0.06500035
-0.37182665 -0.14655910 0.09365910
0.12917054 -0.24894708 0.01997621
0.24826807 0.32536006 0.13638486
0.01553758 0.75223088 0.14982781
-0.01114993 0.03958351 0.15687865
-0.16704451 0.59885061 0.47115946
0.44908988 -0.15612504 -0.30112132
0.28890795 -0.21922034 -0.30083206
0.50158846 -0.22197139 -0.03297302
-0.36655354 -0.02446876 0.20546986
0.23772581 0.17611092 0.04950450
-0.38374501 -0.35579026 -0.01353416
0.30130833 -0.55128157 -0.15210673
-0.17130449 0.15656553 0.22788002
-0.17644402 0.44985643 0.37776679
0.26900384 -0.34836942 -0.34010383
0.31597281 -0.66077232 -0.19264056
-0.40280509 -0.61344147 -0.22977981
0.04442038 -0.27027410 0.02784484
-0.09854673 0.35885996 0.03822409
-0.34374857 -0.00174209 -0.09161790
-0.22832809 -0.70157433 -0.19270599
-0.12797244 0.82490420 0.31131780
-0.38488179 -0.06999096 -0.09955031
0.04892901 0.49710488 0.21524993
-0.28330100 -0.68615878 -0.29534775
0.12363826 0.84098947 0.28581536
0.16257066 0.70279944 0.19208057
0.07115046 0.08755403 0.07449196
0.19602150 -0.37397847 -0.31215143
0.48888284 -0.04602996 -0.10650769
-0.14666954 -0.37171966 -0.17034639
0.21324301 0.64883387 0.21248385
0.07863277 -0.18896404 -0.18041703
0.10389312 -0.01681562 0.13473493
-0.06018440 0.95525694 0.31646705
-0.23882173 0.09964466 0.20896286
-0.15905352 0.55247700 0.43139267
-0.01867504 0.57911116 0.08455756
-0.39846271 -0.07021321 -0.02925167
0.48406023 -0.63520813 -0.30646920
-0.13067618 0.54156637 0.37105241
-0.09213400 0.38045040 0.04574035
-0.24448059 0.03503813 0.27772012
0.46442246 -0.28858018 -0.29452059
0.15975364 -0.20170122 -0.24873766
-0.15263093 0.77604187 0.35465553
-0.04008310 -0.26771525 -0.00460199
0.21975444 -0.51483238 -0.36909318
0.16245075 0.83536053 0.24227746
0.05564228 0.60489607 0.09441926
0.08440620 -0.11484092 -0.21233925
0.21609321 -0.41871610 -0.18387568
-0.39751214 -0.00117922 -0.07766083
0.14243111 0.74588847 0.32970250
-0.40079832 -0.64076793 -0.22409141
-0.34402633 0.04201182 0.23028059
0.20898329 0.13917638 -0.13175042
-0.18898624 -0.07703660 -0.14667083
0.04475860 -0.07260464 -0.17864594
0.12841868 -0.33152425 -0.18144886
-0.26113337 0.01134574 0.31080571
0.26438355 -0.40922138 -0.32685378
0.24471648 -0.54546392 -0.26311827
-0.14837310 0.03882488 0.20063405
0.26001409 -0.01044804 0.10408118
0.25428212 0.55018079 0.27865177
0.50078315 0.00936129 0.05713306
-0.09991720 -0.20584208 0.07957448
0.10426094 -0.26523551 0.01006675
0.22156098 0.13363893 -0.15248299
-0.13030320 -0.18931267 -0.17043123
-0.22376429 0.11078233 0.29742965
-0.19629201 0.68789339 0.55353820
0.11834851 0.44056800 0.19976610
0.17611510 0.62316108 0.16706829
0.38143539 -0.02053618 0.07977791
-0.22878964 -0.61360121 -0.20686266
0.02697890 -0.18831906 -0.16943461
-0.07852098 0.76307237 0.19753581
0.23790918 -0.52540457 -0.29344380
0.08565305 -0.01903637 -0.17757991
0.18777552 0.36289468 0.07374747
0.10895377 0.90634942 0.31907991
-0.01947093 0.15477639 -0.10753103
-0.13584781 0.16301428 -0.00965706
0.09979928 -0.23980495 -0.05960518
0.18711165 -0.44328907 -0.07616960
-0.27240765 -0.55599272 -0.12337358
-0.32231593 -0.04125513 0.30070344
0.12793843 0.76304770 0.33219904
-0.00244273 0.25060329 0.12499049
0.19912329 0.32589537 0.05285368
-0.15066938 -0.42058346 -0.12776512
0.48520619 -0.05455884 -0.08842719
-0.18957053 -0.33759823 -0.07662793
-0.32118106 -0.59466040 -0.04974982
-0.18303071 0.71364892 0.43419960
0.16674432 -0.16350406 -0.26165840
-0.02976394 0.39048707 0.20379718
0.31813717 -0.17652950 0.01849436
0.04532684 0.71846724 0.12527844
-0.22316752 -0.05810909 0.18109536
0.12116349 0.09156872 0.06421226
-0.30914754 -0.34469420 0.06320533
-0.13220392 0.55410820 0.37656301
0.31327355 -0.33642322 -0.05327483
0.03871629 0.54296529 0.05928447
-0.24595509 -0.04847455 0.17906316
-0.10947256 -0.20481035 -0.10891791
0.44576454 -0.13288686 -0.29748440
0.32206887 -0.58285630 -0.16645725
0.13658726 0.67902112 0.15237403
-0.34941584 -0.73223960 -0.10126923
-0.21773936 0.14813977 -0.04554076
0.07110329 0.17206740 0.07873430
0.00335363 0.83951020 0.34916434
-0.40590322 -0.00004154 -0.02949027
-0.11727859 0.57496774 0.15806115
-0.18109556 -0.10147598 -0.17270014
0.22709340 -0.14343305 -0.23913655
0.21539038 0.14748862 -0.14684220
0.11795206 0.33745155 0.00476442
-0.12491976 -0.28767699 0.03547999
0.21451519 0.74104893 0.26781458
-0.36225241 0.07663125 0.17953199
0.11927387 0.54364932 0.08840135
-0.20225738 -0.30461484 -0.23864049
-0.15656145 0.54476953 0.42342445
0.19555143 0.71248972 0.22343518
-0.39216143 -0.50915956 -0.12644614
-0.16440029 0.76529360 0.50765347
0.22515790 0.60945344 0.22787438
0.19686592 0.31101167 0.16965096
-0.31724209 -0.02151337 -0.09836845
-0.19134009 0.47423649 0.32188770
0.15810883 0.13620053 -0.14010559
-0.40522176 0.04767187 -0.00302620
-0.03941286 0.83121300 0.19094677
0.13359427 -0.34331870 -0.14603877
0.22549535 -0.27133352 -0.00439295
-0.21213023 0.14643148 -0.03249556
0.46973056 -0.25646996 -0.28319922
-0.14995956 0.45813176 0.34812877
-0.23791839 -0.26583028 -0.22575012
0.12234166 0.71881306 0.15373726
0.34582043 -0.46127173 -0.11088319
0.18186782 0.80045855 0.35009944
-0.05311995 0.23258282 0.14219636
-0.16545168 0.57291222 0.30382264
0.22205710 -0.26728541 -0.30157816
0.20767464 -0.26490888 0.00106404
-0.08538338 0.83980775 0.23773117
-0.18901469 0.59280324 0.39910665
-0.01220066 0.14221658 -0.10340847
-0.21059814 0.28371334 0.28888023
-0.35546708 -0.10311206 -0.13750745
-0.10320395 -0.25113058 -0.04282296
-0.37587082 -0.38458753 -0.25323680
-0.39338768 -0.67403257 -0.31541422
-0.21359256 0.11068668 0.15016857
-0.32686472 -0.75155318 -0.15410556
0.06987824 0.93261290 0.23478307
-0.37758863 -0.51249194 -0.05297043
0.45419538 -0.16599941 -0.28585395
0.44937521 -0.41589233 -0.40297410
-0.26702338 -0.48284748 -0.03762620
0.05986361 -0.00354513 -0.16938895
-0.08829259 -0.18401816 -0.15990832
-0.39002216 -0.52993715 -0.15710507
-0.02656642 0.43308860 0.21840659
0.16915455 0.83001387 0.31437230
0.29427361 0.12916112 -0.11152364
0.32816315 -0.70202613 -0.24810016
0.00935769 0.22496553 0.10975781
-0.14905946 0.47412977 0.36434963
0.13300285 0.28108278 -0.01827439
-0.39002055 -0.69537580 -0.22785169
0.19432086 -0.04600988 0.10498893
-0.02174788 0.60885680 0.10602590
0.00013358 0.34294045 -0.02499058
0.00795579 -0.14620247 0.07762782
-0.08312365 -0.23438317 -0.06709164
0.00510298 0.54372323 0.06807995
-0.34456843 0.05113171 0.04563538
0.10743884 0.28812930 -0.02352979
0.45995736 -0.49520156 -0.39854312
0.12135124 0.27695745 -0.03344750
-0.37244231 -0.71063375 -0.24296537
-0.17469610 0.58295572 0.33695704
0.08942252 -0.00197534 0.14770128
0.04939006 0.95485020 0.27622175
0.20591150 -0.16871980 -0.26262885
-0.20786387 0.45379451 0.41629547
-0.33077860 0.08960898 -0.01346724
-0.15594079 0.64850056 0.45247814
-0.26202309 -0.40925798 -0.22613734
-0.25149006 -0.16071093 -0.18457420
-0.28092808 -0.65722919 -0.34248483
0.46197695 -0.17167398 -0.26817137
-0.20173803 0.29929501 0.25105476
-0.35794848 -0.22496244 0.12541831
0.01510201 -0.18690765 -0.16176015
-0.24100365 -0.65890479 -0.25457150
-0.18292877 -0.37130344 -0.02234594
0.49571878 -0.09562373 -0.01213089
-0.20186576 0.26436019 0.25182322
-0.07205807 0.56691849 0.11588437
0.43940115 0.09054240 -0.04470480
-0.02131855 0.73402834 0.33302963
-0.15033226 0.38233083 0.31280640
0.36869609 -0.01824637 0.08344825
-0.17802075 0.52581942 0.27161118
0.38258308 -0.06776705 0.06345426
-0.40139830 -0.65408301 -0.33593833
-0.24932797 -0.01098219 0.27974400
0.39409918 -0.50393236 -0.14140645
0.28917539 -0.20001134 -0.28042963
0.00392388 0.48320398 0.03711811
0.27073386 -0.41943750 -0.24928990
0.28406864 -0.21118024 -0.00570009
-0.35703570 -0.42152664 0.03818313
-0.24700011 -0.60185552 -0.32714310
0.24919848 0.69701087 0.30297494
0.08886728 0.38040969 0.00090256
-0.05714592 -0.18705356 -0.17239453
-0.38424999 -0.50237584 -0.29187167
-0.33053535 -0.02875790 -0.09637062
0.48079699 -0.15543401 -0.14720500
-0.01057862 0.57255024 0.08657086
0.08332328 0.65593362 0.12233505
0.15699114 0.18366000 0.10184433
-0.20670982 0.23918186 0.25474611
-0.29960656 -0.42131707 -0.22464907
-0.17333700 0.59996867 0.33480477
0.36958790 0.10453452 -0.06826967
-0.41019422 -0.40102601 -0.20593944
-0.39174181 -0.41956696 -0.26333255
-0.34201145 -0.46356818 -0.28470692
-0.03218215 0.15442082 0.09790882
-0.38190180 -0.54338562 -0.08044764
-0.32605022 -0.64692450 -0.06612761
0.04059373 -0.23756018 -0.05149411
0.24149011 -0.65286076 -0.23878288
-0.09045701 0.70798755 0.39834461
0.20197916 -0.33538368 -0.08037260
0.18937793 0.37371337 0.07760039
-0.37767655 -0.27612334 -0.21231315
0.01344202 0.05961027 0.13971366
0.30813664 -0.52483630 -0.14380163
0.25118041 -0.49012038 -0.36796328
0.28038999 -0.53194273 -0.22731373
-0.33420098 0.00539870 -0.09410676
-0.14276481 0.80310130 0.32721305
-0.06439316 0.73003674 0.37312180
0.22344606 -0.61137438 -0.28716618
0.22516562 0.49288779 0.17574592
-0.37247753 -0.49384728 -0.04751726
-0.33916479 -0.72224522 -0.22155991
-0.28457695 -0.07981320 -0.12792867
0.44480503 -0.15265350 -0.29559907
0.12831828 0.51358378 0.22347075
-0.08624201 0.66109300 0.17303175
-0.39874655 -0.10987696 -0.09391861
-0.05378307 0.08421987 0.09228703
-0.11008313 0.28261629 0.19842622
-0.06831846 0.44963545 0.06710433
0.21998626 -0.37258688 -0.31576344
0.47322917 -0.15638486 -0.19963779
0.14441247 -0.20328617 0.03454305
-0.16205883 -0.45464131 -0.08130632
-0.19700627 0.02460673 0.20759752
0.09697838 0.30315655 0.13532552
0.16530155 0.81492019 0.23948279
0.45107847 -0.55438268 -0.44466326
-0.17112045 0.51709974 0.43331254
-0.29577941 -0.12080403 -0.16001509
-0.01099740 0.88651049 0.21500042
-0.07732971 0.33048105 0.00885415
0.17438465 0.45470709 0.21588476
0.12481488 0.33317137 0.15401992
-0.40801990 0.05540601 -0.03072231
0.45877028 -0.50580275 -0.37793279
0.28683412 0.13773912 -0.11580911
0.45543778 0.12346075 -0.17122373
0.00216024 0.12714250 -0.11666380
-0.06576335 0.29731989 0.16780904
0.29952836 -0.59308493 -0.44928497
0.37115550 -0.57050741 -0.46120492
-0.13104570 0.76999164 0.48971963
-0.11154692 -0.18936631 0.09872167
-0.15089904 0.58530784 0.41015890
-0.14343815 -0.45275751 -0.07913281
-0.26941973 -0.47351202 -0.06944366
-0.02079991 0.70838118 0.14149451
0.46291792 0.09202490 -0.13987610
0.24313550 -0.33309329 -0.33952877
0.30001235 -0.52939582 -0.15513530
0.39527649 -0.64046395 -0.20446286
0.29644281 -0.38017914 -0.05742013
-0.18128729 0.29870188 0.14400551
0.20962140 -0.32060978 -0.02758307
-0.16589369 0.58986723 0.45851073
0.30606335 -0.39260113 -0.38250571
-0.15959167 0.29565299 0.27504531
0.31055099 -0.48205921 -0.41806507
-0.16540372 0.80418122 0.45435300
0.44678628 -0.60132134 -0.19206454
-0.17914189 0.10680275 0.21359734
0.39608413 -0.67939413 -0.28274053
-0.24979188 -0.36710927 0.04622940
0.03915292 -0.09119160 0.10992447
-0.17330368 0.35124949 0.18046455
0.10986996 0.85404539 0.28299907
-0.19988611 -0.32392696 -0.15015149
-0.39349687 -0.27441224 -0.20193602
0.45930386 -0.05008560 -0.21442291
-0.17141064 0.04758663 -0.11120661
0.46968007 -0.43368790 -0.31184417
-0.19701976 -0.44954512 -0.00938467
0.03305115 -0.03888901 0.14015406
-0.26932293 -0.44062904 -0.15334249
0.13619059 0.82731819 0.33439487
-0.15493870 0.41464895 0.15462369
0.28545851 -0.50145495 -0.23810524
-0.32631320 -0.01188659 0.21606328
-0.26468807 -0.58649921 -0.06218354
0.26067227 -0.44689187 -0.35800421
-0.22844850 0.26831812 0.33048412
-0.00867622 0.29183960 0.14414760
-0.04066867 -0.25528157 0.01639323
-0.20641947 0.24654815 0.24088329
-0.18364625 0.51369858 0.44981003
-0.22261344 0.13381405 0.03022224
-0.23224013 0.11668737 0.21171769
0.18260825 0.12901492 -0.15699768
-0.24617101 -0.31732482 -0.24336937
0.04423413 0.08994260 -0.13617678
-0.38453114 -0.67435563 -0.30314904
-0.34122717 -0.60576534 -0.04897888
-0.34897107 -0.29678425 0.09321219
0.41869056 -0.39190570 -0.08900714
0.16468792 -0.21767062 -0.14194183
0.08501217 0.53076982 0.06588457
0.05905088 0.02450783 0.15600909
-0.30443025 -0.01468844 -0.09864043
-0.35164118 -0.51668835 -0.30535519
0.10571411 -0.23822153 -0.03306314
-0.40675122 -0.46147707 -0.25099528
-0.27999640 -0.21981683 -0.20701644
0.42572826 -0.53744626 -0.45266682
-0.31843251 -0.55460751 -0.33600402
-0.36019319 0.05119007 0.14460446
-0.38191360 -0.20933098 -0.17690429
-0.40815228 -0.46885929 -0.23604822
-0.04579988 0.61811566 0.29709503
0.07722294 0.39045471 0.00156058
0.14765278 -0.13811155 -0.23332426
0.19608912 0.67344689 0.21274900
0.21471518 0.08023328 0.10038367
0.35142070 -0.32624638 -0.36496314
-0.22392593 -0.39191297 -0.25880289
0.16719258 -0.14185588 -0.23257115
-0.22856520 0.20654586 0.33129936
-0.25208819 -0.40316191 -0.24186847
0.15657723 -0.35489723 -0.32479498
0.11614760 0.88312769 0.27662271
-0.38971728 -0.03267574 0.07986848
0.24138904 -0.21966487 -0.29463902
-0.02200193 -0.11362793 -0.21114916
0.18220979 0.80580080 0.35280129
0.22855385 -0.21788678 -0.29123095
-0.12643518 0.01946941 -0.11920208
-0.03874374 0.95257831 0.27453411
-0.40256137 -0.50416124 -0.18839855
-0.12703291 -0.02705292 0.17391025
-0.14267686 0.60123801 0.25295401
-0.14561616 0.71017206 0.49473140
0.28509730 -0.60131049 -0.45301524
0.45490527 0.04413208 -0.21851471
-0.37902385 -0.20818835 0.07156380
0.09322326 0.49130252 0.20445365
-0.15852460 -0.20410073 -0.13172470
-0.10297845 0.76135623 0.22518840
0.40498304 -0.59024918 -0.47536233
0.30097127 -0.38621968 -0.37056237
-0.10127549 0.64207554 0.18822938
0.46323282 -0.24911353 -0.25891423
-0.20618175 -0.30554560 -0.17131960
-0.14949046 0.29317322 0.25951600
0.47782290 -0.57057512 -0.31460002
-0.01582963 0.10311147 -0.12869796
0.46010506 -0.49955693 -0.38217619
-0.21322829 0.13966332 -0.01830228
0.22806543 -0.09479587 0.07191910
0.08118878 0.66031182 0.11083794
0.33005488 -0.04766731 0.07638313
0.10570471 0.47545508 0.05764293
-0.16123459 -0.34003702 -0.18109918
0.06108808 0.25706002 -0.06356106
-0.28604740 -0.61894989 -0.05906858
-0.17610100 -0.35999200 -0.08499062
-0.20319004 0.34260935 0.30400246
0.29352391 -0.44665328 -0.09949373
-0.15427998 0.69433367 0.30845177
-0.24785219 -0.22249627 -0.21378925
0.03763476 0.88962674 0.35572681
-0.29304910 -0.40426919 0.03597548
0.15274975 0.63896275 0.15026514
-0.23379372 -0.33236691 -0.25616342
0.39776331 -0.22182122 -0.01371760
-0.16783424 -0.37706318 -0.06721547
0.32889074 -0.45149490 -0.10420132
-0.40452808 -0.40226999 -0.24611756
0.25375468 -0.34800491 -0.35193142
-0.30143690 -0.51312041 -0.23779327
0.21402197 -0.54474485 -0.30782133
0.16383496 0.30825466 0.02176043
0.10565569 0.07804287 -0.15110309
-0.16688055 0.70766687 0.35618287
-0.08977516 0.68145788 0.17921963
-0.07003848 0.10255633 0.10204728
-0.17819868 0.47238728 0.42011911
0.04674858 -0.18363738 -0.17597933
0.47699279 0.04732399 -0.08800831
-0.39278066 -0.44360712 -0.11328846
0.49290729 -0.62028182 -0.22016662
-0.38342053 -0.01057536 0.12869757
0.48564839 -0.28599998 -0.12984140
0.44393909 -0.52788460 -0.45434347
-0.15120891 -0.26873252 0.06699261
0.19313526 0.62698615 0.19475828
0.03267314 0.15015118 0.07936499
0.21834737 0.16626921 0.02306469
0.01893875 0.73929250 0.13421020
0.46399057 -0.58892047 -0.43448201
-0.16424054 -0.26798436 0.07122084
-0.17864570 0.76244140 0.48162597
-0.17164916 -0.34372020 -0.14210272
0.14879531 0.76464617 0.32994172
0.13267648 0.84456074 0.21043263
0.18900838 0.77583253 0.23375644
0.10880744 -0.25677076 -0.03388026
-0.00287160 0.89680016 0.21738978
0.33870423 0.07973043 0.01972194
0.37321103 0.06704250 0.02716266
-0.00921191 0.58934951 0.09269423
-0.39802116 -0.13411374 -0.02439812
0.15900430 -0.41218880 -0.14698844
0.14820266 0.00298282 -0.19298068
0.21396771 0.70865178 0.25165457
0.23745219 0.57573712 0.23129418
0.06231632 0.27539688 0.12208034
0.12737671 0.52210855 0.08713530
0.28087234 0.11877652 -0.09582210
0.24912201 0.22879797 0.07835555
0.36876380 -0.66059482 -0.39340681
-0.18171711 0.54139787 0.32727313
0.42495197 -0.35469586 -0.08297145
-0.29629940 -0.08131215 -0.13824849
-0.15886812 0.49121144 0.39545354
0.49118429 -0.38902858 -0.17427067
0.24693497 -0.51799011 -0.31554621
0.20425169 0.81414413 0.26858425
-0.11666463 0.08335941 0.13527155
0.42966467 0.12919211 -0.20128632
-0.01173117 0.06413212 0.13580605
0.09624358 0.85385084 0.33429691
-0.39420325 -0.68054628 -0.21385628
-0.10731381 -0.20030856 -0.13064024
-0.38120615 -0.08703883 0.10258843
0.09220401 -0.01635709 0.13138196
-0.06829532 -0.20541257 -0.13033158
0.02758928 0.07054545 0.10586855
-0.23555727 -0.61413801 -0.23711970
0.39789665 -0.11464711 -0.28072345
-0.20442735 0.30911550 0.25246871
0.47730166 -0.50662899 -0.30670747
0.27265012 -0.27769673 -0.32311732
0.09932384 0.42525589 0.18086395
0.47027224 0.06161596 -0.12623423
-0.19886541 0.63311756 0.54475117
-0.12964623 0.27927831 0.05455615
-0.30455565 -0.18239069 0.12352800
0.16596894 -0.26934782 -0.26748317
0.47078377 -0.01813286 -0.13727790
-0.37128043 -0.34928098 0.06838284
-0.26531094 -0.23422471 0.11181280
0.34310925 -0.27748138 -0.33792335
0.25455928 -0.22822338 -0.30914310
-0.41416740 -0.52410865 -0.27103132
0.10597289 -0.01595351 -0.18735775
-0.07515351 0.53303254 0.11176817
-0.37014025 0.00557834 -0.08685601
-0.29228628 0.08792561 -0.07756533
0.20766601 -0.38101989 -0.27778393
-0.33724755 0.01129854 0.32577360
0.18678017 0.11354391 0.08351417
-0.21012083 -0.39053336 0.02101881
0.23280756 -0.20895845 -0.28549796
-0.41375893 -0.01195194 -0.06220114
-0.40136731 -0.05032270 -0.03056651
-0.33880645 0.06803980 0.10491875
0.21954358 0.16637972 0.12084837
0.09088269 0.88418329 0.34162554
0.16663451 0.76236236 0.33491668
0.19873491 0.32292107 0.06270900
-0.13945906 0.12440076 0.15867621
0.35695636 -0.15505797 0.02986742
0.47043067 0.06004822 0.01052050
0.31839049 0.08078186 0.01648596
-0.37147486 -0.57157004 -0.32075739
0.33363712 -0.02710983 0.08398961
-0.08617744 -0.11615789 0.09937456
-0.34256512 -0.23552635 0.11199455
-0.20459209 0.30156627 0.22822918
0.09665427 0.60422611 0.25706393
-0.14016782 -0.23877892 -0.05268566
0.20809120 -0.53487933 -0.37281907
0.15553695 -0.38814345 -0.24647653
-0.28285366 -0.35989988 -0.25050449
0.30131918 0.07612543 0.09118006
0.41286588 0.09751007 -0.06550466
-0.05249283 0.16138344 -0.09750070
0.20238735 -0.58937109 -0.39354309
-0.38792390 -0.10305656 0.05706810
-0.09903273 0.73915088 0.21664742
0.09588805 0.12035125 -0.13888781
0.02426577 0.68218064 0.11568232
0.26714796 -0.67128909 -0.33165118
0.00607860 0.95507789 0.28563184
-0.29886955 -0.03132871 0.20704363
-0.27792913 -0.03232394 0.19745584
-0.17970441 0.32853746 0.33821166
-0.14270863 0.33439291 0.28274521
0.39093190 0.06431480 0.02904826
0.00029115 -0.07474180 -0.16753827
0.30318409 -0.54448354 -0.16037977
-0.06740508 0.10377835 0.10714717
0.26045120 -0.23065728 -0.00595276
-0.00902928 0.54805660 0.25423867
0.24329440 -0.61165845 -0.43761235
0.11191577 0.85593069 0.26306778
0.15709159 0.70467174 0.31237251
-0.19265777 0.65558434 0.54483330
-0.39474928 -0.68816721 -0.27927667
-0.19348124 0.12493575 -0.02826086
0.26982275 -0.66120243 -0.32369393
-0.29008830 -0.04696459 0.31679374
0.13969480 0.57414520 0.25327089
0.00648102 0.09230348 0.08308586
0.33574200 -0.62343585 -0.44370180
0.10748290 -0.05661139 0.10928626
-0.10237119 0.19202553 0.15964018
-0.22457002 0.14106160 -0.02468091
0.24396169 0.25859839 0.17648621
-0.06983028 0.88859129 0.39945623
-0.40984893 -0.51200831 -0.26139802
0.26714188 -0.42300436 -0.20874208
-0.41150111 0.04429087 -0.05853079
0.40576744 -0.64394474 -0.39101455
0.15859184 0.46030492 0.20769762
-0.25532323 -0.71215606 -0.21287751
0.24365024 -0.24895531 -0.30586365
0.48349887 -0.01609866 -0.08529504
0.36074042 -0.33680448 -0.05941314
-0.19720979 0.52964801 0.47489753
0.18432021 0.29864711 0.15873431
-0.01416929 -0.19673616 -0.13964829
-0.12216207 0.53701401 0.17061135
-0.00387254 0.24202219 -0.05905002
0.15611997 0.08057064 0.06977047
0.19068792 -0.27086842 -0.00620422
-0.16962844 0.44845983 0.24124421
-0.05399405 0.54026663 0.27800399
-0.30020511 -0.51919663 -0.31765386
0.13282779 0.16293788 0.08795539
0.16911362 -0.30632606 -0.25014126
-0.14919958 -0.27283332 0.00667822
0.47748035 -0.56722498 -0.34137961
0.29558688 -0.14595833 0.04128283
0.38568175 -0.67377996 -0.32957596
0.38437235 0.13708901 -0.17948285
-0.00365662 -0.04563946 -0.15573740
-0.41167265 -0.41641936 -0.24635279
0.45944411 -0.46401033 -0.12627891
-0.34742504 -0.08857532 0.18956393
0.19399989 -0.33044496 -0.12900567
0.21111599 0.24464042 0.13325289
-0.38779610 -0.36072046 -0.02539188
0.20889989 0.28032202 0.16051373
0.30778229 -0.42108008 -0.38947174
-0.29841638 -0.07374552 0.17603286
-0.18386862 0.45683515 0.41994482
-0.01539463 0.86989272 0.19597837
-0.36638391 0.06429046 0.02673735
0.23714289 -0.56931090 -0.20068346
-0.19800735 0.51810187 0.37311769
0.17220372 -0.24289268 -0.26316658
0.25701588 -0.31943849 -0.34066713
-0.18087584 -0.36261320 -0.05283277
-0.12047669 -0.24401608 -0.06668803
0.02402436 -0.19087988 -0.17919712
0.00117299 0.24970283 -0.06204329
0.46939337 0.07475358 -0.11652464
0.48863667 -0.62345684 -0.23736978
0.28647560 -0.59050143 -0.45559153
-0.39360380 0.03958548 0.07242273
0.28662127 -0.55919290 -0.16760503
0.25955564 -0.62431514 -0.17343733
-0.09504300 0.54558349 0.32292521
0.05115443 0.53093827 0.05976914
-0.38450879 -0.49060056 -0.06441041
-0.35426611 0.03860969 -0.09004201
-0.18964422 0.34063247 0.20715028
-0.31709599 -0.08248933 0.18650813
-0.28072816 -0.56933475 -0.12662186
0.24617358 -0.43603769 -0.15754867
0.48251766 -0.68291914 -0.28920475
0.31035924 0.09339420 -0.18492381
-0.03577110 -0.27447081 0.00978235
0.38247478 -0.61622393 -0.46176288
0.46877611 -0.66611600 -0.22574416
0.49615723 -0.64404535 -0.23641482
-0.02658654 -0.26984063 0.00290806
-0.23061098 0.22987658 0.36212230
-0.06611061 -0.21403381 -0.09739083
0.17581533 0.32905346 0.16591239
0.49434441 -0.63964510 -0.22546518
-0.05454894 0.72943032 0.16645199
0.16629063 -0.43859085 -0.13221833
-0.02060427 0.32802689 -0.01545700
0.31829798 -0.68224800 -0.31130061
0.18093985 0.22856155 0.12389675
-0.10592663 0.88313341 0.32074299
-0.17699580 0.74263585 0.39523304
0.22649238 0.47225359 0.24658832
0.03283885 0.28943601 -0.03912149
0.02930878 0.13428660 -0.12038653
-0.18069920 0.08881651 0.21358185
0.38454038 0.14317819 -0.17818306
0.28352186 -0.49769583 -0.40593740
-0.11238870 -0.14247799 -0.19881232
0.47361100 0.01316740 -0.14120434
-0.10755520 -0.25936353 -0.02723303
0.17443550 -0.26579735 0.01273939
-0.30251360 -0.28013507 -0.22708082
0.50471151 -0.06053683 0.03395794
0.26415658 -0.58863604 -0.16168436
0.25263754 0.62903428 0.30120498
-0.15205741 -0.19423166 -0.17834458
0.37517875 -0.30320457 -0.34583876
0.03944681 0.80077410 0.16311982
-0.10156563 0.51287615 0.30140975
0.02243112 -0.20370662 -0.12213999
0.07482602 0.24483462 0.11428201
0.07276402 0.48002920 0.04307529
-0.32539260 0.07518159 0.09219894
-0.07297516 0.16682138 0.12595788
0.12057735 -0.25829536 -0.03988404
0.02316213 -0.16855851 -0.20612675
0.28934604 -0.39190260 -0.06323507
-0.15326418 0.68851483 0.48269242
-0.19559790 0.33606914 0.36589733
-0.40104598 -0.05083185 -0.02002013
0.28733230 -0.35701925 -0.36471817
-0.12518865 0.72935319 0.45116231
0.31096184 -0.48459139 -0.12384331
0.26071978 -0.43855473 -0.34155440
-0.26276028 -0.63116157 -0.33595687
-0.21901385 -0.29706812 -0.23992836
0.09393568 -0.02009071 -0.18260182
-0.06386176 -0.23831657 -0.05833031
-0.26623619 -0.01277968 0.23631091
-0.18653668 -0.29337114 -0.00680273
0.02002308 0.15017885 -0.11188604
0.00074448 0.11031881 0.07130051
-0.39914304 -0.08752289 -0.03575867
0.36679614 -0.48290375 -0.12668347
-0.24210523 -0.35493249 0.04521451
-0.33150077 0.07257847 0.00850751
-0.23879515 -0.32729840 -0.24830282
0.14074533 -0.19391721 -0.17623429
0.39263082 -0.18257925 -0.28791437
0.26044768 -0.64110410 -0.18192771
0.05803128 0.45760676 0.01872270
0.13502149 0.70213270 0.30668613
-0.17271172 -0.25000131 0.08004306
0.05319801 0.84473777 0.17442068
0.46463585 -0.43919399 -0.39563975
-0.00488568 0.88722277 0.37184277
-0.35496634 0.06037462 0.20951577
0.23928784 0.21327059 0.07511066
-0.14573990 0.70966351 0.51338410
0.12404852 0.72565758 0.16521960
0.12741937 -0.30485541 -0.26242825
-0.20156465 0.56852317 0.49879929
-0.12519629 0.52830648 0.35208455
-0.17433396 -0.34930253 -0.03118979
-0.20899017 0.09881267 -0.09024437
0.17688233 0.18482503 -0.02500477
-0.15551008 0.44825742 0.18182380
-0.11362655 0.84270012 0.30304962
-0.23283680 -0.70410657 -0.20018733
0.06751914 0.81553745 0.17124321
0.15663107 -0.16309413 -0.25671092
0.09858663 0.46104205 0.04396853
0.42231709 -0.67747855 -0.30583295
0.36382490 0.11981260 -0.11278026
0.46479023 0.09511957 -0.11480872
0.45368111 -0.17008772 -0.29091641
-0.01248449 0.59406269 0.09693684
0.09953168 -0.13749877 -0.22469518
-0.19328083 -0.21477953 -0.13366356
0.03594449 0.92446768 0.22163025
0.00281343 0.88784373 0.36520791
0.46162599 -0.50414121 -0.38625488
-0.12137595 0.38936606 0.09158406
-0.39981419 -0.07181627 -0.04256337
-0.05919985 0.43504217 0.23996173
-0.22107820 -0.17275348 0.11427309
0.44255292 -0.57993364 -0.47118971
-0.16010948 0.46151516 0.20657432
0.33580983 -0.58405161 -0.45954844
-0.20571107 -0.35395336 -0.27209184
-0.08076727 -0.22656801 -0.07055529
-0.27642721 -0.03467168 0.28192914
0.25582978 0.32141393 0.14235629
-0.07156663 0.45768166 0.26101941
-0.41242820 -0.21384025 -0.17252521
0.22743046 0.66606557 0.32295850
-0.08030646 0.86437857 0.27468792
-0.17606655 0.35417622 0.34763327
0.29049128 -0.62698424 -0.17256841
-0.37978733 -0.03531590 0.11747434
-0.28322601 -0.41757146 0.03014794
0.24643287 -0.38789076 -0.28796953
0.25165498 -0.55404854 -0.23694658
-0.11492091 -0.05486152 0.15069509
-0.18342641 -0.34915543 -0.08913982
-0.16992550 0.56859553 0.45990980
0.41364801 -0.32233274 -0.36590248
-0.17634818 0.68855286 0.55271173
0.25805759 -0.17126611 0.03485327
0.21167392 -0.55607796 -0.34995025
-0.34550089 0.07964443 0.13354844
-0.29620630 -0.62150896 -0.06210030
0.13990350 -0.37330303 -0.10872613
-0.15495968 0.66682255 0.47244337
0.40809536 -0.33383784 -0.08479735
-0.15400550 0.38133106 0.31787595
0.47696161 -0.63275313 -0.34747982
-0.37361580 -0.16770819 0.08006500
0.23513602 0.58833039 0.23523350
-0.40582424 -0.32658583 -0.19944185
-0.00804597 0.83410597 0.17325071
0.22505529 0.24271291 0.06009621
-0.37453759 -0.50307333 -0.05198434
0.01559578 0.85839272 0.34759584
0.36861968 -0.14260690 0.02928966
-0.29681575 -0.49952254 -0.20916051
-0.08452660 0.54485458 0.12252886
-0.21839522 -0.39876410 -0.25648293
-0.11979543 0.60740554 0.37054980
-0.22350763 0.21853809 0.33967927
-0.30048525 0.09098694 0.08015758
-0.18524317 0.47218162 0.28349912
-0.01239285 -0.09845175 -0.20048456
-0.15478338 0.11238226 0.18404713
0.29564959 -0.48852900 -0.18552253
0.36228973 -0.53632319 -0.45296466
0.19544801 0.11963557 -0.07220257
0.16443565 0.69630563 0.31148210
-0.21087600 -0.11359845 0.13700151
0.11802433 0.15278810 -0.10438551
-0.20212543 0.32769662 0.39211863
0.26523477 0.04919343 0.12458125
-0.39207745 -0.22467387 -0.00551882
0.38834292 0.08813928 -0.05198155
0.23450486 -0.57631540 -0.42866847
0.28630179 0.10263345 -0.05505589
-0.23855658 -0.26958969 0.08375739
-0.14982414 0.21618392 0.04954926
-0.17489773 0.13480642 -0.03785190
-0.37667584 -0.23437211 0.07244979
0.42023164 -0.23044637 -0.02383526
0.33595312 0.09018116 -0.06019768
0.43614805 -0.22108766 -0.01439412
-0.32994425 -0.08264963 0.18617351
-0.36689317 -0.66572618 -0.33262756
0.18571715 0.14051692 -0.10200812
0.12332369 0.02764473 0.15183780
0.26864219 -0.44300136 -0.34032843
0.27192110 -0.20415452 -0.00658839
0.14670676 0.28916466 -0.01293915
0.17318963 0.79246187 0.34733900
-0.41266596 -0.56415403 -0.27524698
-0.36381102 -0.40539023 0.05002861
-0.27505469 -0.56492937 -0.14993437
-0.16472240 0.51047361 0.42776802
-0.17661059 0.37703496 0.33387545
-0.08829603 0.49096644 0.29230672
-0.38551229 -0.11982314 -0.13648547
0.44354588 -0.10454999 0.02939629
0.49114591 -0.01425320 -0.01292509
-0.05239923 -0.16027197 -0.21225089
0.13247293 -0.18212372 -0.20539349
-0.18806159 0.60949409 0.40251011
-0.05656107 0.75544357 0.36407200
-0.05166315 0.89020729 0.25734961
-0.38292599 -0.70688069 -0.24119255
0.14600295 -0.33227259 -0.19240107
-0.10360451 0.62582731 0.38665450
-0.25716269 0.07065097 0.21647291
0.31484550 -0.18417388 -0.26754326
-0.40398675 -0.62148952 -0.24324822
-0.35882020 0.03585241 0.10423639
0.02240930 -0.18279636 -0.17884277
0.47145241 0.02843320 -0.13797335
-0.38502085 -0.09311996 0.06620141
-0.41730529 0.00217526 -0.07016278
-0.04450572 -0.07863367 -0.17028487
-0.36969346 -0.56560504 -0.02633300
0.42529541 -0.05142431 -0.26447484
0.02849033 0.56412512 0.06979599
0.10621010 -0.23591366 0.03202162
-0.16620067 0.65842819 0.32604882
0.18853910 0.39668238 0.20299865
-0.16635676 0.66130650 0.50816703
0.24552910 -0.56522763 -0.19764747
0.25223932 -0.50682116 -0.31415001
-0.33636487 -0.61721408 -0.05218610
0.48632574 -0.64929211 -0.30719909
-0.13103867 0.31021917 0.06270252
0.03694540 0.71827054 0.31709325
-0.21528052 -0.23861215 -0.16740160
0.00896212 -0.11425038 0.10878372
0.21885180 0.11500695 -0.01656888
0.50102210 -0.04182634 0.04017485
0.29944164 -0.47111246 -0.11196320
-0.37682062 0.02834883 0.12773895
-0.10161121 0.37606537 0.05780307
0.01511347 -0.20904180 -0.11991452
0.48725575 -0.59731293 -0.24478126
0.44217479 -0.07338721 -0.26792604
0.09365162 0.06691528 -0.15798053
-0.10097431 -0.02539611 -0.12768811
0.31693077 -0.06812234 0.07638090
0.19687466 0.50568497 0.24986957
0.33766395 -0.70200038 -0.22367492
0.47799420 -0.20000970 -0.02025753
0.15007871 -0.22639278 -0.09059651
-0.34081459 -0.55566275 -0.02903857
-0.40026313 -0.65136611 -0.25131622
0.20900813 -0.03856145 0.10437360
0.18079922 0.21198075 -0.00937054
-0.33380640 -0.50605989 -0.31401893
-0.22028150 -0.69978571 -0.16570899
0.17910317 0.61204684 0.15702793
-0.32827407 -0.56696975 -0.32902941
0.19312450 0.58254528 0.27131599
0.33902740 -0.52011895 -0.43649134
0.27017146 -0.45687094 -0.31915635
0.47427613 -0.57386065 -0.39844462
-0.03866909 0.85639703 0.37627891
-0.33977079 -0.72257292 -0.17776600
-0.17906564 0.67060852 0.41577995
-0.09637012 -0.17669800 -0.20641446
-0.19362788 0.43424457 0.29205739
0.28646010 0.08546814 0.03352626
0.45668674 -0.26877198 -0.31650656
0.36916202 -0.46484956 -0.11966960
0.02674153 0.15000223 -0.11961943
-0.29673707 -0.67952454 -0.32015115
0.13197024 0.76026189 0.32444638
0.17040911 -0.11034051 -0.21553943
-0.20263919 0.62002826 0.52192593
0.47822750 -0.20297447 -0.20690006
0.31699425 -0.36339682 -0.37032375
0.28940731 0.08444361 0.06628946
0.03842372 -0.22440380 -0.08228873
-0.27230740 -0.54727995 -0.33380216
0.21513976 0.15066405 0.00008832
-0.41151041 -0.31971753 -0.15713941
-0.10965730 0.33528450 0.24589291
-0.26884484 -0.22140631 -0.21001405
0.27852416 -0.29196426 -0.33268586
-0.12324777 0.10575208 0.13753083
-0.18716176 0.53297019 0.32181969
0.31090277 -0.61765647 -0.45770738
-0.17049411 0.12865400 -0.01137190
-0.23334800 -0.69192982 -0.18546763
0.27165723 -0.09997207 -0.24189270
-0.09403870 0.59400660 0.14852986
0.21995626 0.64487481 0.31066051
-0.19511278 0.27779400 0.18054309
0.42767489 -0.24558619 -0.03012475
-0.37153178 0.00707837 0.21006170
0.45298684 -0.43869242 -0.40843022
-0.20741524 0.08670070 0.24741925
0.18937601 0.57342291 0.15341958
0.20122308 0.47240314 0.23323785
0.16294163 -0.10273558 -0.21125835
-0.00054923 0.85534286 0.18514442
0.10780937 0.59092188 0.25459921
-0.27938861 -0.53139150 -0.02967140
-0.00221141 0.50562245 0.05377152
-0.18160744 -0.39270771 0.01285624
0.27526349 0.09076176 0.04424891
0.29192543 -0.67197931 -0.30738437
-0.18620089 -0.40851679 -0.20066887
0.28313661 -0.07631654 0.06580873
-0.13741578 0.60461807 0.40643194
-0.26373160 -0.52938819 -0.31889543
0.13117670 -0.34179881 -0.18876541
-0.11666727 -0.20035565 -0.15255862
-0.40042818 -0.56031466 -0.17305823
-0.34202337 -0.72559965 -0.22625896
-0.19468218 0.11376788 0.07760027
0.40721488 -0.10042164 -0.28241691
0.25284651 -0.53743100 -0.23547015
-0.17882897 0.11457047 -0.08831438
0.27055481 -0.40348265 -0.33621150
0.17582086 0.12723592 -0.07202349
-0.17601673 0.55399424 0.29419184
-0.20344619 0.03593183 -0.11201331
-0.09709759 0.11964691 0.12017636
-0.09535186 0.55945402 0.13812006
-0.18425353 -0.11735781 0.12172960
0.41109151 0.14412653 -0.17148072
-0.11197895 0.72998559 0.44652149
-0.28133178 0.09616356 0.00321446
-0.13973826 0.06988362 -0.11226961
0.28319269 -0.04581220 -0.24222571
0.16831435 0.29684764 0.14351812
0.20753354 -0.34619477 -0.33525631
0.01823005 -0.09173922 0.11346918
-0.20210078 0.56829059 0.50614774
-0.01105530 -0.06859495 -0.16359305
0.13161728 -0.35108232 -0.14104201
-0.21524216 0.30623958 0.37681988
0.47133124 -0.49200824 -0.14357798
-0.14939342 0.23130660 0.05142964
0.41840315 -0.22625166 -0.29380244
-0.17727701 -0.31737629 -0.21131992
-0.28814811 -0.53633273 -0.20034288
0.31839538 -0.27377424 -0.32899347
0.46110845 -0.68782544 -0.28884482
0.11643796 0.42204109 0.04029744
-0.36376691 0.06444296 0.14121476
-0.24762820 -0.57434440 -0.29479951
-0.20029101 0.13495061 -0.00306867
0.12997007 0.85864377 0.24878483
0.33132827 -0.41537938 -0.39785525
-0.37223023 -0.29310217 0.04224573
0.22774167 -0.17881128 -0.26578081
0.24646612 -0.65414143 -0.24226525
-0.19687147 0.20074002 0.14734492
-0.38525862 -0.37788853 -0.02012303
-0.23875688 0.18205035 0.32920477
-0.36284971 0.01868332 0.26177311
-0.30911607 0.08391805 0.11339296
-0.30578285 -0.09130636 0.17639458
0.25875646 -0.67212272 -0.31999955
-0.36339188 -0.40679565 0.04247271
-0.04060106 0.11512065 0.09178387
-0.04784755 -0.15836298 -0.22032714
-0.18091877 0.65567076 0.49634176
0.15172219 0.82198906 0.21819894
-0.09117061 -0.25337845 0.00852936
-0.04070009 0.17116216 -0.09083787
0.23506761 0.15798748 0.12476862
0.18962789 0.13846058 -0.15600592
0.46708941 -0.32150087 -0.07975195
0.14641280 0.55387807 0.24490535
0.49266702 -0.11449173 0.01544984
0.08213137 0.95143020 0.24733731
-0.34522164 -0.04475436 0.33207595
-0.41108823 0.05566403 -0.04585455
-0.16268189 0.58147395 0.29827350
-0.07246653 0.58837676 0.11946341
-0.03423837 0.69294751 0.33222359
-0.13774952 0.27879897 0.05977648
0.24346398 -0.07256505 -0.22665489
-0.10990952 0.30723000 0.23590124
-0.18195662 -0.34058374 -0.13901533
-0.05279031 0.91980290 0.26763684
-0.19497454 0.35428613 0.23734221
0.49412096 -0.63401091 -0.23602694
0.27307597 -0.40941653 -0.35279018
-0.27449852 -0.06652440 0.17990060
-0.28339541 -0.48937979 -0.10771774
-0.28251988 0.00531680 0.23879972
0.07677518 0.87208879 0.20393412
-0.23830153 -0.60006499 -0.24771237
-0.24801646 -0.53985894 -0.30667347
0.06298907 0.24796644 0.12104446
-0.14278318 0.55024290 0.38588852
-0.37854975 -0.11056216 -0.13807960
0.45074958 -0.07436736 -0.26864612
0.37615114 0.09809719 -0.06311893
-0.17748980 0.29798490 0.13536099
-0.06321757 -0.08620627 -0.17584896
0.22637005 -0.62270927 -0.26003087
-0.16992380 -0.44806847 -0.11503737
-0.24622743 -0.55366635 -0.25057885
0.19079769 0.28187796 0.14985718
-0.34844655 -0.71839213 -0.22788414
-0.37780780 -0.05783340 -0.09348443
-0.20169646 0.55822140 0.47928640
-0.34431869 -0.27732688 -0.21023682
0.37167114 -0.15948325 -0.28323051
-0.18212514 0.67436361 0.54804265
0.49595511 -0.06711365 -0.04834461
-0.05330581 -0.11061871 0.10506813
-0.18384659 -0.35276586 -0.05466392
-0.38394058 -0.61066067 -0.11989728
0.18122761 -0.35472608 -0.30461815
-0.23767640 -0.58438313 -0.14446333
-0.19031461 0.59638882 0.52066112
0.30530053 0.07752071 0.09828043
0.27388680 -0.42548069 -0.38640741
-0.09501822 0.21622527 -0.02861671
-0.14412466 -0.28498918 0.00643374
0.16470626 -0.14046934 0.05869535
-0.21793728 -0.69606590 -0.12190054
-0.11758250 0.13739054 0.14848801
0.24517719 -0.67198741 -0.20681518
-0.23065956 -0.61304486 -0.21911585
0.16814895 0.30750209 0.15244025
0.49834907 -0.05782701 0.01584401
-0.06227266 0.13090341 -0.10376637
-0.19148895 0.40625092 0.27645409
0.16724896 -0.39805588 -0.19246714
0.09048244 0.79600036 0.16477162
-0.17833804 0.14407802 0.02473517
0.18159050 0.38328058 0.07023147
-0.41779488 -0.41056946 -0.22653264
-0.28412896 -0.74324226 -0.13103186
-0.35474902 -0.05788848 0.18907902
-0.07490389 0.82288420 0.39580733
-0.30847126 -0.04262288 0.20104983
-0.27223796 -0.52914107 -0.27876720
-0.33073127 -0.19824180 0.12539187
0.45918912 -0.25635800 -0.29306000
0.24722818 -0.56546080 -0.18628637
-0.10034156 0.72747052 0.22321633
-0.29676336 0.02189907 0.31542864
-0.27781725 -0.48664913 0.00154334
0.20947590 -0.54783463 -0.37136865
0.17971404 0.44493821 0.09571452
0.00887347 0.38702402 0.18690953
0.16313408 -0.28455004 -0.26804259
0.31687981 -0.21630183 -0.01112678
0.49289972 -0.00016914 -0.03106187
-0.20019437 0.13745403 -0.01107631
0.09992436 0.76303506 0.15973179
-0.26242161 -0.37959325 -0.26733303
0.13267559 0.53500760 0.09857275
0.22279702 0.51212287 0.26617461
-0.38014519 -0.51145089 -0.06655066
-0.20017533 0.34816509 0.37886888
0.13406450 -0.22610030 -0.07341848
-0.16834942 -0.30404741 0.02878661
0.21739601 -0.52496731 -0.34060419
0.47337395 -0.45165834 -0.34777603
-0.21665137 0.28515360 0.31085187
-0.08197032 0.78850985 0.22055218
0.48390013 -0.13267048 -0.09723115
-0.12254940 0.41619396 0.09808928
0.49212140 -0.40569589 -0.16529243
0.18101785 -0.36899287 -0.29185343
-0.41533971 -0.14852445 -0.13426562
-0.17353986 0.77964175 0.50631404
-0.13732773 0.70322597 0.46177772
0.29085940 -0.46987721 -0.15071265
-0.38183594 -0.18123350 0.06851268
-0.35849059 -0.23902559 0.10939335
-0.10068642 0.47914267 0.10649776
0.27036756 -0.49774918 -0.41818717
0.17059836 0.25067449 -0.00051343
0.46796882 -0.62863779 -0.37533602
0.27499807 0.10296041 -0.02981512
0.47726035 -0.40831062 -0.24744168
-0.10565521 0.23256424 -0.00121842
-0.21133417 0.12335672 0.28478441
0.27824053 -0.15957713 0.03686769
-0.17781669 0.22338523 0.25782642
-0.15123200 -0.47046128 -0.04233334
-0.21948667 -0.44816104 -0.09813911
-0.18844306 0.43724689 0.28377074
0.41050315 -0.02253645 -0.25333363
-0.34665692 0.05689828 0.23587051
-0.29071909 0.09078044 -0.05035095
-0.16085455 0.16311748 0.04382037
0.49314743 -0.59128773 -0.20717824
0.46769637 0.09051072 -0.13042364
0.32983816 0.06680527 0.06020081
-0.11730863 -0.05490434 0.15725240
0.18727076 -0.34940198 -0.12994444
0.34579545 -0.38770604 -0.07532841
-0.23157932 0.01775978 0.27238667
0.45178080 -0.23891112 -0.31429824
0.49983978 0.01238965 0.02835950
0.16792893 0.14458822 0.08703355
-0.38884395 -0.20444494 -0.00032496
-0.33229864 -0.04838324 0.35405806
0.31988031 -0.65351427 -0.36561224
0.48957515 -0.57616663 -0.24102199
-0.16647460 0.64949381 0.48546743
-0.29775560 -0.71643698 -0.10681354
-0.35336965 0.06089565 0.03974735
-0.39558107 -0.26146346 -0.04604679
0.32677907 -0.09677352 -0.26272511
-0.37759227 -0.20291781 -0.18331933
0.00138013 0.94366848 0.32909349
-0.39379007 -0.39780951 -0.09622255
-0.07113059 0.46002352 0.24680026
-0.18829224 0.23252225 0.12528975
-0.12689154 0.33300963 0.25814646
-0.34203851 0.09696313 -0.03033689
-0.13896400 0.31102014 0.07569918
0.01856206 -0.25030097 -0.01158161
-0.27654421 -0.55869138 -0.13020761
0.36208934 -0.24065948 -0.29425612
-0.17771991 0.77446234 0.52110112
0.26016656 -0.59965110 -0.44910255
0.47317916 -0.40435228 -0.27724829
0.28738505 -0.44883993 -0.39660412
-0.00983980 0.61303210 0.28847772
0.04985670 0.96371400 0.24876212
-0.30834836 -0.03416039 -0.09755598
0.46204543 -0.28556126 -0.06071854
-0.01394045 0.47189811 0.03155475
0.43569750 -0.10492298 -0.28620046
0.22188756 0.21956995 0.03715896
-0.16852769 0.76721120 0.41130024
0.20252238 0.52617002 0.15299571
0.45720208 -0.30536827 -0.32741794
-0.29177803 -0.74112511 -0.11560842
0.31940585 -0.05164708 0.07492401
0.22677809 0.42563909 0.15301731
-0.10239895 -0.07120056 -0.15256502
0.46811593 -0.44559368 -0.37780219
-0.19461685 -0.32247248 0.04680980
0.18974948 0.15182810 -0.02717377
-0.37939495 -0.14061761 -0.14768144
0.19754861 0.65394294 0.22076821
0.49624187 -0.52564979 -0.17943405
0.01795077 -0.10458490 0.10377873
0.17333238 0.59611857 0.15560743
0.18900321 0.21853513 0.00697222
-0.26451242 -0.08757600 -0.14098437
0.26488727 -0.41834787 -0.35989475
-0.05422191 0.07167341 0.11465296
-0.02690468 0.93708813 0.26012036
0.40467119 -0.30257842 -0.06767578
-0.18919466 -0.07818870 -0.15463184
0.11112416 0.16528839 -0.09982249
0.28713119 0.13156545 -0.10891651
-0.16844547 0.26568460 0.28240207
0.16017415 -0.30893564 -0.22899914
-0.20559892 0.25125197 0.31959105
-0.18912756 -0.28167269 -0.07052014
-0.35864556 0.04437736 0.09322582
0.27210331 0.17870063 0.14077187
-0.37425005 0.02867873 0.18206327
-0.16618817 0.45173430 0.22090682
0.17385313 0.14934912 0.09270658
-0.12910108 0.68055105 0.24214853
-0.19821922 -0.00951172 -0.11109067
0.21733540 -0.51092505 -0.32953015
-0.19283521 0.17896542 0.11671247
-0.17653456 0.75185823 0.40041900
0.23645045 -0.61559284 -0.22103840
0.05873705 0.69928801 0.12111789
-0.17482446 -0.33210543 -0.16821329
-0.13761841 0.79545903 0.46485749
0.12176789 -0.23158866 -0.07514066
0.11547018 0.77361083 0.33082727
-0.03163639 -0.18576217 -0.19998334
-0.16965434 -0.35625613 -0.10448678
-0.32785273 0.06356772 0.23046686
-0.17104872 -0.42645988 -0.15686582
-0.21926181 -0.38710478 0.03690111
-0.30958921 -0.41594699 0.03704603
-0.09268351 0.52468604 0.12248453
-0.08112025 0.49441674 0.27958515
0.37510180 -0.45376131 -0.41413397
0.33419782 -0.03407708 0.08223244
-0.25282353 -0.02319698 0.19680130
0.19195986 0.19437590 0.11802555
0.05732229 -0.24765587 0.03913330
-0.38002318 -0.44795766 -0.04729666
-0.17935440 -0.31555498 0.03721204
-0.22690691 0.03033218 0.25399673
0.28110552 0.20556439 0.12728006
0.10562877 -0.04034521 -0.18401216
-0.12810846 0.06194285 0.17301598
-0.10123488 0.52674401 0.12750621
-0.21747072 0.04423075 0.23635264
-0.30422592 0.09924092 0.10882707
-0.22729866 -0.64115417 -0.21168208
0.26425618 0.13213709 0.10405587
-0.14719251 0.36196196 0.12358387
0.34797424 -0.21265933 -0.00827220
0.23099560 -0.34691826 -0.04133890
-0.12122236 0.32966954 0.05045716
-0.08493161 0.89288962 0.31558645
0.39910436 -0.51131058 -0.15101789
0.30236953 -0.34027386 -0.04853242
-0.11760230 -0.28009072 0.01340598
-0.31482285 0.00299315 0.35308367
0.22556680 -0.60736454 -0.25413284
-0.13257943 0.56835359 0.38525361
-0.00166207 -0.23444870 -0.04732782
-0.03139078 0.75471854 0.15724337
0.41207218 -0.08049224 0.04735456
-0.24923052 -0.62583339 -0.32303759
0.08682600 0.63207555 0.26913044
0.32280868 -0.44374010 -0.39655495
-0.04979183 0.95854640 0.29570341
0.19178249 -0.36167702 -0.08059770
-0.19406560 0.18443170 0.29132324
0.01705655 0.00153290 0.15811554
-0.18274455 -0.14834429 -0.19717728
-0.39859229 0.04304190 0.04580710
0.06635237 0.28070980 0.12388038
0.17127281 -0.20823884 -0.26556683
-0.26012933 -0.39867479 -0.24221301
-0.27476794 -0.54505205 -0.04802395
-0.18330839 0.12634960 0.22772850
0.12563817 -0.33475500 -0.23367834
-0.36580110 0.01203916 0.21744224
-0.18823966 0.42233205 0.39733171
0.19099863 -0.26296476 -0.14636460
-0.18243451 0.50974154 0.43771139
0.20279132 0.81265318 0.28987110
-0.37011528 -0.18422645 0.12823434
-0.13350283 0.17008936 -0.00900895
0.27709031 -0.18785292 -0.27404651
-0.11991571 0.56588036 0.36902612
-0.17371605 0.54936230 0.34130383
0.10942135 0.80268979 0.18147057
0.15532514 0.72359955 0.18696009
-0.08860487 0.10684442 0.11011655
0.08304965 -0.13756134 -0.23225775
-0.35694325 0.02587567 0.30100405
-0.39449394 -0.57913041 -0.18797891
-0.28138560 -0.05413355 0.19503549
0.24153800 -0.25921899 -0.32325125
0.00722092 0.13441065 -0.11823195
-0.20113114 -0.41189137 -0.22398421
0.25025368 0.10973696 0.12099793
0.29696804 -0.59231925 -0.16447778
-0.15672851 -0.45641920 -0.07883960
-0.39655566 -0.07730396 0.03912836
-0.20965394 -0.40889046 0.01634913
-0.28088498 -0.52237296 -0.11645736
0.42370778 0.06876601 0.02389343
-0.36980879 -0.71896243 -0.14572175
-0.23875628 0.09252482 0.10382875
-0.40526700 -0.66198826 -0.32968423
-0.29322928 0.07697222 0.02207011
0.01922648 0.70007551 0.12312572
0.18515779 -0.27585119 -0.17251472
-0.06890237 -0.02431104 0.16105229
0.09900025 0.77992654 0.16386601
0.26738775 -0.09274209 0.06561596
-0.19874837 0.52763999 0.36654341
0.47793019 -0.10050181 -0.14494373
-0.07636239 0.32645616 0.19307299
0.48459011 -0.11928907 -0.11079073
0.26061612 -0.59113407 -0.43974471
0.19897826 -0.01420497 0.12244588
-0.18901616 -0.13079110 -0.18161239
0.11387404 0.60385299 0.26041755
-0.01979291 0.63642716 0.30082336
0.11192042 -0.12145859 -0.22647250
0.35592294 -0.44195858 -0.10492085
0.20910180 0.77762926 0.27100676
-0.04280144 -0.19906712 -0.15057147
-0.16772293 -0.33653960 -0.26470038
0.13598749 0.77063143 0.18747559
0.16769110 -0.14613354 0.06143264
0.49007314 -0.57017887 -0.24366742
0.27510321 -0.42357472 -0.26883692
-0.32575649 -0.45822123 -0.29604983
0.11162471 0.71761835 0.30687380
0.35059530 -0.65650260 -0.34316960
