0.00503720 -0.34147757 0.92639649
0.72070467 0.36634916 -0.57115406
-0.49676597 0.09985689 -0.81125069
0.19408783 -0.14237240 -0.95319283
-0.57611418 -0.22292723 -0.32363898
0.01106565 -0.95748806 -0.20488299
0.36946043 0.34808493 -0.84609252
0.17659335 -0.53102934 0.29485875
0.98070896 0.07186066 0.19758749
-0.87399381 -0.30970320 0.27163884
-0.20723243 0.22214207 -0.52123374
0.94365519 -0.27584520 -0.19944686
0.93725824 -0.32147491 0.18366130
0.11391843 0.29948962 0.53182811
-0.82896864 -0.47114068 -0.13233888
-0.23260035 -0.78187215 0.55950266
-0.95583284 0.03422659 0.05215754
-0.03305301 -0.05040898 -0.97712177
0.25868005 0.94260347 0.05037208
-0.80806643 0.13326898 0.50703180
0.70201474 0.49328962 -0.48310310
-0.82249856 -0.08984075 -0.48640284
0.76638567 -0.16963518 -0.41099498
-0.60018444 -0.10460742 0.75983250
0.42730948 -0.48567224 0.16981854
0.09698171 0.34834620 0.91934085
0.59411770 -0.79557335 -0.02108184
0.51946956 0.72979474 -0.41996074
-0.23451920 0.27277571 -0.65348452
0.23292184 -0.30759442 0.90044451
-0.81201577 0.15564306 -0.48446536
0.25176334 -0.57596982 -0.06409391
0.04560696 0.00004550 0.98475599
0.78155357 -0.44474721 0.14987952
-0.29348713 0.22300951 -0.74501103
0.65705419 -0.58233416 -0.11440756
0.11901020 0.88957095 0.39386591
0.45470724 0.86276567 0.16281472
-0.24723133 -0.53237879 0.16794989
0.74099737 0.59196973 0.14226207
0.29704151 0.13420483 -0.92785561
0.96889663 -0.10345621 0.24742125
-0.36184710 -0.71846402 0.56068623
0.19538054 0.63440228 0.40592903
0.99534041 -0.10174703 0.08103160
-0.11577100 -0.70727420 0.67701763
0.60299534 0.16403002 0.11516571
-0.39743957 0.13082011 0.42564866
0.11995507 -0.87286389 0.45505080
0.95186788 0.05640358 -0.30555543
0.65078443 -0.13102028 -0.59592986
0.31361538 0.85900295 -0.35757548
0.55801302 0.28645757 0.04004123
-0.36734825 0.16904666 -0.86519676
-0.37779567 -0.13510707 0.44387063
0.10123414 0.34705600 -0.49548018
-0.52952725 0.12092942 -0.46224841
1.00324488 0.02304728 0.02487845
1.00382972 -0.02723140 -0.02052474
0.84657699 0.24333832 -0.46035281
0.51835650 0.30212727 -0.18301514
0.87236726 -0.48976758 0.14500992
0.98738289 0.15772107 -0.00621792
0.57639039 0.24965838 -0.05193951
0.60023475 0.15410253 -0.10723472
0.27176085 -0.80325913 0.29352102
0.96116298 0.21586575 0.17537387
-0.53485340 0.10901729 -0.78766084
0.04440384 0.30369925 -0.53013641
-0.48899698 -0.31270155 0.14059570
0.04858971 -0.13591579 -0.96693063
0.86301607 -0.05749649 -0.50598359
-0.11912704 0.47102219 0.65411955
-0.19533125 -0.13408183 -0.94369167
0.02859174 0.22230954 -0.56633991
0.21638900 -0.11398326 -0.56777835
-0.93469965 -0.21606967 0.08712850
-0.45678356 -0.08663949 0.38511387
0.46327266 -0.17301802 -0.81097209
-0.62250835 -0.37332189 0.64962935
1.00261712 0.05188887 -0.04086464
0.58456653 0.44712579 0.12917235
-0.34559616 0.18475981 -0.60162014
-0.59597802 -0.35767740 0.69096810
0.58303064 -0.46346006 0.13845210
-0.09876484 0.65628910 0.65847605
0.77129877 -0.17827146 0.14857933
0.35675561 0.14066313 -0.48242411
-0.07781816 -0.59033239 0.78776038
0.97531766 -0.17478500 0.18471278
-0.09683362 -0.98233533 0.01779873
0.97761548 -0.16136032 0.21255428
-0.53024310 0.12540264 -0.58252090
0.54013598 0.39122304 0.13573226
-0.13316594 -0.14699645 -0.74388814
0.33402210 0.45247036 -0.80665690
-0.09745023 0.59611499 0.10184117
-0.53351921 -0.14974707 -0.75150961
0.23651789 -0.08522909 0.90299034
-0.20525569 -0.51782370 0.80980766
-0.47633019 -0.65632570 -0.12128454
-0.20005186 -0.01014964 -0.94565630
0.89586532 -0.03386028 -0.43701753
0.42811599 0.38888803 -0.79684079
-0.82372439 -0.34677070 0.36946830
-0.44620281 -0.03679528 -0.38658813
-0.10781299 0.56311607 -0.77854109
-0.13405746 -0.12245619 -0.58513218
0.18883076 0.79413056 -0.54380840
-0.41764447 -0.88698137 0.02907502
-0.34720463 -0.14743917 -0.88914317
-0.39381874 0.15862939 -0.58789581
0.55418670 -0.12835689 -0.63171774
0.97812980 -0.18528920 0.15841557
-0.38147196 -0.04313653 0.46365017
0.82249880 0.55986094 0.04678468
-0.65144497 -0.13513738 -0.52594239
-0.59233576 -0.71326625 0.30104282
0.58721542 -0.80553341 -0.09952334
-0.58901292 -0.14736994 -0.73577100
0.28248021 0.93158352 0.12307614
0.04271205 0.52019393 -0.31161085
0.59599108 0.18767422 -0.76518279
0.16264313 0.56128716 0.76340908
-0.09490203 0.95166981 -0.19238810
-0.91134691 -0.03762512 0.31669277
-0.36249721 0.17658591 0.82167709
-0.43487915 -0.87504470 -0.01303702
0.79831582 -0.24610133 0.16181333
-0.29992664 -0.53134739 -0.02972852
0.15818505 0.61665702 0.50734013
-0.02079930 0.41178313 0.44744280
-0.09953339 0.57827294 0.48118252
-0.83520544 -0.49263167 -0.04632152
0.77964556 -0.28709945 0.15392309
-0.56325871 -0.79794478 0.05023892
0.39365453 0.89969492 0.02424738
-0.34225360 0.02284902 -0.48727793
0.03265525 0.54343784 0.28627989
0.23776564 0.13353656 -0.54991412
-0.51503825 -0.82011437 -0.10988773
-0.03495688 0.96459687 0.16436379
-0.24060553 -0.20899771 0.52070183
0.19572070 -0.37406895 0.83557433
0.16023299 0.06638970 0.74334258
-0.79198909 -0.17559834 0.53408372
-0.35561714 -0.91146350 -0.04813302
0.81088853 0.57268083 0.07625136
-0.01817034 0.36268824 -0.48466390
0.34391633 -0.12567389 -0.61077327
0.95615274 0.03167770 0.24827245
-0.00730103 -0.96762335 0.18173917
0.68880624 0.58278346 -0.40676203
0.73824024 -0.15725684 -0.47594070
0.16626085 0.25863954 0.76513278
0.68470597 0.19443688 -0.68361056
0.30099609 0.25518176 -0.47549540
-0.09832825 -0.10836991 -0.96226412
0.89502227 0.00211403 -0.43926135
-0.92860883 -0.19272310 0.15601406
0.17548949 -0.18425885 -0.82531697
-0.71709639 0.12947276 0.25004640
0.20502979 0.48134091 0.38855246
-0.12415467 -0.77395988 0.60104173
-0.20143446 0.90286446 0.27209985
-0.22259556 0.08158518 -0.54956746
-0.20052409 0.13594496 -0.54655325
-0.59223396 0.10651916 -0.01474567
0.73432153 -0.65079367 -0.11836842
-0.58001614 0.02789683 0.12210322
-0.27788752 -0.93942690 0.06883744
0.84207356 0.48994985 0.16326702
-0.64559668 0.11712259 0.69374698
-0.78780395 -0.21480618 0.52398479
0.60356927 -0.13171402 -0.54608196
0.54964268 0.29977486 0.10446781
0.86992776 0.38987228 -0.29395208
0.30211318 -0.50989753 0.25288466
0.36397225 0.48781762 -0.10353456
-0.62710106 -0.51393223 0.54424042
-0.36383933 -0.90071368 0.14029473
0.97014433 -0.02653245 -0.24359456
-0.17899832 -0.16825524 -0.94175565
0.25290254 -0.95599890 -0.08275291
0.96574605 0.21733530 -0.16270985
-0.77248496 -0.16695350 -0.43504313
-0.61216009 0.11997780 0.53253448
0.63830900 0.75402081 0.08907994
-0.68076015 -0.34987080 -0.19237016
0.79631507 -0.06485323 -0.59964633
0.15096614 0.32703629 0.66701281
-0.30435038 -0.48682415 0.19407555
0.33324543 0.50928628 0.12295923
0.45793366 -0.14765804 -0.46583083
-0.81208950 0.16749921 -0.32554844
0.19616103 -0.18199022 0.83638984
-0.11872382 0.48267511 0.73908347
0.99943793 -0.12519521 0.01447218
-0.12598763 0.77649069 -0.11400892
-0.27610365 -0.63417423 -0.12021077
-0.85518122 -0.45433271 0.03794226
-0.75811839 -0.56377280 0.22294416
0.43626937 0.86741102 0.15116824
0.23638208 -0.73571801 0.32861665
0.55434805 0.29256654 0.10537519
-0.53495467 -0.21922506 -0.12589757
0.91628665 0.35320568 0.18778567
0.04852465 0.09808977 0.98001158
0.63853961 0.18533948 0.12783892
0.07008980 0.94206119 0.25056162
0.24749364 -0.94503391 0.16781680
-0.76154131 0.14462851 -0.32796779
-0.48564249 0.11517599 0.34652048
0.08430144 0.80071807 0.56410182
0.43258810 -0.43411237 0.17135333
0.16356735 -0.61374223 0.75482565
-0.40851662 0.15429966 0.75475663
-0.10393542 0.65338326 0.38867438
-0.52496159 0.05494697 -0.26759169
0.01285497 0.95637810 0.19607763
-0.17411515 -0.57159746 -0.11821482
0.73400378 -0.32824486 0.13778435
0.52654976 -0.02830176 -0.83524054
0.14905624 -0.34633613 0.56868404
0.16011019 -0.64180493 0.50514728
0.54600465 0.33506218 0.13172296
0.21686697 0.36879864 -0.43776897
0.87934411 0.30553445 -0.34662631
-0.23789816 -0.12153396 -0.93664640
-0.53563601 0.11265318 -0.76364130
-0.94276005 0.10434460 -0.11523374
0.53809720 -0.84026849 0.02041897
0.99048913 -0.11647227 0.13072392
0.00336164 -0.10225419 0.98546529
-0.36164936 -0.88906884 -0.18446963
-0.00881746 -0.79385459 -0.15395239
-0.09273672 -0.66857648 -0.12270049
0.70340550 0.49714544 0.13035031
-0.16969319 -0.18842024 0.94953823
0.46391913 0.34907842 -0.23728512
-0.74273175 0.13984469 0.17985544
-0.17413385 0.95820260 0.00267887
0.00892118 0.80385935 0.56350172
-0.16854876 -0.47819251 0.34043911
-0.15844648 -0.21256800 -0.92650557
-0.65294117 0.12564939 0.02045516
0.05165860 -0.63995266 -0.11628807
0.04089632 -0.14549714 0.59769434
-0.11456455 0.74081290 0.19769384
-0.62566316 -0.12936878 -0.66207987
0.16469103 -0.77933419 0.49476400
0.96176821 0.01824596 -0.28553042
0.07984798 0.25277209 0.55666560
-0.78770560 -0.34333533 -0.20232509
-0.21696627 0.22737402 0.92634153
-0.36654928 -0.90752339 0.00852164
0.30805084 -0.94721925 -0.00818478
-0.54315418 -0.24670173 0.00546051
-0.79721147 -0.38436639 0.40077987
-0.21863276 0.04282689 -0.94796348
-0.76208544 -0.59245813 0.03914898
0.38261715 -0.49467200 -0.13103451
-0.55420768 -0.26108938 -0.26359066
0.99457002 -0.10970663 -0.09613262
0.62277305 0.10981720 -0.00815030
-0.20660321 0.29794532 -0.55952686
0.15301232 -0.61902201 0.55188984
-0.50136548 -0.29258120 -0.13133132
-0.03178928 -0.02707783 -0.60788077
0.98846060 0.00539375 -0.16096820
0.14300057 -0.22299199 -0.88848114
0.88822603 -0.27460358 -0.26279092
-0.18786894 0.29816246 0.50510681
0.18231934 0.92909491 0.27187487
0.05444188 -0.10338250 -0.96690941
-0.10295293 -0.13119447 -0.59794170
0.52973771 0.76639891 -0.33244887
-0.75190890 -0.52369094 0.31716919
-0.16063997 -0.77048469 0.60111231
0.44310170 -0.44813871 -0.07960575
-0.21796472 -0.10112776 0.95050728
-0.10086074 0.56161988 0.49784368
0.64453769 0.65764844 -0.35861748
-0.89215767 0.14280193 0.33206192
-0.06781988 -0.21611208 -0.87655747
-0.32443097 -0.92706597 0.05639565
0.23516420 -0.20431411 0.91371250
0.39127123 -0.47238305 0.18995193
0.45490921 0.67540228 0.16312945
-0.41684249 -0.41738048 -0.15870108
-0.75309914 -0.01831792 -0.60678577
0.11686876 0.46774399 -0.84545314
-0.11655323 0.48343441 0.46437371
-0.49169016 -0.58304405 0.61410713
-0.71198159 -0.61688912 0.24059792
-0.23592284 -0.03587972 -0.94156575
-0.68068564 -0.28165886 -0.25636512
-0.66348517 -0.36854374 0.60882252
0.54934305 -0.49539772 -0.13275261
-0.15453307 0.84237337 -0.40559897
0.98823410 -0.16964877 0.09115934
0.47592470 -0.15332399 -0.84721076
0.46664390 0.40556228 -0.08938236
0.91578937 -0.03007389 0.21698290
-0.52245110 -0.18412526 -0.21392161
-0.57333434 0.06529590 -0.10587553
0.09388119 0.81818187 0.53059274
0.45272180 0.42815039 0.02564310
0.45794439 -0.44382101 0.16086714
-0.74191898 0.14256619 0.32470095
-0.13133438 0.43219781 0.82517242
-0.17255889 -0.95501757 -0.14974082
-0.90306866 -0.31229329 -0.12653925
-0.21591590 -0.95890677 -0.05703364
-0.38637018 -0.17661096 0.42788294
0.73469043 0.29696959 -0.60056400
0.82737887 -0.53139019 0.15889528
-0.01301421 0.50922441 -0.32839537
-0.10002907 0.59122109 -0.45515692
0.10117424 0.97700799 -0.05745884
-0.49327254 -0.32123503 0.11320504
-0.44884726 -0.17888637 -0.33859113
0.90020794 0.41310865 -0.08915798
-0.03694426 0.05986719 0.98092890
-0.81189734 -0.11990173 -0.49888071
-0.45386431 0.13294253 0.66575539
-0.90731239 -0.20195992 0.26019040
-0.95634866 0.00743333 0.03726112
0.21473508 -0.64997923 0.37571526
0.55504423 -0.82310092 0.00888854
0.24426262 0.95309103 0.01590670
0.11967233 0.92239022 -0.29836351
-0.94682437 0.05492193 -0.14499322
0.27439275 0.73152387 0.27863282
0.10347107 -0.02509367 -0.97039789
-0.09239276 0.34941298 -0.90167844
-0.95521897 -0.08942417 0.08515626
0.34496474 0.89711404 0.20822367
-0.48551747 -0.15409842 -0.79053092
-0.07200194 -0.81332195 0.55223769
-0.12051286 0.75846505 -0.37112591
0.79196429 0.31451544 0.15072355
0.15033321 0.63212144 0.59613889
-0.91252059 0.18386814 0.23830824
-0.03363664 -0.50392711 0.35769618
-0.10175462 0.62178922 -0.30733347
0.70811069 0.08951812 -0.69128734
0.65905750 0.02428839 0.13286556
-0.08612005 0.14135958 -0.96561521
-0.35995677 -0.19452325 -0.86190414
-0.56192046 -0.09494136 -0.15211207
-0.59116739 0.11721036 -0.55794454
-0.05890531 -0.60611594 -0.09374552
0.15884297 0.54471350 0.72766167
-0.91924083 -0.21213776 0.18952487
-0.09799432 0.62866068 -0.38173121
0.37372798 0.34641251 -0.34324431
-0.94441330 0.06329126 -0.11780903
-0.14969155 0.89605355 0.37241831
0.94690478 0.18701142 -0.25562340
0.03934135 0.68720663 -0.68556160
0.05512127 -0.23384546 -0.91774869
-0.76782185 0.15408514 0.26467741
-0.81895888 0.04223172 -0.50205976
-0.71953124 -0.37864640 0.53929353
0.88314182 -0.41403288 0.19610047
0.82669836 0.16960558 -0.52655911
-0.33801585 -0.05205312 -0.49593902
0.77290666 0.34056196 -0.52786332
0.03966725 0.95807052 0.19530298
-0.12647632 -0.24696644 -0.92919207
0.75644207 -0.66104233 -0.08817132
-0.12453513 0.44965696 -0.65685278
-0.38116431 0.16856445 -0.43407255
-0.44955841 -0.58433282 0.64730525
-0.90558034 -0.17476718 0.27873307
-0.72552693 0.13361497 0.39327127
0.73352945 -0.53306127 0.14014468
-0.94813728 -0.10747492 -0.07947687
-0.24320820 -0.55847681 0.02437033
-0.65307111 -0.52785504 0.49336222
0.97328937 0.01011147 0.22765490
0.15718727 -0.39386424 0.49537319
-0.24137130 -0.82960677 -0.16596000
-0.28605393 -0.18489420 -0.83249009
0.13222732 -0.08077274 -0.97062862
-0.47089887 -0.62830400 0.58269769
0.29657868 0.86800504 -0.35176247
-0.50231731 0.12308452 0.39113227
0.78988934 -0.06114075 0.15366633
-0.49426389 0.13003916 0.53854132
0.15313701 0.44124573 0.67894787
0.96710801 0.10856720 0.24181974
0.84362483 0.32307583 0.16549070
0.07931664 -0.11013665 -0.59571213
-0.83962280 -0.45576558 0.18259054
0.41327405 0.61669779 -0.64445752
1.00078726 0.04994199 0.10631000
-0.28340283 -0.54554665 -0.12497923
0.23438942 0.04652394 -0.56681579
0.98569441 0.02519090 0.20311095
-0.52218324 -0.74019206 0.34621105
-0.95288759 0.00654520 0.10180340
0.35595992 -0.12985854 -0.61751658
-0.27842093 -0.07820069 0.53101981
0.96316558 0.12637512 -0.22143824
0.45252621 -0.44077507 -0.07572976
-0.75552976 -0.04883475 -0.60082823
0.70622015 -0.02347704 0.13423949
-0.74065197 -0.53925455 -0.12763363
0.51101100 -0.38047570 -0.00890817
-0.56865382 -0.13302925 -0.52114505
-0.12326884 0.84013629 0.48512444
-0.41512713 -0.10319893 0.88160509
0.81364912 -0.42504269 0.16597828
-0.17058969 0.35145554 -0.77205551
-0.53951418 -0.28518921 0.76265138
-0.68470079 -0.13570669 0.67861688
-0.38786879 -0.13826796 -0.52225637
-0.92452997 -0.26714879 -0.02952039
-0.20345831 0.95130336 0.11279321
0.18044205 0.95244920 -0.14158438
-0.42402202 0.00203782 -0.41492456
-0.27959555 0.08733141 0.93483275
0.67113954 0.34967858 -0.63055074
-0.31985223 0.19560398 -0.60001636
-0.60656565 -0.49275938 0.58126026
0.86661881 0.30640018 -0.37260425
0.83872890 -0.01410586 -0.53266603
-0.95098752 0.07558390 -0.04538790
0.87149924 -0.10058462 -0.47594982
0.63112575 0.05690146 -0.00367261
-0.57293439 -0.52564704 0.58727527
0.21192931 0.09011544 -0.56608951
0.90911531 0.40034023 -0.07457667
-0.30996335 0.15572144 0.49888480
0.05843069 0.39789584 -0.46465847
-0.46198171 -0.11290126 0.85550267
-0.15987620 -0.29633242 0.92365974
-0.10291883 0.58154130 0.58493453
0.14879498 0.48103145 -0.34920004
0.30460340 0.77242005 0.24857530
-0.61088604 -0.27057323 -0.26203534
0.85006213 -0.49103227 0.17735539
-0.31798577 -0.67668879 0.64083010
0.11955816 0.57556200 0.78875160
-0.03110836 0.96546030 -0.14540482
-0.25639844 -0.41010493 0.37440398
-0.72481149 -0.14934601 0.62817329
0.24289510 0.54593706 -0.15177199
0.80952990 -0.60589576 -0.06461865
-0.01353619 -0.63182461 -0.11143924
0.30877665 -0.53944933 -0.03853361
-0.66693944 0.11986864 0.42558962
-0.25550261 0.25371957 0.70856428
0.56485265 -0.81532514 -0.00369132
-0.10905327 -0.01289246 0.60344046
0.14638780 -0.44629914 0.66121548
0.22594284 -0.68960559 0.35258430
0.59301060 0.67035556 -0.40887368
0.22554609 -0.94701731 0.21388336
-0.11094155 0.01206073 0.98142672
-0.60081822 0.04961214 0.76634419
0.97168630 -0.14120406 -0.16747090
-0.65570736 -0.07373667 -0.70412725
-0.67889208 -0.02638634 -0.68271792
-0.88083225 -0.35228679 -0.17017238
-0.18327416 -0.21015358 0.54204148
0.81182224 -0.14801359 -0.48983902
0.22880520 -0.96909344 0.02909238
0.14369576 0.55211127 0.67721927
-0.48393664 -0.35665527 0.06958804
-0.43136838 -0.16860405 -0.45183897
-0.23396996 -0.45513323 0.33831215
-0.02565528 0.25529149 0.95169538
-0.01968617 -0.24955508 -0.92631698
0.63719815 0.03974928 0.03906042
-0.11712942 0.47350517 0.68272215
-0.92951208 0.16211438 -0.12116326
0.78184718 0.09153953 -0.60726893
0.38756230 0.88708329 0.16729631
-0.59020597 0.00270098 -0.02415360
0.10465603 0.96522164 0.05669840
0.51353091 -0.35354561 -0.13741001
0.18488823 -0.29360202 0.81929398
0.37443143 -0.50231099 -0.08171512
0.05939245 -0.59639251 0.17177002
0.05426975 0.96452701 0.13076112
0.22743765 -0.20569085 0.93735331
-0.60129845 -0.72756732 0.26303110
-0.05170657 0.57712340 -0.18829553
-0.00564732 0.31091762 0.52882665
0.91718608 0.39712733 0.04763786
0.69315642 0.34555560 -0.61129504
-0.09827396 0.61873901 -0.37934291
-0.77732235 -0.12896308 0.56454867
0.01682014 -0.02057273 0.98734081
0.63854277 -0.17086679 -0.39844838
0.30798948 0.52585518 0.06729874
0.94939399 0.17780374 0.23741573
0.77786267 0.50704324 -0.36165017
0.19696805 0.49336579 0.40997791
0.46302444 -0.13745880 -0.50290173
0.57855380 0.72905004 -0.33331975
-0.10914726 0.50919151 0.74665523
0.14519067 -0.32141989 0.66337943
-0.61751300 0.12104984 0.04349031
0.48262465 0.82285976 0.15718621
-0.18027662 0.33590972 -0.48871341
0.18753952 0.57018721 0.42013949
0.52898550 -0.24449302 -0.26122445
0.59881663 0.16367480 -0.08847640
-0.06929350 0.66481924 -0.69762874
-0.92102361 -0.18833168 0.20318340
0.60174590 0.26723441 0.12410932
-0.83568060 0.18443064 0.07581821
0.69020230 0.24757788 -0.66376191
-0.57595646 0.11633372 -0.23179841
-0.91846007 0.04902779 0.29048076
-0.00293296 0.42883536 0.88736176
-0.05490327 0.97061110 -0.04640711
-0.10779616 0.67209685 0.29701993
0.08103641 -0.17575939 -0.82510519
0.00504893 0.55249929 0.26392534
0.15480554 0.54686964 -0.23133263
-0.12359205 0.75034702 -0.13690558
0.25003439 0.43449900 -0.84180886
-0.48361379 -0.84136343 -0.05211378
-0.36947805 -0.13125104 -0.65206158
0.45534304 0.05914304 -0.87390029
-0.31343532 0.10115035 -0.50123286
-0.45668814 -0.64021730 -0.11533664
-0.81562746 -0.03304166 -0.50500554
0.43793896 0.86452007 0.15943073
-0.46275359 -0.15422925 -0.34520823
0.22802880 0.32102811 -0.47026789
-0.29383868 -0.53136659 -0.03991700
0.02166933 -0.60233295 0.78201777
0.41100222 0.74460852 -0.49075496
0.69111377 -0.62781954 -0.10663720
-0.00161871 -0.13433538 -0.66768801
0.48180664 0.51706696 0.15609626
0.08410275 -0.08216012 -0.96600378
0.14675707 0.39665011 0.73209113
0.28042066 -0.60441494 -0.11720355
0.79432058 0.28907201 -0.52442974
0.79750502 0.59125590 0.01242404
-0.05122960 0.67004514 0.71865940
-0.05631453 -0.04188819 -0.97441900
0.47498029 0.13279286 -0.85258406
-0.07730278 -0.04923876 0.98148340
-0.13626216 -0.59703815 0.06761184
-0.23119636 0.27679753 0.88618255
-0.16776544 0.14404908 -0.94992226
0.80091161 0.31710294 -0.48992050
-0.26539555 -0.94509089 0.10884959
-0.80009097 -0.23545372 0.49121648
-0.00391887 -0.96749067 0.20605752
0.65350187 -0.38481188 0.13210349
0.49414685 0.37683544 -0.08993851
0.26468915 -0.94773412 -0.11380672
0.65627122 -0.06059163 0.12386975
-0.80887258 0.04457061 -0.52162862
-0.10928578 0.46984315 -0.83177316
-0.40125650 -0.12265163 -0.42638484
-0.08912848 -0.17389198 0.96675628
0.83867222 0.01602079 -0.53451228
-0.10989420 0.68474460 0.41374418
-0.94381422 -0.15679793 -0.07909930
-0.26095819 0.24230942 -0.71350157
-0.12292922 -0.47999310 0.36906698
-0.64752674 -0.40269518 0.60773003
0.47771558 -0.18392548 -0.38525406
-0.17248441 0.23675543 0.54339123
-0.83476323 0.18345250 -0.12978479
0.03258381 0.51962006 -0.31221384
-0.54991078 -0.15705326 -0.16014598
0.16497333 -0.59676552 0.06508256
0.18982074 -0.53854358 0.26257533
0.59904081 -0.19988592 0.11982021
-0.53369683 -0.14976797 -0.45354003
0.82600653 -0.49117219 -0.13947746
0.34219894 0.12161024 -0.91522163
0.65201610 0.44819027 0.13426268
0.09489051 0.94489396 -0.23726973
-0.03946800 0.97964454 0.07754384
-0.05747659 -0.19347976 -0.95682275
-0.22441351 -0.68362212 -0.12877133
-0.48934871 -0.08680066 -0.33406749
0.90609217 0.21931340 0.20435794
0.14761813 -0.37613234 0.56431597
-0.15542778 -0.58018577 0.12864806
-0.87931412 -0.38636830 0.08956546
0.35596928 0.46695921 0.21040393
-0.18683632 -0.82432258 -0.16656461
-0.10142045 0.59643304 -0.66546804
-0.17490886 0.03773012 -0.57389933
0.52128583 0.02014397 -0.84020978
-0.31114835 -0.20190918 -0.85928231
-0.39844039 0.15886948 0.62877697
-0.09760886 -0.13646531 -0.71031940
0.23737392 0.49243775 -0.27110213
0.79332691 -0.09730382 0.15459067
0.15122053 0.62969410 0.64855683
-0.74799860 -0.15606171 0.59748447
-0.57249296 -0.59882414 -0.11927418
0.70720041 -0.23880094 -0.29184875
-0.03327054 -0.05083320 0.61119050
0.38861713 0.10278816 -0.89853519
-0.47867042 0.12584303 -0.58712804
-0.28721428 0.00090713 -0.52578217
0.80002552 -0.46418026 0.15304179
-0.05494480 -0.88527155 0.43463394
-0.74282736 0.13830058 -0.01939900
0.72835487 0.44465801 -0.48721001
0.90921307 0.41171116 0.00595189
-0.74884939 -0.06558083 0.60782033
-0.14155450 -0.33027133 0.91382933
-0.49431545 -0.28147414 0.18767229
0.68904454 -0.24541661 -0.28653798
-0.55278331 -0.44775712 0.67183298
-0.53607750 0.11370040 0.79489690
0.64767319 0.53220737 -0.51584280
-0.40945023 -0.89253771 0.02054038
-0.70231360 0.11961934 0.46177629
0.94620639 0.21566920 0.23799016
0.06904544 0.54454422 -0.26522946
-0.57270974 -0.02935929 -0.14573987
-0.93515664 -0.11077610 -0.17937307
-0.01834382 0.91274500 0.33189577
0.14425986 -0.32342261 0.54230219
0.81734103 0.56625307 0.01313959
0.72128546 -0.34615260 -0.19471288
0.15890191 -0.40625763 0.46922654
0.15193492 0.76516151 -0.58668649
0.61344320 0.77340853 0.05836589
-0.12162593 -0.75360930 -0.14204267
-0.08686297 0.29886702 0.52477092
0.73293871 -0.13590732 -0.55404228
0.80252993 0.07899529 -0.57808042
-0.70835054 -0.07328351 -0.63498402
0.83177459 0.52740598 -0.12070388
0.19151314 -0.46766773 0.85551482
0.68863463 0.54869819 -0.44946554
-0.26129422 -0.21344669 -0.88660806
0.39772466 -0.17349713 -0.81482202
-0.30918625 0.21209884 0.79188770
0.28870454 -0.92465281 0.21601951
-0.23574191 0.25803259 0.90250260
-0.34389681 0.16130638 -0.87786931
-0.85390681 -0.01054871 0.45212844
-0.58774394 -0.57675672 0.52437592
0.12074973 -0.45506987 0.86797422
-0.45364708 -0.38866836 -0.01981876
0.34349278 -0.16702877 -0.79835290
-0.44117996 -0.49746561 -0.13699239
-0.50174105 -0.07363158 0.83526647
0.69708413 -0.12385626 -0.69858122
-0.74059498 -0.60279429 0.17384984
-0.31798297 -0.11708497 0.91870630
0.76792848 0.51502347 -0.35900027
0.30355975 -0.69258821 0.25570306
0.81247157 -0.55439150 -0.11770197
0.10015288 -0.56491506 0.24621569
-0.17095235 0.34833160 -0.46180630
-0.15680800 0.29981354 -0.91137439
-0.96101600 -0.04024818 0.02307449
0.97832763 -0.08177502 0.20919864
0.81354654 0.12247863 -0.56129110
0.36979592 0.43350765 -0.23584777
0.42645749 -0.12928750 -0.63764614
0.63723010 0.38351202 -0.65349442
0.16905208 -0.49520475 0.33642042
0.99110645 -0.08679329 0.14056163
0.96187955 0.02629871 -0.28845870
0.62499088 0.69172502 -0.33257484
-0.75718588 0.13757192 0.50634956
-0.58209944 0.12238319 -0.66424030
0.59512490 0.43604267 -0.65627915
0.02925118 0.43393993 0.88189656
-0.17127553 0.36096084 -0.81492972
-0.09838130 0.54258454 -0.79185736
0.24261032 -0.22479914 0.92723101
0.13392395 -0.84545755 0.50188136
0.60477519 0.16469450 -0.04672097
-0.34271863 -0.49911875 -0.03059393
0.52820879 0.07715791 -0.32282406
0.22675267 -0.55228817 0.35183552
-0.89307934 0.21436320 -0.11419623
0.14833932 0.27579740 0.93646520
0.65867370 -0.68010318 -0.12237374
0.63076490 0.71285319 -0.26243269
-0.79039943 -0.40699902 0.38782835
0.55487347 -0.73122919 0.13100150
-0.71870762 -0.36730427 -0.18295865
0.97639114 -0.24763143 -0.05785646
-0.33760911 -0.27421883 0.87505567
0.81723952 0.51485324 -0.23631056
-0.53143805 -0.76470399 0.28866798
0.64041823 0.23578978 -0.71512568
0.19758160 0.07670615 -0.96048194
0.16079876 -0.60714388 0.49199563
0.61402482 -0.13507880 -0.75945383
-0.13246664 0.78798234 0.36990395
0.04223400 0.79114282 -0.56487298
-0.12435435 -0.59368896 0.11097836
-0.38018548 0.16256459 -0.66091096
0.82483107 -0.54578578 0.15971613
0.12505841 0.57062972 0.17313831
-0.05054297 -0.94805908 0.28649190
0.14872833 0.58674443 -0.06287538
0.30856836 0.52276456 0.08366830
-0.93566746 -0.14000270 0.16869017
-0.08602408 -0.97003889 0.13979881
-0.70125347 -0.45259991 0.49270481
-0.05438863 0.54693389 -0.79418653
-0.72609359 0.13333184 -0.19337888
-0.95078355 0.06361704 -0.09163325
0.02947102 0.20119587 -0.57191813
0.58235276 0.39533699 0.12965731
-0.06552427 0.57932591 0.79141676
-0.67653757 0.12569383 -0.01812951
-0.79527032 -0.53805876 0.10030550
-0.91154313 0.07900551 -0.28312787
-0.78096479 -0.21802466 0.53485513
0.35352513 -0.52003837 -0.05861505
0.15034829 0.28078824 0.59199876
0.83546007 0.53456092 0.04305792
-0.05021037 0.58515322 -0.76963979
-0.43385735 -0.34691575 0.22707452
-0.37594631 -0.28124455 0.37698424
-0.85492980 -0.35872674 -0.18370591
-0.55386299 -0.76799893 0.23607953
-0.46435556 0.01495873 0.38054547
-0.64704204 -0.11949419 -0.68657649
0.74736857 -0.17346042 -0.39736456
0.98039061 0.10635071 -0.17119117
-0.20225224 0.30390045 0.85939801
0.15315732 0.50378263 0.84008527
-0.62925708 0.12723884 -0.15094928
-0.94587058 -0.09121046 0.13405170
-0.03512012 0.93271446 -0.28613126
-0.82576340 0.00843880 -0.49664727
-0.45905969 -0.34031552 -0.20194824
0.95492446 -0.30791336 0.04435844
0.68770695 0.66089988 -0.26704025
0.35495177 -0.12844636 -0.58998758
-0.95463306 0.06983708 0.04984191
0.92471218 -0.09666995 0.22575462
-0.13770849 0.79716086 -0.04503927
-0.11788288 0.47319841 0.48176196
0.47807223 -0.40429631 -0.11300080
0.81485653 0.01381848 0.16034691
-0.39205387 -0.45752722 -0.05905786
0.25338349 -0.14132805 -0.93457931
-0.26995131 0.23528396 -0.65841609
1.01135099 -0.02973254 0.00724881
-0.02199870 0.88833249 0.41505906
0.30712575 0.00318124 -0.54013216
0.27726200 0.72000062 0.27778769
0.56880659 -0.23182034 -0.14581490
1.00074363 -0.09154447 -0.03096365
-0.29263324 -0.46857727 0.25489795
-0.58617133 -0.44152555 -0.15111886
-0.03642518 0.48832968 -0.35025987
-0.84612632 0.18085822 0.39409217
-0.84523672 -0.16548318 -0.41163850
0.69093657 0.07821761 -0.70639110
-0.00634084 0.25402752 -0.54632407
0.69838148 0.70282638 0.05546251
0.20055899 0.31300196 -0.90705121
0.42072695 -0.46648046 0.17112288
0.11726937 -0.88111854 0.42972842
0.97444469 -0.09260083 -0.23270692
-0.10004651 0.63608849 0.28542930
0.91956145 -0.40061909 0.10738047
-0.10248756 0.55539525 0.71093220
0.78652906 -0.17195602 0.15479249
-0.27007955 0.13826986 -0.92366052
-0.53875029 -0.04325859 0.24688323
-0.57960629 -0.78562605 0.01872772
0.31837067 -0.78837335 -0.14910714
-0.10997898 -0.14929140 -0.95940179
-0.03123188 0.59734392 0.11528661
0.05969029 0.34246600 0.50372034
0.23554561 -0.06393867 -0.95529515
-0.63305265 -0.40198144 0.61616993
-0.03063779 -0.15147464 -0.96638966
0.12599117 0.90447688 -0.34672597
-0.00860444 0.25014248 0.56517392
0.17373057 -0.09781154 0.96422172
-0.58267331 -0.38476807 0.68904799
0.95251340 -0.14107284 0.23393276
0.99659824 -0.11394965 0.05277824
0.53601295 -0.78410566 0.13715433
0.59252876 -0.22888534 -0.03103436
0.36558381 0.16394709 -0.90282226
-0.03461958 0.70999193 -0.67451310
0.78119504 -0.32246944 0.15130031
-0.12657753 0.77226734 0.46538007
-0.07890987 -0.14645588 -0.74012762
0.77988279 0.05415360 0.15146601
0.14763111 0.24213898 0.67361253
0.68666899 0.71242630 -0.03190649
-0.11947519 0.92119801 0.31702465
-0.37994739 0.03811907 0.90179497
-0.36886901 0.00501667 0.48024547
0.59259516 -0.02302790 -0.79348391
-0.33766925 -0.11997821 -0.89918423
-0.55073631 -0.15761548 -0.43579549
0.85520154 0.31187093 -0.40153214
-0.12699427 0.76667869 -0.23927119
-0.93418282 0.15654294 -0.09265018
-0.09825689 0.62301683 0.60567933
0.08511423 0.12694396 0.60185641
-0.20944940 0.08377497 -0.94557810
-0.59750468 -0.67591906 -0.12423560
-0.93902510 0.04215159 -0.19151857
0.34158534 -0.93149388 -0.03892212
0.15242308 0.77398574 -0.57536024
0.65049607 -0.51885521 -0.12891617
0.34909204 0.64492905 -0.65165728
-0.95188206 -0.02162731 0.10869575
0.82826823 0.53993678 0.12175597
0.51892942 -0.73308218 -0.13125353
0.73139781 -0.42848241 -0.16216314
-0.34270364 -0.52352607 -0.12881619
-0.88880169 -0.26521325 -0.23309323
-0.17325829 0.95159221 0.12865296
-0.07915324 0.89548445 -0.36878470
0.16624472 -0.39701125 0.77114731
0.65813571 -0.31665203 0.12711705
0.47343948 -0.17048046 -0.40691692
0.20021276 -0.14677788 0.95576823
0.20812066 -0.31307364 0.86008632
-0.18344155 0.87438869 0.23086904
0.72567523 -0.20322475 -0.33448282
-0.22367740 -0.62797904 0.72383320
-0.49910432 0.05473340 0.33254588
0.45471230 -0.43315011 -0.09258188
-0.32013914 -0.04577567 -0.91854942
0.75265926 0.64342618 -0.05386043
0.61312276 -0.14067806 -0.07349615
-0.59138870 -0.15071550 -0.72841001
-0.39038438 -0.14486809 -0.51526207
-0.81978160 -0.19956261 -0.34703109
-0.10637943 0.66009164 0.17819130
-0.02359853 -0.60983658 0.09171853
0.08627149 -0.04062860 -0.97094077
-0.54776824 -0.23962203 0.05440227
-0.66764748 -0.39030161 -0.17503120
0.62021661 0.17584768 -0.74991262
0.00527545 -0.93237257 0.31665277
0.40954936 0.78687644 -0.42634970
-0.47620091 0.13723019 0.79764390
-0.93957824 0.02382205 -0.20914088
0.49928612 0.01476778 -0.85375267
0.13640527 -0.30272117 0.92780918
-0.48251778 -0.12503228 -0.31840807
0.15147245 -0.33584544 0.91406810
0.21732901 0.74755704 -0.60142797
-0.77229464 0.00319116 -0.57728034
0.42638195 0.12250270 -0.87783760
-0.38281113 -0.44055793 0.14965543
-0.10469475 0.54572749 -0.60617709
0.16121857 0.66120899 0.51319081
0.17518470 0.10760471 -0.96058381
-0.10153127 0.59044206 -0.71605086
-0.78045541 -0.47226793 0.33212748
-0.51248401 0.12752973 0.68987429
0.47215092 0.40696177 -0.00563625
-0.55605036 -0.17245010 -0.10158527
0.55429471 -0.69576406 0.13567039
0.21552442 0.90414941 -0.30895740
-0.10878748 0.50842190 -0.44476175
-0.24279234 -0.79910219 0.52885407
-0.07960431 -0.20720597 0.57344097
-0.07307563 -0.14194894 -0.96655697
-0.66855967 0.11825459 -0.19227999
-0.15767437 0.83440733 0.45309070
-0.73042744 -0.61596394 0.16597024
-0.43166345 0.14050163 -0.61445922
-0.18843301 0.32042518 -0.61038917
0.38743812 0.89821458 0.06550664
0.83537692 -0.26679724 0.17455406
-0.73721403 0.12735415 0.46837404
-0.80019730 -0.24616958 0.48248017
0.12455326 0.93441391 -0.25344011
-0.42675748 -0.42251316 0.77576607
-0.75437713 -0.34679127 -0.19667003
-0.12777506 0.45141563 0.58976865
-0.13871838 0.11259398 -0.57463682
-0.71650249 -0.14654814 0.64452022
0.23124699 0.73430872 0.33200052
-0.03077214 0.19068447 -0.57224745
0.56121695 -0.13245876 -0.80406559
0.24141558 -0.11345354 0.91044265
-0.80447984 -0.01263175 0.53834802
0.17741658 -0.96173179 0.16842371
0.17353131 -0.91410744 0.33770019
-0.05716746 0.37939835 -0.46844617
-0.00077519 -0.85341561 0.50507188
0.25594756 -0.64304221 -0.11716708
0.00255196 -0.47160438 0.86564016
0.02671771 0.06835060 0.97702849
-0.53333557 -0.20959446 0.78398192
-0.07678860 -0.08985101 0.97945279
-0.17416008 0.35180262 -0.78808969
0.20705748 0.36895174 0.88988447
-0.91293103 0.21702562 0.20273866
0.94106114 -0.23604780 -0.25548211
0.49177754 -0.07768720 -0.37683696
-0.44832474 -0.86313331 0.09098942
-0.40364280 -0.16697565 -0.40696549
0.91143525 -0.43905488 -0.00828922
0.94203782 -0.22514488 -0.25517136
0.61917663 0.05836158 -0.77108729
-0.11907436 0.73158181 0.32344496
-0.48614877 -0.25806883 0.24028677
0.85117453 0.23575766 -0.45507458
-0.34475926 -0.14511041 -0.48805556
-0.49234420 -0.07893778 -0.32488406
0.49935737 0.80705261 0.14811787
-0.42458338 -0.00108859 -0.86945605
0.61416525 0.11661574 -0.05956943
-0.80498254 0.16472548 -0.36845160
0.07075772 -0.98183334 0.11252959
0.96997529 0.09262605 0.24358641
0.06109495 -0.10868530 -0.96573985
0.15511206 0.36983696 0.49007472
-0.44351467 0.01740796 -0.39193475
0.53143454 -0.04764198 -0.33203956
-0.52201867 -0.14550711 -0.49808130
0.69499481 0.67521000 -0.20972249
0.50560212 -0.16549887 -0.40983430
-0.56750059 0.09426644 -0.12654684
0.23103143 0.02173697 -0.56997848
0.19854620 0.95712125 0.02137509
-0.70489007 0.05136012 0.66500789
-0.58458066 0.11314614 0.48855719
0.69369352 0.68878758 0.12090537
-0.33655715 -0.06211895 0.50157106
-0.27230361 -0.01542836 -0.93448383
0.21180320 -0.09954411 0.85936320
-0.87593794 0.10106301 -0.38443071
-0.11788437 0.02665167 -0.97094321
0.35682175 0.05375882 -0.91486132
0.21659170 -0.80131328 -0.15680930
0.11270232 0.43619061 0.42268020
0.08860281 0.96650314 -0.10615017
0.34855744 0.91951394 -0.00395829
0.34169674 0.62704265 0.22066198
0.14895171 0.79588151 0.53309274
0.21308604 0.44505614 -0.84908336
-0.53584921 0.02817017 0.26024976
0.74486387 -0.46699837 0.14035121
-0.05084503 -0.44892204 0.42198327
0.14390191 0.14402547 -0.95604175
-0.56955642 -0.33316976 0.71801031
0.48821971 0.58963728 -0.61158335
0.14995511 0.61605668 0.60242230
0.16031019 0.57689130 0.77977055
0.16703270 -0.49154887 0.46831706
-0.58770144 0.07011344 -0.02517874
0.49510577 0.09577198 -0.36928517
-0.81676430 0.16878939 0.30509433
-0.02279791 -0.87051928 0.46604064
0.04100330 0.97235715 0.03439008
0.54128575 -0.74741948 -0.13076296
-0.07211924 0.11216864 0.97436106
-0.28458616 0.22881290 0.82801878
-0.74167484 -0.54985869 -0.12378299
-0.10523751 0.66868114 0.40774426
0.33588734 0.49294999 0.21091349
0.81847632 0.10627040 -0.55770761
0.62431055 -0.42152035 0.13181904
0.50003821 0.04853978 -0.37524572
-0.82866776 -0.32282135 -0.21807772
-0.10906990 0.71002626 -0.02742324
-0.39247969 -0.41448778 0.80077821
0.77976501 0.59136629 0.13559745
0.81853706 -0.45349845 0.16608591
0.97317433 0.21187203 -0.07921112
-0.02376451 -0.97344089 -0.19124386
0.44246417 -0.02567980 -0.43837312
-0.42186558 0.08781716 -0.40545821
0.96354955 0.25414443 0.10202976
-0.18375646 -0.58016610 -0.04097637
-0.45335332 -0.37739459 -0.10477144
-0.18267649 0.33779904 -0.46744084
0.79658353 -0.24975447 -0.28033268
-0.82693601 0.11610630 -0.48205858
0.04733755 0.60811532 -0.01983029
0.80561763 0.05698741 0.15864432
0.93055826 -0.38473821 -0.01713419
-0.47433928 -0.19938362 -0.35411197
0.30090144 0.71188259 -0.60538059
-0.75608808 0.14532824 -0.49933887
-0.03248183 -0.31411532 0.52969545
0.63594824 0.60524833 -0.44979656
-0.14133553 0.41889033 -0.58659697
0.08371330 0.73904145 -0.62740844
0.48983657 0.55809033 -0.64333177
-0.73564667 -0.52473438 0.36723951
-0.92988032 0.23151723 -0.02047376
-0.82953101 0.04258709 -0.49052224
0.29479676 0.69281101 0.26086748
0.27055746 -0.94077623 0.17485344
-0.39095935 -0.34563115 0.82227975
0.58340722 0.17221001 -0.15875217
0.94550097 0.31689441 -0.06776565
0.45986214 -0.04679359 -0.87272251
0.09181051 0.20636520 -0.56189746
-0.36937577 0.16819671 -0.80647552
-0.24174103 0.26798528 0.57458127
0.91277379 0.37712124 0.15870833
0.18201210 -0.61498702 -0.11828487
0.08731088 0.48899189 0.36092818
0.13163385 0.08187455 -0.96899825
0.15084819 0.47623926 0.58061820
-0.65837985 0.12468421 0.06098788
0.16481414 -0.65824366 0.49581927
-0.18699239 0.87537730 0.21090789
0.14752290 -0.62800372 0.59742659
0.50730187 0.84631181 0.10328660
0.22331819 -0.49002934 0.34347159
-0.16052301 -0.56747842 0.17875580
-0.03178923 -0.89460635 -0.19968344
-0.47831479 -0.28159115 -0.23439497
-0.09228131 0.60308540 -0.04366087
0.55221027 0.03138171 -0.29309824
0.29119208 -0.94291162 -0.16414285
-0.94229776 -0.19985907 -0.00647174
0.31854689 -0.77465749 0.24189560
-0.11351988 0.49325994 0.77244008
0.57391167 -0.09226335 -0.24784251
-0.84306902 -0.21648344 0.42632800
0.58259553 0.40805432 -0.68146735
-0.55253404 -0.01144223 0.21662480
-0.48689973 -0.30329078 0.79373479
0.04590921 0.04374740 0.61770213
0.02318164 0.12373050 0.97772312
0.00077409 0.39497766 -0.89567226
-0.73776531 -0.22423269 0.58932203
-0.42067066 0.01680771 -0.87095511
-0.96018112 -0.03402998 0.00747221
-0.12287274 0.42326513 -0.43326786
-0.58866245 0.02364374 -0.02350331
0.63445699 -0.08018365 0.12177189
0.49392185 -0.45605007 -0.14131814
0.28377056 0.50495374 0.25306880
-0.36977029 -0.02709018 -0.89195192
0.32624239 -0.90698349 0.19945556
-0.11521117 0.44748944 -0.40882713
-0.68968016 -0.26877183 -0.25948998
-0.52530318 -0.11752389 -0.23738106
-0.55842793 0.11593069 0.54549158
-0.30469868 -0.18320383 -0.84204078
-0.11632220 0.48921731 -0.67173475
-0.30519903 -0.84690797 0.38339442
0.72527516 -0.69103026 0.05812457
-0.45971560 0.13988541 -0.73674703
-0.66764426 -0.15391228 0.68903661
-0.89194584 0.01789642 0.36883676
-0.37002888 -0.05054167 -0.89095557
0.64089280 -0.23790225 -0.29233539
-0.50853372 -0.29968420 -0.06644111
0.18794170 0.91754866 -0.28186846
-0.00481299 0.54497635 -0.81086731
-0.17997813 0.95898175 0.03303533
-0.29077861 -0.42173126 0.33809644
-0.76988143 -0.29581594 0.51612449
-0.10350265 0.66731989 0.39034712
0.55646038 -0.18682511 -0.38535887
-0.10679648 0.25238940 -0.93595499
0.53903961 -0.16970181 -0.42616341
-0.23011751 -0.95839870 -0.06530260
-0.02587557 0.24622777 0.56502277
-0.49580669 -0.76366413 0.34916160
0.76791668 0.61372912 -0.15187068
0.31260362 0.50466704 0.17528565
-0.19454439 -0.62112641 0.73830366
0.72902852 -0.52284169 -0.12959126
0.50930023 0.84848237 0.04191986
-0.12831287 0.75806189 -0.18306001
0.56484246 0.27454361 -0.06674869
-0.09904565 0.59278607 0.26268396
-0.39024535 -0.87587535 -0.15981412
0.16498059 0.54919493 -0.22412840
-0.41027832 -0.09535003 -0.87101299
0.85529542 -0.53129244 0.03414078
0.96780312 -0.16488194 -0.22338980
-0.51396555 0.01137200 -0.30168787
0.33890319 -0.55692768 -0.11996926
-0.19330662 -0.10309182 -0.56804430
-0.19945700 0.30983108 0.56712723
-0.14793846 -0.59330392 0.07184892
0.62321430 -0.52776837 0.12567724
0.04487778 0.57359684 0.20160154
-0.65412432 0.11664476 -0.10107272
0.14981200 -0.90547931 0.36023515
0.68496418 -0.18871100 -0.37671024
0.99986905 -0.11432347 -0.02206153
-0.01642581 -0.61111891 -0.11304416
-0.14927046 0.82124448 0.25540474
0.78104645 0.38965598 0.15489738
-0.22242123 -0.51099765 0.26151970
-0.69730747 0.13074216 0.16396309
-0.10868628 0.68785095 -0.40877080
0.14992554 0.13408566 0.68480450
0.23332070 -0.13793814 0.94719362
0.42579719 -0.74167550 0.17285484
-0.82434183 -0.40362597 0.31179801
0.16200511 -0.77492976 -0.14551739
0.40784171 -0.13054866 -0.63672274
0.16904652 0.70166814 0.46835631
0.99744654 -0.03108226 -0.10453608
0.16136734 0.10250543 -0.58073395
0.67721587 0.55072522 -0.45959294
0.03141250 -0.81684601 0.56115043
-0.24622950 0.10559193 0.93952709
0.99380022 -0.14965168 0.03905671
-0.93795919 0.12280142 -0.14147069
0.62204885 0.11271627 0.12423982
-0.52344781 -0.74311030 0.33810183
0.56787801 -0.26768583 -0.07179707
-0.67017800 -0.55408776 0.43707210
0.41136777 -0.15320958 -0.77215457
0.05946744 -0.04866272 -0.60515106
-0.86881578 -0.24886577 -0.26915228
-0.46815252 -0.28925157 -0.22522078
0.60179609 0.17130235 -0.05727174
0.26815978 0.32870391 -0.44264758
-0.64482135 -0.04003115 -0.71666062
-0.24329701 0.18172947 0.53350157
0.98189789 0.08153197 -0.16219851
0.09825943 -0.09150716 -0.96707112
-0.14880410 -0.96637142 0.11607961
-0.54389530 -0.03173964 -0.79894120
0.06386915 0.14866324 -0.96379268
-0.11435775 0.74340773 0.25542501
-0.10272612 0.62156677 0.43644267
0.29607138 -0.70343316 0.27090186
-0.90806085 0.05633707 0.32836193
0.56747007 -0.17038174 -0.42344877
-0.27225167 0.23838717 -0.72807580
-0.06419699 0.81926453 -0.52854246
-0.51160175 -0.02662346 -0.29813147
-0.81090206 0.17219399 -0.21589737
-0.76791710 -0.45486742 0.38943872
0.40961143 0.45639262 0.17913613
0.11955798 0.54090166 0.27356794
0.32032225 0.37715200 -0.36934236
-0.11275013 0.50628698 -0.54771209
-0.10153919 0.54975545 -0.44594556
0.11442653 0.97128391 -0.08333327
-0.10482306 -0.91043901 0.36200243
0.06591277 0.90180135 0.37861031
0.96458554 0.25970632 0.08441661
-0.45447642 -0.13911150 0.37122691
-0.10718708 0.69113922 -0.47672403
0.40613273 0.45598596 -0.10674324
0.44480434 -0.82294679 0.16772355
-0.44899917 -0.09769738 0.39186841
0.69122916 -0.12873051 -0.65805954
0.02143243 0.60485125 0.05226739
-0.81700701 0.17707346 -0.14043166
0.20718195 0.57668591 0.00945580
-0.58301193 -0.51736331 0.58362198
0.20070317 -0.47160819 0.37992814
0.86125141 -0.51833546 0.01898609
-0.18573460 0.33193129 0.68043232
0.31932655 0.34091017 -0.86534816
-0.31839612 -0.00773190 0.92173064
0.72806758 0.46258968 -0.47732064
-0.18195494 -0.42972735 0.40041032
0.62723023 0.09116249 -0.01222862
-0.88603526 -0.37438771 0.07267314
-0.27420518 0.23514526 -0.81026298
0.01603441 0.25577289 0.95383126
0.92993468 -0.22050241 -0.30007353
0.14853296 0.47207075 -0.35878998
-0.06349696 0.30176237 -0.51748776
0.90031201 -0.44448665 -0.04802110
0.05573341 0.34440285 -0.91603190
-0.55720967 0.08910596 -0.17524545
0.50956279 -0.06738175 -0.84576589
0.04402705 -0.36571711 0.49961954
-0.34624252 0.04783262 0.49593922
0.10948578 0.84326327 -0.47183058
-0.87076187 -0.40514737 -0.08355139
0.94798070 -0.33871391 -0.04874134
-0.15148735 -0.30818078 0.92072141
0.50912964 -0.13490167 -0.54289049
0.05519280 0.89282656 0.41102976
-0.56629270 0.07242361 0.78946203
-0.36874503 0.18244144 0.57557285
-0.53475702 -0.14585117 -0.20016536
-0.87511235 -0.02999931 -0.38900533
0.03098759 -0.18571877 -0.96298623
-0.88983184 -0.37327462 0.02571166
-0.93021071 -0.04952611 -0.25080436
-0.65183932 -0.22829649 -0.31785420
0.98056412 -0.13271201 0.17755738
-0.84207559 -0.42727631 0.22869620
-0.00856814 0.50821662 -0.82969534
0.13707954 -0.15091908 0.61153698
0.51231587 -0.17200005 -0.79453266
0.54442608 -0.15059406 -0.81661725
0.14219527 0.93526816 0.27354234
0.77586430 -0.21788347 0.15493627
0.46667808 0.37947592 -0.17044249
0.57073194 0.21655115 -0.78212982
0.23146085 0.55799246 0.10401363
0.14910634 -0.21347384 0.68968678
-0.18600154 0.33437371 -0.82209444
-0.94353622 0.14747807 -0.05933573
-0.24282649 -0.61898863 -0.11268986
0.03029506 -0.00003200 -0.61473519
-0.94256270 -0.11647075 -0.13470010
0.13711366 0.86070132 -0.43990037
-0.75434899 0.08581620 -0.58687538
0.22352771 0.54935706 -0.15565802
0.06129573 -0.78967893 0.59755260
-0.37387073 0.07060397 -0.89473331
0.31350768 0.81901586 0.25572327
0.37492591 0.08443597 -0.48700953
0.22003596 -0.13242631 0.88973629
-0.65819997 0.12208486 -0.20712741
-0.09029079 0.54513013 0.81378275
0.66470760 0.04829995 -0.73250002
0.00227386 -0.74628818 0.65520108
0.95627075 -0.25772005 -0.17945714
-0.07278430 -0.94437492 -0.23232581
0.25647357 -0.93132937 0.25856313
-0.63091969 0.08577079 -0.72012848
-0.54012537 0.12151970 -0.46172658
-0.43993413 -0.40519947 0.05865183
0.15748975 -0.48932829 0.51719636
0.32842633 0.19553986 -0.48324147
-0.95326471 -0.09424333 -0.01965554
0.14723796 0.96755147 -0.08388181
0.15423183 0.52101588 0.29414374
0.44858474 -0.88553154 0.02692209
-0.03411199 -0.16454445 0.96929979
0.91603774 0.37910178 0.13984250
-0.78104061 -0.05082311 0.57031977
-0.14928429 0.40015134 0.58316714
0.16320603 0.80811417 0.47642398
0.11148413 0.59886479 0.02063130
-0.41573629 0.05120449 -0.42203778
0.92118734 0.36561346 -0.00360847
-0.16083191 -0.91857982 -0.21788347
-0.08513305 -0.75776601 0.63416374
-0.58377343 -0.29243627 -0.23848227
0.18561707 0.16821565 0.95358396
1.00114417 0.03962631 -0.00628389
0.95646250 -0.29542366 0.10330894
0.14677016 -0.52019584 0.60796851
0.52845681 0.05064946 -0.32839888
0.76791871 -0.63704932 -0.09709145
0.24215689 0.73066664 -0.60415763
-0.86217070 -0.40027168 0.17232075
-0.11347120 0.22593141 -0.93883365
0.32708159 0.11105214 -0.51433045
-0.44269508 -0.39044702 -0.17380039
-0.65067470 -0.72110856 0.01743608
0.99330848 0.00258103 -0.10442557
0.81845552 0.08306942 -0.55571991
0.45659450 0.64524949 0.16153120
0.51811361 0.29648399 -0.78117812
-0.16499032 0.36243957 -0.83305520
-0.72746217 0.02772275 0.63983023
0.12952408 -0.82164168 0.54702783
-0.39365166 0.15288018 0.87007993
-0.11282066 0.69526494 0.50766802
-0.73401231 0.13753660 -0.24539401
0.66690755 0.72065103 0.09647457
-0.03668308 0.07927871 -0.97003728
-0.13225283 0.42961299 0.83772373
0.11043846 0.57362807 0.17282219
0.51523358 -0.53246474 -0.12761676
0.17206612 0.17125997 0.79174137
-0.57412356 0.11784551 0.23490016
0.27822626 0.52307463 0.28626424
0.16486102 -0.03252578 0.77361774
-0.39479604 0.07215740 0.89395881
0.80022776 0.03736096 -0.59002608
0.02547784 0.37424070 -0.90623766
-0.54564536 -0.13957229 0.19596976
0.51107877 0.69992816 0.14622393
-0.80890882 -0.44813547 0.29872659
0.56625521 0.75284278 -0.31443366
0.77029550 -0.14323919 -0.50054586
-0.20492877 0.14671424 -0.54163009
-0.89240539 0.18325508 0.28918308
0.12394980 0.12603924 0.97550887
0.96548086 -0.19844596 0.20808715
0.22074462 0.81387603 -0.50199342
0.61974031 -0.13751224 -0.03589462
0.05532369 -0.00875060 0.98506528
-0.57998556 -0.03222651 0.11125547
0.23526281 0.07936899 0.90092391
0.54517704 0.29814452 -0.08883484
-0.35354990 0.17099842 -0.81595397
-0.31809390 -0.24009745 0.89143848
0.46020865 -0.14329468 -0.44074753
0.34844941 -0.49317402 0.19074745
-0.81049109 -0.39648491 -0.17057577
0.52620268 -0.25257629 -0.26428786
0.16415626 0.60812461 -0.74556243
-0.37364995 -0.47737804 -0.03530698
-0.62754625 -0.22426997 -0.32220551
0.20900686 0.46928695 0.35591924
0.14773719 -0.60619509 0.68880403
-0.13301362 -0.15973215 -0.78237510
0.39799550 -0.18618430 -0.84712851
0.03088251 -0.04594701 -0.97210634
0.14924598 -0.89179254 0.41728595
-0.08751474 0.79404962 -0.55316979
-0.36347282 -0.04712333 -0.89791149
-0.53090554 -0.12804055 -0.54903388
0.88920009 -0.44985205 -0.12756941
-0.60555023 0.11755741 -0.08081671
0.47321284 0.40078232 -0.07849354
0.03468910 0.42823294 -0.87397742
0.33271018 0.30194119 -0.87324786
0.50717020 -0.35507876 -0.12155771
-0.19152349 0.20311910 -0.52944094
-0.79454297 -0.47775856 0.29417539
-0.44692093 -0.35480568 0.17963360
0.22663184 0.83184099 -0.46067727
-0.02480260 0.71843314 0.66198897
0.17497107 -0.15242094 -0.76486987
-0.12468800 0.74536097 -0.18059056
-0.15442835 -0.34939009 0.48250547
0.86388648 0.49522194 0.09289735
-0.10286015 0.52465606 0.31916741
0.08743747 0.23902619 0.57093316
0.02185632 -0.57054329 0.25257814
-0.08702215 -0.82742715 -0.16821595
-0.10638868 -0.96714723 -0.13169025
-0.85950458 -0.20190302 -0.33909696
0.51070940 -0.67008471 -0.12070520
0.93723035 0.35084578 0.03756344
-0.60157353 -0.76060331 0.00131174
0.16729239 0.31905887 0.77216733
0.97805971 0.20370825 0.02024575
-0.16349353 -0.84992242 0.47565025
-0.62425470 -0.74749792 0.07192980
0.04128373 -0.09695610 0.61352080
0.27608824 -0.13571161 -0.93053222
-0.21685654 -0.91812098 0.29317826
-0.53692591 0.03778007 0.26234245
-0.68286693 0.12873963 0.47357064
-0.56372797 -0.78743470 -0.08265312
-0.31398994 -0.11953522 -0.91160369
-0.07053673 0.97167492 -0.00287024
-0.91893899 0.24281642 -0.10412893
-0.21352033 0.29430804 -0.70437253
0.82279891 0.36319673 0.15296005
-0.10256194 0.63052976 -0.46069565
0.20614430 -0.91773343 0.31837022
-0.18046348 0.34251726 0.67309159
-0.52041692 -0.82444835 0.06864727
0.30703196 -0.91705024 -0.21450052
0.98315239 0.17139204 0.14042822
0.04778427 -0.16107213 -0.96485972
-0.39961562 -0.13575532 -0.52468336
-0.93097371 0.13167018 -0.17387295
-0.11784859 0.49668053 -0.70093459
-0.05013379 -0.88334858 0.42232662
0.61677361 0.00288934 -0.77925009
0.61705369 0.04138937 -0.11005513
0.15036309 -0.70845735 0.58915293
0.39591354 0.31454101 -0.35310900
-0.22570258 -0.23758188 -0.91599876
0.21268068 0.52810025 -0.21935242
0.19679901 0.33028767 -0.90061367
0.21847884 0.20859940 0.93878025
-0.00860612 -0.98028719 0.11793185
0.21704255 -0.37767994 0.88682002
-0.17800075 0.00497693 -0.94883525
-0.95646083 -0.07164247 0.05473829
0.50330746 0.36355716 0.08389300
-0.33140463 -0.70713758 0.59484828
1.00312388 -0.04677717 -0.01618816
0.29477677 0.51573658 0.16420032
0.42214665 -0.09398523 -0.44972664
-0.85666120 -0.40178484 -0.17004614
