-0.77988487 -0.24176116 0.08006033
0.30373093 0.22290938 -0.61472857
0.28690749 0.68141931 0.18839282
0.63146776 -0.26717013 0.26596588
-0.45676911 0.49296322 0.01454782
0.11181216 -0.92796957 -0.09591192
-0.82976246 0.16134335 -0.14742735
0.58935100 0.34631458 -0.19619319
0.36930230 0.61219448 0.10464311
0.54337990 0.20016038 -0.37529650
-0.01853640 -0.78477657 -0.24826227
0.05894246 0.37763929 0.60742432
0.30706549 0.17522827 0.66102493
-0.37441564 -0.55176044 -0.16531016
0.60680246 0.38171273 -0.04844360
0.50827134 -0.21677291 -0.39621192
-0.40325388 -0.07471656 0.55345482
-0.18073188 0.20987087 0.76857036
-0.11207638 0.21531075 -0.79911721
0.79790199 0.07721012 -0.23712845
-0.84856939 -0.18210851 -0.09954257
0.05309520 -0.26904026 -0.74688596
-0.51164842 0.07818337 -0.43352294
-0.02032803 0.62666386 0.37057018
0.13038065 0.27764633 -0.72497630
0.37484562 -0.07550403 0.60618037
-0.46063673 -0.47392747 0.12027664
-0.54587609 0.11829328 -0.39598516
-0.28206334 -0.39886501 0.44653016
0.36343643 0.52480018 0.25515327
-0.17738131 0.89321202 -0.00975734
0.35296977 -0.18447781 -0.57920831
0.31890249 -0.58165944 0.25678015
-0.35286948 -0.18807231 0.56916624
-0.86361110 0.17703755 -0.10659537
0.63732076 0.36331755 0.03290688
0.76985788 0.27888870 -0.02854107
-0.23442891 -0.49400473 -0.37886536
-0.17844978 -0.44872865 0.46585280
0.33684757 0.45360151 -0.34717065
0.23546541 0.40482926 0.49390817
0.87796694 0.02137583 -0.19093312
0.82098031 0.21643311 -0.08918285
-0.21551020 0.27385086 0.67427379
0.63277584 0.31398603 -0.20100892
0.55850971 0.00255629 -0.41319424
-0.25314918 -0.63189375 0.25010520
0.38028222 -0.60891777 0.03753839
0.23397310 0.25806159 0.66563022
0.15299581 0.83689630 0.18092808
0.38108733 -0.19769828 -0.53272963
-0.54355180 0.36440983 -0.20917466
-0.05489256 -0.66714668 -0.32079193
0.74636012 0.14426531 0.26341492
-0.78499860 0.22590995 0.14558813
-0.75350863 0.11625124 0.26197612
0.01812012 1.00448442 0.01570953
0.26260993 -0.46683896 -0.37660176
-0.15876031 0.82355177 0.17798592
-0.18655424 -0.84389889 -0.09930394
0.64705437 0.34582677 -0.05688434
-0.00190074 0.31652609 0.71617025
-0.14605568 0.88214248 0.10080468
0.06076761 0.20547538 0.86730528
0.24724950 0.81729740 0.02547980
-0.26613915 -0.15876755 -0.69305712
-0.84264076 0.15322545 0.15778673
-0.27680540 0.67663234 -0.15959282
-0.32403183 -0.65317965 0.08807106
-0.06945077 0.48890331 0.46917716
-0.78698432 -0.25149041 0.02361115
0.36681032 0.07684237 0.62042344
0.04408304 -0.41249180 0.55683959
-0.16144302 0.29153463 0.69605774
0.50020838 0.22375032 0.40803829
0.70065910 -0.31270632 0.05262730
0.60927111 -0.21498556 -0.30162576
0.06038744 -0.94841713 -0.09808379
-0.80669367 0.09948858 0.23069471
0.34731454 0.26974890 0.53434479
0.38893953 -0.10963262 -0.58077037
-0.29044262 -0.73171365 0.02303813
-0.11835606 -0.35320580 0.60760432
-0.29760692 -0.24628997 -0.58039993
0.33821952 -0.66499513 0.09241018
-0.16558802 -0.03649348 -0.88827080
-0.74742627 -0.13226780 -0.24409571
-0.26933372 0.75877094 -0.07473212
0.75356728 0.14490157 -0.24416187
-0.43104151 -0.39044669 0.29908133
-0.46442872 -0.06181619 -0.48549554
0.36568260 0.37733299 -0.39895463
0.90359372 0.12827066 0.13177796
0.10292950 0.96881509 0.02559210
-0.05309456 0.06482053 -0.96750796
-0.75208753 -0.03417325 -0.26987246
-0.44330263 0.08499626 0.50843406
0.59481883 0.36957535 -0.13583225
-0.20190457 -0.60450500 -0.31318736
0.70556009 0.29361254 -0.12275635
0.55223989 0.26276657 -0.32079762
0.41756678 0.17441204 -0.50902605
-0.49559036 -0.25566536 0.37581685
-0.36707228 0.60698742 -0.01476321
0.95630175 0.10748253 -0.03535498
0.21102412 0.14031072 -0.79793459
-0.43138438 -0.49207717 -0.13427140
-0.33309728 0.63099808 -0.11516175
-0.81354475 -0.19836193 -0.13340503
-0.21917340 -0.38071349 -0.49688616
-0.15733324 0.43258011 -0.48882678
0.34696698 0.12270452 0.64378601
-0.41889477 -0.11773969 -0.51418597
0.23184650 -0.00664735 0.83701086
0.46311659 0.49976867 -0.06373344
-0.30021772 -0.69935775 0.06971425
0.07481928 0.70692664 0.31357148
0.69126749 -0.00874212 -0.31690845
-0.36434525 -0.61255258 0.05593435
0.08497044 -0.39446613 0.56600171
-0.06558583 -0.28236440 -0.72492325
0.46592939 0.22964269 -0.42194280
-0.14240369 -0.57666409 0.36919478
0.71930891 0.25586802 -0.18219253
-0.21888633 -0.00904590 0.83599097
-0.33825701 -0.36418629 0.42513117
-0.59175152 0.06076396 -0.36511391
-0.72193915 0.22594570 0.18431248
0.61455429 -0.11829735 0.36077937
0.76757926 0.04366988 0.27973422
-0.36078137 -0.43183702 0.34234428
0.38713467 0.33001375 0.42911926
-0.67058891 -0.28199089 -0.16679426
-0.25491774 -0.50126982 0.37126976
0.77170146 0.07822264 -0.25649804
-0.45689231 -0.01595848 -0.48984018
0.38628107 -0.52443439 -0.21206142
-0.30981326 0.22997095 0.60167134
-0.19217871 -0.14102192 -0.78855962
-0.37454358 0.44359055 -0.30757082
0.30142108 -0.71551180 -0.08550005
0.59808135 0.32469341 -0.21442093
0.02941792 0.53001660 -0.42998937
0.63534623 0.05886129 -0.34916362
0.17174885 -0.20517884 0.78663027
-0.21565156 0.44813225 0.46689013
-0.56183404 0.39614853 -0.01161277
-0.10087596 0.47905830 0.47032234
0.50808614 0.12044446 -0.43703333
-0.77634209 0.01708817 -0.25806800
-0.21577166 -0.31479660 0.59926236
-0.58927590 -0.25392908 -0.28411615
-0.56883430 0.39750883 0.06333065
0.41245487 -0.07170378 -0.55082190
0.42821467 0.02947225 0.55127412
-0.33582541 -0.21425222 0.57228118
-0.51913410 -0.43187973 -0.03740209
-0.10506685 -0.80766666 0.22350320
-0.12122311 0.30030477 0.71555901
0.40744811 0.20555896 0.50720459
0.20472488 0.66589230 -0.28018686
0.55846566 0.16225728 0.39422548
0.41893327 0.38170591 0.34944338
-0.07322832 -0.43672287 0.51481044
0.14719975 -0.49798980 0.43811408
-0.73409271 0.27524433 0.09397618
0.12184526 0.26573074 0.75723350
-0.11799414 0.58037561 -0.36498028
0.51989871 -0.11614373 -0.42523667
-0.91090626 0.16642952 0.06870046
0.21601766 0.69514811 0.25979841
-0.15153800 0.93250322 0.03219118
0.02878810 0.53489250 0.44381014
0.19324617 -0.88688999 0.01597751
0.10916955 -0.15511070 0.90010518
0.25675792 0.43492934 0.44571009
-0.15818578 0.70800859 -0.27369198
0.45639729 -0.51574039 -0.06799757
-0.33934152 -0.63598907 -0.04563028
0.38283226 0.32540587 -0.42798102
0.27896050 -0.51809448 0.34197998
-0.07140607 0.66293859 0.34672895
0.41564590 0.54344696 0.13344632
-0.28800514 -0.58128166 0.26984307
-0.86628610 0.13401844 -0.13923411
0.41363961 0.47913286 -0.22636391
-0.43347088 0.50679553 -0.10670745
-0.59286124 -0.03638820 0.38340083
0.64536822 0.35270265 -0.02232469
-0.11476620 0.94650435 -0.00469868
-0.20602790 -0.33773884 0.58004332
-0.75119597 -0.26609200 0.06689319
0.43095914 0.42708111 -0.26416773
-0.53933173 0.09700115 0.41397864
0.21179999 -0.20181133 -0.73571593
-0.16524149 0.49735498 -0.41910884
0.21893488 0.32558385 0.60769445
-0.37176582 0.56461334 -0.15206337
0.14716360 0.00415450 -0.93133277
0.73676646 0.10052372 -0.27478233
-0.50764710 0.01538772 0.44750911
-0.02498888 -0.05392342 -0.97426081
-0.23516086 0.51257658 0.38138464
0.13357243 0.84067345 -0.18291432
-0.12000072 0.62399226 0.35604572
-0.08342548 0.52728802 0.44005385
0.24883442 0.80838424 -0.04919082
-0.22414766 -0.33967382 -0.55144572
0.90717089 -0.04281034 0.16448952
0.72196376 -0.09713889 0.29380020
0.58229572 0.16959940 0.36253050
-0.12167697 0.39219874 0.57138032
-0.09641629 -0.93735158 0.08614662
0.08711587 0.41214067 0.55944890
-0.57403189 0.05901513 0.39488986
-0.38081121 -0.32036528 0.43105280
0.75091136 0.27491432 -0.08843771
-0.28385830 -0.50266707 0.35074276
0.70351970 -0.32172731 -0.00365078
0.39763886 -0.57134628 -0.09236208
0.19325995 0.30989107 -0.62780148
0.34739286 0.40432453 0.39262107
0.28037223 -0.47777838 0.38070109
0.64844048 0.28373632 -0.21080308
0.50836307 0.45238185 0.08468090
-0.92148954 -0.09204339 0.12319647
-0.19194043 0.65717620 -0.28016356
0.30394289 0.26010612 -0.57640952
-0.72058678 0.22130862 0.22444716
-0.56196272 0.37672305 -0.15777618
0.05548536 0.54947776 0.43204600
0.37261459 0.56282336 0.20834844
-0.30306336 -0.61100340 0.21920405
0.13614267 -0.34494001 -0.60198355
0.11965103 0.68164068 0.31369719
-0.64406568 -0.33412009 -0.08460090
0.05240797 -0.43439817 0.53503406
0.29569951 0.53939193 0.31871030
0.10067277 -0.20746404 -0.82826215
0.26420450 -0.43543246 0.42647034
0.10605904 -0.94934863 0.06180027
-0.09888514 -0.15333174 0.89069641
0.05752133 0.92789203 0.14859448
0.80494827 -0.24832250 0.05847485
0.32257065 0.65911740 0.15051907
-0.42898449 -0.06084909 -0.51207662
-0.34866178 0.07683644 -0.62210733
-0.43758023 0.38561636 -0.30680022
-0.19563529 0.82594669 -0.10426395
-0.41719365 -0.09918050 0.53009778
-0.09278891 -0.29322383 -0.69022191
0.00168330 0.95250195 0.13172397
0.32984564 0.61817169 0.18654104
-0.11940036 -0.86167580 0.15158930
0.60085255 -0.34380352 0.17804465
0.14807108 -0.03103240 0.93044740
-0.40626457 0.14111771 -0.52477008
0.27930367 -0.03896490 -0.75414544
0.22717364 0.47483173 0.42046475
-0.14347382 -0.31635010 0.65521079
-0.41164288 -0.20274746 -0.48082054
-0.69632852 0.25156724 -0.17662700
-0.22169682 -0.81587511 -0.06088990
0.42745158 -0.42170808 0.29149592
-0.42964470 0.02803185 -0.51849687
0.63906205 0.03516138 0.35800728
0.19130459 0.18823574 -0.78464037
0.40019935 0.36134645 -0.38170418
0.27290490 0.29642427 -0.57326174
-0.18762060 0.16916512 0.79238915
0.20799775 -0.78343767 0.18006420
0.30186319 -0.71271574 0.08666683
0.32723969 0.37385684 -0.44104469
0.07402491 0.49440974 -0.45444393
0.71189469 0.27820167 -0.16102760
0.30546033 0.05400296 -0.70836627
0.00061245 -0.97391206 0.05622314
0.05365216 0.40836683 0.57468063
-0.38642567 0.20054942 0.51434851
-0.51107889 -0.41273618 0.14360033
0.04076743 -0.29825857 -0.69858420
-0.31514400 -0.37746882 -0.42280158
-0.18370089 0.74091893 -0.22703390
-0.24183299 -0.03763231 0.79916078
0.08513974 0.46509546 0.49585775
0.04106325 -0.68929440 -0.31037918
0.25007614 -0.80825472 0.05406923
0.86914706 0.13748617 0.16390295
-0.47357371 0.38666648 -0.26286432
0.25994661 0.28670195 0.60726953
0.64772177 -0.31604096 0.16150850
-0.76600415 0.28966293 -0.00238402
0.49734113 0.24552026 -0.38311258
0.33698681 0.38232461 0.43081403
-0.46592095 -0.30712944 -0.34474358
-0.38756716 -0.36742210 -0.35957772
-0.40183404 -0.09902026 -0.53492695
0.01600358 0.58399785 -0.38885531
-0.18270844 0.82387936 -0.13180095
0.71146977 0.14160132 -0.28303617
-0.74368054 -0.08852599 0.27501863
-0.92363435 -0.01364805 -0.13465278
0.42131567 0.11768026 -0.52749813
0.66472054 0.23956791 -0.23776095
0.75063419 -0.26289690 0.11557774
-0.22394527 -0.79143363 -0.11307497
-0.43947065 0.24966371 0.44032565
0.42873314 -0.20667584 0.48674417
-0.22205973 -0.51262838 0.37620941
0.37864277 -0.06568689 -0.59654468
-0.46160430 0.47197250 0.06267973
-0.14624320 -0.61665159 0.34420735
-0.33009598 -0.03454646 0.66391790
0.29182202 -0.13202558 -0.69298124
-0.51676983 -0.30981165 0.30919176
-0.94120699 -0.08336975 -0.08936381
0.06342767 0.57128406 -0.39553776
0.35416463 -0.14356373 -0.60784239
-0.32159615 -0.59187031 -0.19891804
-0.27873620 0.63658267 -0.19885968
-0.22490400 -0.24692293 0.68478453
-0.26421535 0.73436069 0.11541703
0.01249510 -0.13415068 0.93931752
0.30489299 0.40747622 0.43047467
-0.66850734 -0.25059921 -0.21577971
0.01468927 0.41488111 -0.57025105
-0.53807467 0.36983761 0.22731896
-0.80739868 0.19415441 -0.14476527
-0.05612718 -0.59187496 0.38030612
0.50770098 0.27405721 -0.35584611
-0.27354282 -0.73585010 -0.07183680
-0.31010821 0.51298219 0.30734876
0.84276694 -0.21105969 -0.05716148
-0.43843147 0.48283848 0.15756832
-0.94504696 -0.05689713 -0.10098291
-0.46588099 0.33651447 0.33488250
0.71693683 0.14425759 0.28842637
-0.34947827 0.64166957 0.03324365
0.03403161 -0.30209541 0.71933109
-0.19975314 0.05081649 0.85498607
0.10106737 -0.75321233 -0.25289974
-0.44943705 0.49330851 -0.06484282
-0.30481705 -0.65787441 -0.13526191
0.25714839 -0.41502920 0.45680478
0.33748960 0.43055657 0.37720627
0.20289725 -0.77198106 -0.17636986
-0.86772323 -0.08125541 -0.17282625
-0.30300644 0.10620126 -0.66738057
-0.43678111 0.01123548 0.52362764
0.93066067 0.00387544 -0.14524053
-0.34901500 -0.26349941 0.51271015
0.34463495 0.20399009 0.58124220
0.38352412 0.00887069 -0.59915799
-0.28779349 0.73840863 0.01057688
-0.47023582 0.41361085 -0.22479962
-0.00620425 -0.42913818 0.54239947
-0.71631587 -0.28032148 -0.10148969
0.88977003 -0.14576712 0.13047121
0.46810046 -0.01296875 -0.49179834
0.25468993 -0.09916186 -0.77370071
-0.35695675 0.21458240 -0.54548037
0.22421254 -0.54486698 -0.34920162
0.94057232 -0.02169384 -0.12255011
0.83140713 -0.22297914 0.08786757
0.15398999 0.06989623 -0.90851635
0.31018609 -0.67208171 -0.13816039
0.00191469 -0.32980511 0.68167746
-0.15416788 -0.90677714 0.04807735
-0.17286354 0.22999455 -0.73559451
0.17878678 -0.49544752 0.43161714
-0.06148333 -0.16594966 0.89215636
-0.89566791 0.12274350 -0.12734500
-0.93956536 0.10170215 0.08487330
-0.42818180 0.09914245 -0.50188053
-0.10756370 0.10869352 0.92338091
-0.20770822 0.12931135 -0.81779385
0.86677641 0.19214132 -0.07947656
-0.42703775 -0.23582983 0.45447445
0.07198686 0.27151823 -0.75604051
-0.48716843 -0.36786419 -0.25373861
-0.63608462 -0.03322088 0.35188979
-0.54946387 -0.03825649 0.41217667
-0.08766095 -0.78588867 -0.23628154
0.19936924 0.26739034 0.69793087
0.39902079 0.40348533 0.35277307
0.46952832 0.39060232 -0.27008811
0.30441263 -0.05279262 -0.70520878
-0.03339652 -0.12169087 -0.93547827
-0.82075560 0.15131123 -0.17537050
-0.30292407 -0.16094224 0.65965301
0.51444387 0.38223857 -0.22331235
0.77886081 -0.23817059 -0.10518401
-0.31295374 0.01348645 -0.68598354
-0.55573994 -0.20278567 -0.34487575
-0.32562277 0.59015226 -0.18173106
0.07001287 -0.00539138 0.98610842
0.30785498 0.62928683 -0.20909593
-0.13471383 0.34080732 -0.62251574
-0.43611252 0.48636582 0.11365904
0.13609745 -0.67270899 -0.28908980
-0.47421816 -0.15543830 0.45325154
0.30182958 -0.35318422 -0.47491190
0.82752240 0.24420963 -0.02283701
-0.42408976 0.44431981 -0.24667656
-0.01479467 1.00400877 0.02507058
-0.46637535 0.14865658 0.45975754
-0.74468946 0.23184206 -0.15539397
-0.65253097 0.19112243 0.29181939
-0.83589041 0.11267322 0.19682775
-0.18808272 0.67025006 0.28358203
-0.61512494 0.29428965 0.21065268
0.05668762 -0.11162290 -0.93714559
-0.96081418 0.05338706 0.05971687
-0.18153849 -0.87667269 -0.05257190
-0.81558716 -0.00449123 -0.22192127
-0.18343659 -0.64307153 -0.28638488
0.62243980 0.20069000 -0.31406471
0.43080914 0.20846604 -0.47044724
0.47826055 -0.12082599 -0.46261632
0.47273159 -0.38372564 0.29058999
0.06327655 0.98764241 0.02475736
-0.07548144 0.98511326 -0.01779640
-0.19742100 0.55227864 0.37481731
-0.11331541 -0.92641962 -0.07467512
-0.10275501 0.27197105 0.75304121
0.09091789 -0.30427885 0.71018255
-0.19386639 -0.87235683 -0.00475335
-0.57186878 0.29855630 0.28006572
0.09948323 -0.12136578 -0.90696961
-0.66297144 0.23423588 0.26180038
0.18858433 0.33598575 0.61007261
-0.35547647 0.12738016 -0.58510494
0.62683553 -0.31717420 -0.17446157
-0.29513916 -0.63799435 0.19055118
-0.05876055 0.84493858 -0.19980164
0.14243314 -0.93116754 -0.04716546
-0.49101278 0.45228675 -0.08108225
-0.10952877 0.69631070 -0.29735225
-0.85366368 -0.18233795 0.09258259
-0.35868809 -0.61596495 -0.00296737
0.84757501 0.18091697 -0.13827196
0.52739632 0.37049708 0.24533254
-0.24406856 -0.76557028 0.08992022
-0.17290209 0.87670940 0.04044556
-0.09851240 -0.42069164 -0.51096368
0.78065121 0.06561454 0.26469198
-0.03494051 -0.09548706 0.96496886
-0.21393463 0.52516419 0.40125060
-0.00060755 0.91836965 0.15924442
0.68259954 -0.32511669 -0.09245657
0.68085134 0.07281833 0.32767421
-0.03344532 -0.96390957 -0.08939666
0.55444849 0.39671037 -0.13753809
0.14514160 -0.45931298 0.47131339
0.41612118 -0.52731556 -0.12259594
-0.09033356 0.24101265 -0.78418738
-0.21610579 -0.47096449 -0.41040909
-0.26078531 0.39278397 -0.47355753
-0.06978890 -0.56061649 -0.38624653
0.25169650 0.78680331 -0.08814643
0.36328369 -0.29133892 -0.48261547
0.31256422 -0.56805027 -0.25026199
0.32711312 -0.27703759 -0.51355147
-0.78828967 0.13878666 0.22454967
0.87205291 -0.08013183 -0.17840466
-0.22171178 0.70581907 -0.22016020
0.55311477 -0.31289536 0.26922709
0.30675882 -0.10191935 -0.68592191
-0.37773964 -0.00092372 -0.58497524
0.00197332 -0.22431616 0.84691286
0.18231091 -0.15689552 -0.83207691
0.30660927 -0.00390765 -0.71875125
-0.28279337 -0.48649192 -0.34996176
0.48357779 0.48306516 -0.01225380
0.06602401 0.50185996 0.46058118
0.41955721 0.45410728 0.26538604
0.37562305 -0.04730408 0.60933900
-0.18313891 0.78585541 0.20580988
-0.22142181 0.63528627 0.28364423
0.39222896 0.30096984 0.46310344
-0.23205194 0.05325579 0.81395358
-0.43019435 0.45096225 0.25356731
-0.21715994 0.81506079 0.08463316
0.86704975 0.05117041 0.21367654
-0.26526675 -0.63193542 -0.22597212
-0.88948447 -0.15829489 -0.06419811
-0.91648704 -0.04176007 -0.13252336
-0.11290704 0.52778184 0.43426651
-0.26321116 0.28563142 -0.57780677
-0.19399464 -0.68532604 -0.25765663
0.29065481 0.73947239 0.06485686
-0.52835792 -0.41750783 -0.07597389
-0.08208089 0.25604507 0.79004109
0.20277122 -0.84687859 0.09595739
0.39898479 0.53650761 -0.15663533
-0.17663153 -0.15510817 0.82787567
-0.35579461 -0.61114013 0.09176916
0.15268868 -0.91792232 0.03928049
0.31960419 -0.25998604 0.55783397
-0.85917467 0.01331690 -0.19535220
0.65201890 0.33346149 0.12198293
-0.29399323 -0.71896684 -0.03159545
-0.32861495 -0.51003081 -0.28744736
-0.42141101 -0.46544889 -0.20220995
-0.35440534 0.52516288 -0.22936295
0.24777582 0.64510745 0.27615759
0.72942305 0.19423893 0.25107083
-0.17447136 -0.09233926 0.86779845
-0.86029416 0.18515332 0.05439630
0.13352112 -0.44142058 0.49522355
0.20557125 0.58980918 0.34919846
0.38668713 0.25309673 0.50049096
0.49302378 -0.43844178 0.15795809
-0.39571685 -0.52480108 -0.15408771
-0.70694375 -0.06149772 -0.29845479
0.30745858 -0.50822669 -0.31542701
-0.81358600 -0.20873599 0.10785996
0.81282896 0.06067569 0.25036916
0.08963891 -0.49452713 0.45694092
0.38610137 -0.17648335 0.54889566
-0.06969866 -0.74459493 -0.26780346
-0.27952901 0.51226377 0.33536875
-0.82030493 -0.20334610 -0.10097291
0.68734086 -0.29230705 -0.13966988
-0.10913488 -0.80916661 -0.20892034
-0.34783390 0.47907883 0.30034092
-0.67385626 0.31913137 0.01577354
-0.68145382 0.30677572 0.13852742
-0.46795973 0.20308650 0.43771356
0.39749354 0.15064657 0.54376400
0.03946986 -0.26890820 0.76110953
0.51948649 0.42056724 -0.15244485
-0.26652151 0.03908495 0.76861095
0.13430212 -0.46844146 -0.44574526
0.43722028 -0.53527510 0.06773926
-0.25112078 0.77355200 0.10176405
-0.17138308 0.03045970 0.89806080
0.07347251 0.58811837 0.39384523
-0.76608759 -0.11527950 0.24372369
-0.01605606 0.11943579 0.96077645
-0.04955173 -0.40449440 0.56903100
0.38473019 -0.30540985 -0.43487126
0.20392393 -0.60656810 -0.30558443
0.29345950 0.41582644 -0.42529196
0.48788667 0.03577628 -0.47287789
-0.09793872 0.43991086 0.50718868
0.44483384 0.44791424 -0.21861345
-0.13607922 -0.67466581 0.30250058
-0.70578665 -0.24255578 0.20088196
0.01972043 -0.96914059 -0.08672091
-0.25681862 -0.58242047 0.30218759
-0.74465406 -0.23342016 0.16553417
0.05048242 0.35752067 -0.62515473
-0.86204934 0.18874206 -0.02438081
0.92635667 0.15592730 -0.02801155
0.67571145 0.31219858 0.14347333
0.17036396 -0.04050098 -0.91105956
0.74781382 -0.28778505 -0.00583893
-0.38741896 -0.04518473 -0.56988972
-0.73342466 -0.22010282 -0.19111891
-0.25845399 -0.52700078 -0.32575613
0.27636260 0.25718918 -0.61114109
-0.59448946 0.11563994 -0.35668370
0.66662043 0.18678285 -0.28843617
0.10693630 0.39851764 0.57714629
-0.03380936 0.31537026 -0.67956740
-0.07996555 0.15836075 -0.89821368
-0.00415390 -0.89044583 -0.16821633
0.63554657 -0.36410847 0.00037124
-0.60799038 -0.36234221 0.09835215
0.74654186 0.28423354 0.09183007
-0.54084080 0.19532298 -0.37112111
-0.20682606 -0.04291886 -0.82299709
-0.44129455 -0.11010944 -0.49532145
0.29469582 -0.19029443 -0.63404137
-0.40563142 0.23560277 -0.46933347
0.42161649 0.33185160 0.39985323
-0.37714195 -0.40828958 0.35036486
-0.00999941 -0.71222085 0.30965734
-0.45182690 -0.25847736 0.41463470
-0.67430830 -0.30654052 0.09811191
0.40150210 -0.43482319 -0.29021421
-0.29945138 -0.11681009 -0.67167413
0.20581833 -0.18326926 0.77128482
0.79418308 0.01215617 0.26712891
0.13760564 0.69426483 -0.29072887
0.42887977 -0.27327514 -0.43155560
-0.40456450 -0.01505873 -0.53752863
-0.09088626 -0.38577518 -0.56181109
-0.46853721 -0.08096357 0.48382115
0.06127016 -0.82585400 0.23293218
-0.48963794 -0.44480157 0.09327597
0.21174787 0.56387883 0.36493891
0.27704498 0.37812167 0.49397525
-0.45139855 0.26346850 0.41660091
-0.13334909 -0.18842834 0.82968307
0.29205558 0.12906002 0.71584362
0.31340265 0.66404063 -0.13731247
0.53345084 0.43777645 0.02592291
-0.13984366 -0.80060387 0.21492916
-0.33858323 -0.08086823 0.63458061
0.48351282 0.44165981 0.18907650
-0.21524797 -0.14462139 0.78853595
-0.14494616 0.36969379 0.59641767
-0.02933453 -0.42528743 0.52691221
0.75142854 -0.02564378 0.29176599
-0.19734135 0.46304923 0.44213501
-0.27405131 -0.36492103 0.48621705
-0.53594702 0.06428517 0.42728427
0.65232605 -0.29422534 0.18273729
0.01431162 0.97938019 0.08917168
-0.53041458 -0.13827126 -0.39722908
0.36799744 0.27641401 0.50541466
-0.62331355 -0.18549162 -0.29975781
-0.96537632 -0.05069347 -0.04697919
-0.17853846 -0.22614709 -0.72263223
-0.41616085 -0.30380943 0.41117686
0.75789994 0.24426833 0.15828833
-0.57525164 0.12842667 0.37384918
0.52736855 0.03893401 0.43949118
-0.49081910 -0.18800040 -0.40217441
0.46959108 0.35624993 -0.31256941
0.45104364 0.45436487 -0.18931235
0.37490103 -0.13162616 0.58980519
0.10198579 -0.44331309 0.49913511
-0.26100484 0.17487028 -0.69549966
-0.89834893 0.14153443 0.06562855
-0.40422043 0.47544596 -0.21986441
0.00325396 -0.28181630 -0.73200274
-0.19361484 -0.78556418 -0.16006596
-0.11613719 -0.26512727 0.74230552
-0.55222172 0.24337824 -0.33189279
0.34633529 0.11009280 -0.63745332
-0.27554116 -0.30976841 0.53313255
0.05091192 -0.97192633 -0.07968541
-0.30333322 -0.43736547 -0.37929621
-0.51816523 0.39494035 0.18952282
0.33421752 -0.03136794 -0.67199254
0.64072889 -0.32782063 -0.08023752
-0.23605037 0.08632354 -0.79363328
0.24695122 0.49122584 -0.37348038
-0.45788619 0.34121719 -0.33251658
0.09589075 0.31351903 0.69829392
-0.17053598 -0.12247183 0.85668457
0.05018233 -0.19421291 -0.84342951
-0.08378159 -0.12687358 0.92842412
-0.46292478 0.30353707 0.36935991
-0.56611711 -0.09567796 -0.38504663
-0.44846714 -0.21473120 0.44996855
0.45146701 0.40764290 0.28003564
0.16174473 -0.28013024 -0.66936123
-0.13840358 -0.03210297 0.93312770
0.01425683 -0.86461878 0.19889902
-0.65135914 -0.23063460 -0.24726853
-0.33022329 -0.65890622 0.05021641
-0.11525255 0.16833881 -0.85753995
-0.20541610 0.83743167 -0.05386331
-0.58519638 0.35163325 -0.17196193
0.35475963 -0.56657642 0.21250512
-0.18560572 0.00703479 0.87972027
-0.22377904 -0.55761629 0.34298262
-0.14707769 -0.41054302 -0.50963718
-0.88272345 -0.14883748 0.10359097
0.55798471 0.31909612 -0.26609370
-0.52678800 0.41264111 -0.14243180
-0.83305639 -0.09057030 -0.20268317
0.18849698 -0.10159267 -0.85782903
-0.49908683 0.10201859 0.44847694
-0.63272774 -0.32673681 0.14479299
-0.46980366 -0.44856182 -0.14366058
0.18045609 0.33229399 -0.60575914
0.80114502 -0.19653741 0.14367269
0.50207567 0.43604356 0.14030555
-0.19050647 0.81864333 0.11799599
0.54324448 0.41958064 0.09034039
-0.08742262 0.51828355 -0.42577010
0.19833328 0.86359066 0.08205191
0.33222163 -0.40191418 -0.40061551
0.05090945 -0.05465587 0.98145372
-0.26948607 -0.67030257 -0.18332019
-0.23979703 0.46802387 0.41565025
-0.81098598 -0.19481349 0.13261731
-0.09828485 -0.21258841 0.82377398
-0.63258016 0.24414831 -0.26229173
-0.37189871 0.16650519 -0.54984981
0.51404607 0.32708892 -0.30256021
0.09990400 -0.30951285 -0.65590256
0.00790384 -0.81432343 0.24228801
0.63791060 0.26912430 0.26186848
-0.73203653 -0.03549701 0.29184365
-0.17830709 0.85974127 -0.09738863
-0.62908345 -0.31562284 -0.16535653
-0.03660787 -0.22376373 -0.81606823
-0.38289824 -0.52177525 0.20593655
-0.18145609 0.03604384 -0.85318989
0.43764940 0.46910179 0.21456750
0.41090727 0.28908610 -0.44038272
-0.83271438 0.21196361 0.08338518
-0.20968503 0.17670187 -0.79389769
-0.03281292 0.36948138 0.62367237
0.94509602 0.07263064 -0.10940628
-0.42189202 0.53707659 -0.01006896
0.26227671 -0.38109806 0.48761627
0.10270275 0.69897568 -0.30268192
-0.57149160 -0.35928616 0.17519172
0.01228965 0.08018789 0.98575300
-0.79531837 0.23931187 0.11020422
0.24376008 0.55463040 0.34941381
0.74845374 -0.21579397 0.19426367
-0.10406790 -0.44375148 0.49807987
0.42499802 -0.01774081 -0.54231143
0.27681482 -0.09989934 -0.73584658
-0.53985256 -0.30664825 0.28552431
-0.56642610 -0.32553688 -0.21307436
0.58950269 -0.23431981 0.32347730
-0.38370702 0.58030689 -0.09092235
-0.46891901 0.03815701 0.48495027
-0.59191740 0.37765092 -0.08576123
-0.73883158 0.14583477 -0.23997776
-0.05854742 -0.62516123 -0.34394526
-0.31026810 0.27528334 -0.53954786
0.32518387 -0.21974325 -0.59717679
-0.22904094 -0.75660586 0.15422723
0.55646032 0.41632652 0.05101255
0.63830209 0.25479209 -0.25651011
0.19135915 -0.74489075 -0.22054994
-0.62173808 0.26721287 -0.23855883
0.10872625 -0.33501619 0.65034419
-0.48709416 -0.00530515 -0.45731121
-0.28177825 0.50192559 -0.35029173
-0.12333487 -0.10956363 0.90744746
0.50977677 -0.06270261 -0.44275290
0.85446316 0.04359046 -0.20822065
0.17319582 0.84983623 -0.13151267
-0.28869140 -0.03464423 0.72732365
0.40942898 -0.22500230 -0.46860978
-0.53593874 -0.25546151 0.33716613
-0.31816342 0.65655881 -0.07881172
-0.07583062 -0.36897877 0.60614085
-0.07042225 -0.07416875 -0.94973856
-0.00302075 0.82478458 0.23999251
-0.59436470 -0.06480806 0.37816632
0.36355194 -0.23536326 0.53528869
0.21395303 -0.85389990 -0.04352010
0.90657282 0.00629498 -0.16335724
-0.01356757 0.49744272 0.47382823
0.37215537 0.12271802 0.59853303
0.77053219 -0.27282035 -0.03262195
-0.52655286 0.25133952 0.35192677
-0.57856989 0.38575390 0.11804493
0.12304518 -0.09013352 -0.91805828
-0.40813667 0.49003309 0.21929136
0.30931970 -0.29472184 -0.54063982
-0.79896104 -0.06941187 0.24021655
-0.28293034 -0.14038165 0.70270872
-0.45040002 0.50343299 -0.01175428
0.57987195 0.39907706 0.03356601
0.24128261 -0.20840377 0.70733565
0.12181013 0.24697515 0.77901483
0.21401545 -0.17610417 -0.76427120
0.94106174 -0.10267527 0.08696112
0.06543785 -0.93115532 -0.12244704
-0.25436208 0.65643203 0.22927649
-0.26100531 -0.65631402 0.22615649
-0.15770066 0.54263616 0.40576026
-0.13998756 0.14108674 0.87687647
-0.60655528 0.36923596 -0.03052143
0.18021467 0.79014009 0.20211761
-0.09703760 -0.74083918 -0.26509449
-0.03696708 -0.36700925 0.61916733
-0.62374687 0.11706165 0.35015929
0.01260711 0.27581516 0.77697170
0.35678795 -0.59130639 -0.16807310
0.07611668 0.73460472 0.31315866
0.11583659 -0.41280285 -0.52310747
-0.06428771 -0.41234168 -0.53989935
-0.12110575 0.06796480 -0.91928017
0.28138670 -0.74229902 -0.05092851
0.38005576 -0.23468551 -0.50916559
-0.12713860 0.02160338 0.94172651
0.01655755 0.15491171 -0.92008883
0.90990847 0.01459855 0.18609126
-0.27995872 -0.54634893 0.31629342
0.27857551 -0.43124750 -0.40252241
-0.71873242 0.02359156 -0.29429510
-0.10554560 -0.00651122 0.96138912
-0.21983105 0.34787160 -0.55148375
-0.03267944 0.54950631 0.43492150
-0.83493030 -0.21208824 0.00006088
0.12168310 0.46760547 -0.47822648
0.73909014 0.12921837 -0.26177701
0.97062033 -0.09070060 -0.03787565
-0.05284487 -0.95608479 0.09106835
0.93858010 -0.10325614 -0.08949652
-0.25874695 -0.44945735 -0.39825332
0.07254527 -0.57386756 0.39877677
0.39306378 0.59356147 0.00623543
-0.44721755 0.05510706 0.50973308
-0.49190632 -0.26051924 -0.36674231
-0.35321218 -0.11829957 0.61358058
0.29095504 -0.55860239 -0.29615617
-0.66038072 0.10200089 -0.32140574
-0.37906095 -0.13687167 0.55812120
0.23668158 0.30312312 0.61317325
-0.96150589 -0.00410354 0.09186012
0.77340227 -0.23677307 0.14893501
-0.33440128 -0.55339557 0.23825857
0.44379863 -0.52268571 -0.02851943
0.00279409 0.71408856 -0.30198765
-0.16659288 0.71877778 0.26529005
0.41420716 0.40931815 -0.31253842
0.61259252 0.20203437 0.33124208
0.76606727 0.27035847 0.06167721
-0.94888228 -0.04214731 0.10202396
-0.02439461 -0.75986063 0.26987401
-0.85642487 0.20393094 -0.05038560
-0.06120919 0.94790137 0.12264337
-0.01800750 -0.19192749 -0.86145753
0.47905600 -0.05324819 0.48527426
-0.54194659 0.26579872 -0.31388333
0.28046554 0.17571478 -0.67846221
0.12564157 -0.92675751 0.07708807
-0.03758306 -0.56374401 0.40808675
0.29227415 0.63462037 0.22780539
-0.69675881 0.30796209 0.07688050
0.16841710 -0.49481523 -0.41330606
0.34894881 0.63894862 0.10187215
-0.33306468 -0.59060258 0.19644031
0.09047294 -0.33805943 -0.62621915
0.94522494 0.04638187 0.13937108
-0.81873775 0.22864202 -0.03564507
0.24234210 -0.60268784 0.30445912
-0.11024186 0.91512936 -0.10709144
0.32527596 -0.04687802 0.69991988
0.21325563 -0.68264210 0.26096648
-0.57247877 -0.14549387 -0.35916421
0.08431125 -0.70198143 -0.28896415
0.03065452 0.89392900 -0.18188369
0.15155883 0.32080254 -0.65322340
-0.61193734 -0.23176049 0.29372427
0.13187636 0.57782227 0.39326659
0.52473402 0.29817930 0.33824623
-0.26901686 0.71117085 -0.13541472
-0.19504653 -0.30288172 0.62957627
0.33911550 -0.32714888 0.47969112
0.20850676 -0.08814267 -0.83631408
-0.18833897 0.85823101 0.07062133
0.58106774 -0.03604882 -0.39276159
0.39709812 -0.20412530 0.52828562
0.27122638 0.48797980 0.39348280
0.43971670 -0.36416778 -0.32159168
-0.10009729 -0.30242118 0.69145024
-0.00947477 0.65780318 -0.32807624
-0.20614725 -0.11091247 -0.79849666
-0.22846310 0.13662085 -0.76750487
0.40306637 0.02968455 0.58676457
0.11452375 0.65501803 0.33713502
0.73442048 -0.29514334 -0.06054258
0.32254967 -0.17662530 -0.62545335
-0.15265283 -0.72223097 -0.25882280
0.38933051 -0.16024244 -0.53700680
-0.25813663 -0.26143435 -0.61192155
0.25717983 0.28849620 -0.59807318
-0.12280067 -0.92600155 -0.01973285
-0.69954276 0.06534597 0.30633977
0.22617197 0.83686131 -0.05050031
0.16655558 0.27579531 -0.70035785
0.10873091 0.96202403 -0.02461318
0.06123363 -0.41067868 -0.54503566
-0.49776331 0.36711511 0.25955674
-0.35481778 0.55068702 0.19621646
0.35210359 -0.65122527 -0.00523127
-0.65781617 0.27169958 0.22611813
0.23039289 0.22813560 0.71632677
-0.54528809 -0.05516341 -0.40599540
-0.08051989 -0.95758075 -0.06423620
-0.68966085 0.29732746 -0.12815866
-0.35068795 0.15261157 0.59714961
0.26160455 0.21059349 0.69960946
-0.56986624 -0.02480309 0.39949387
-0.09142980 -0.62155783 0.35515186
-0.12747574 0.64780504 -0.32459459
-0.06917540 0.45636356 0.51754713
0.52495480 -0.17812447 0.40595457
-0.46542472 -0.27062482 -0.37227982
-0.78759766 -0.16840895 -0.17148094
-0.16435604 0.46797547 0.46414995
0.39340761 0.12240213 0.56875432
-0.29281163 -0.20223689 0.65126455
0.32837108 -0.37254414 -0.43612283
-0.22844294 0.75720310 -0.14936888
-0.30677477 -0.55952692 -0.24995299
-0.33374059 0.13678940 0.62873864
0.81004250 0.17145093 0.19507641
-0.33121440 -0.45966354 -0.32721171
-0.02526497 0.29322723 -0.73634106
-0.08670831 -0.69042557 -0.29416540
0.40954694 0.57171541 -0.00428452
-0.64480263 0.19321682 -0.28939578
0.25205612 -0.14699675 -0.74660903
-0.38511825 0.12236218 0.56490660
0.18737258 -0.84051323 0.14636983
0.23352928 0.67581856 -0.25699085
-0.38705641 0.49464419 -0.23494282
0.00968346 0.14909197 0.93172729
-0.58650893 0.17050196 0.36115780
0.07267528 0.14335607 0.92665809
-0.67265564 -0.06231767 0.32148606
-0.71720165 -0.24967018 -0.16163282
0.08508743 -0.43153539 -0.50817245
-0.22093818 0.16319475 0.76370454
-0.08058272 0.05120188 0.97487760
-0.51447397 0.39038852 -0.22632597
-0.59093875 0.26561949 0.29487920
0.14107321 -0.62907070 0.33360192
-0.47725236 -0.04663722 0.47832897
0.51280081 -0.32131052 -0.29472277
-0.03586686 0.53147584 -0.42954573
-0.29861882 0.62818658 0.22201601
0.28027818 -0.64478773 0.21961594
-0.25729090 -0.67368847 0.20355996
-0.08193076 0.41264072 0.56139702
0.41191629 -0.52695519 0.15666050
-0.28121012 -0.72276974 0.08455773
0.21431413 0.52377802 0.39467120
0.35559675 -0.33785945 0.45145154
-0.71577269 0.26615852 0.16988415
-0.20593226 0.53590387 -0.37463140
0.71042621 -0.13300808 -0.27926385
-0.18510024 -0.07124222 -0.85201418
0.00976372 -0.37915644 -0.60228056
0.49165103 -0.45296034 0.10109590
-0.44062003 -0.41238776 0.26927823
0.04962858 0.35997245 0.63232517
-0.52473021 -0.42645144 -0.00560316
-0.81049907 0.21431379 -0.10043310
0.44356090 0.52613586 0.06996161
0.13930224 0.92731595 0.00609616
0.21128505 -0.14779116 0.80444080
-0.14630665 -0.85534865 -0.13461871
-0.04623223 -0.44494814 0.51345921
-0.41747430 -0.04026431 0.54074764
-0.08753774 -0.85546571 -0.17470935
0.40608513 -0.57281572 -0.00930401
0.78660870 0.24835250 -0.10736766
-0.94737083 0.03584733 0.10677731
0.71709114 0.21353874 -0.22777198
-0.61470491 0.25411129 0.28385690
0.49201521 -0.42526248 -0.18907051
0.33679283 0.23871331 0.56810760
-0.34875727 0.09201072 0.62400347
0.30681077 -0.40323913 0.42907655
0.50381458 -0.19677022 0.41397604
-0.23648205 0.01797919 0.81843615
-0.20794913 -0.83794838 -0.00810196
-0.05763404 -0.81244630 -0.22982402
-0.27584544 0.05979983 0.74440873
-0.06713498 -0.93316299 -0.10455520
0.05747325 -0.85361063 0.19743794
-0.54639244 0.41163442 0.02432707
-0.25435084 0.52553666 0.36375186
-0.20906322 -0.74540925 -0.18575557
-0.05562768 0.38621056 0.59870821
0.05505597 -0.66836858 0.33066186
-0.25074536 0.47488827 -0.38862118
-0.55581373 0.15871772 -0.37173280
0.31614342 0.24859175 0.59465843
-0.15448031 0.02917283 -0.89627123
-0.41466165 -0.19478130 0.49211639
0.39009428 0.06263582 -0.58151233
-0.80779558 0.15976471 0.19929625
0.44720241 0.18038154 0.47853616
0.33686185 -0.07766043 0.66597539
-0.04808813 0.44256639 0.53172147
0.50134343 -0.46929380 0.01175741
-0.53386444 0.40557033 0.09193730
-0.14069307 -0.53505266 0.40015891
0.45211583 -0.13313363 -0.48273814
-0.36704519 0.06145741 -0.59046412
0.07316191 0.66045928 0.34874204
-0.33721605 0.25728279 0.53578722
0.40669024 -0.07283714 0.57089859
0.40983984 -0.21903646 0.50463581
-0.17493421 -0.86848640 0.08239685
-0.02471059 -0.16065422 -0.90406948
-0.31944481 0.63288772 0.17484306
0.57303715 -0.28095269 -0.27687865
-0.90321559 0.17060053 -0.03657163
0.62663418 -0.25680438 -0.25951558
-0.09779762 -0.01206145 -0.95478565
0.56693393 -0.32379416 -0.24909757
0.08165526 -0.93424714 -0.07842841
0.47263342 0.09930300 -0.48047602
0.28958350 0.43965554 -0.40525940
-0.55449015 -0.35055369 -0.19841872
-0.38533559 0.47849748 -0.25972235
0.00020570 -0.95004755 0.12484542
-0.01662212 0.64066470 -0.34893221
-0.65144807 -0.10414220 -0.31295130
0.01334434 -0.44078395 -0.49888530
-0.22924136 0.32724735 -0.58544314
-0.14519015 0.69059694 -0.29100236
-0.70521796 -0.02878607 -0.29886997
-0.78366178 0.12193368 -0.21724400
0.33707929 0.36077282 0.45666343
0.66773665 -0.10765773 0.33239913
0.91069943 -0.16889395 -0.03949453
0.45246294 0.27646250 0.40797862
-0.05069206 -0.87001085 -0.18303232
0.64480478 0.30288199 0.20685925
0.56350255 -0.24022870 -0.32056552
0.35064548 0.64907348 0.06935823
-0.23550865 0.13297023 0.77194995
-0.33969203 0.56086791 -0.22360845
0.27815607 0.44797984 0.42377454
-0.36049876 0.49946219 0.27565065
-0.21453303 0.59393764 -0.31806296
0.59500068 -0.16845313 0.35611066
0.39808789 -0.26296023 -0.46302688
0.70186371 -0.24924779 0.20409819
0.17607990 -0.34755692 0.59274811
0.07430811 -0.50551635 -0.44224882
0.03712264 0.49733466 -0.46963882
-0.03219285 -0.53336114 0.43000135
0.09799296 -0.84816700 0.19860986
-0.08704838 -0.09563241 0.94522882
0.20528369 0.56169790 -0.35262689
0.24618471 0.19175623 -0.70989329
-0.11117993 -0.75670362 -0.24598388
0.61021066 0.29492861 -0.24781217
0.34068170 0.58695889 -0.20795518
0.44843185 0.01618455 -0.51165283
-0.49643639 -0.19821236 0.40576577
0.16368134 0.53840792 0.40331277
-0.94556850 0.11768550 -0.01306556
-0.31798658 0.03784704 0.67820746
0.21328445 0.10843386 0.84593600
-0.50785780 -0.04672368 -0.43489420
0.05546448 -0.32356784 -0.65194613
-0.26867324 0.28883073 0.58388752
-0.14286202 0.26403379 0.75108564
0.77871698 0.17156789 0.22960880
-0.00035583 -0.46406895 0.50179243
-0.95540649 -0.08865670 -0.04892044
-0.36961317 0.28865996 0.48434749
0.53434139 -0.41408253 -0.07517983
0.20920935 -0.80561185 -0.13419858
-0.15901200 0.42721805 0.52379465
0.43452415 0.12675838 0.51813173
0.00648710 -0.67921603 0.32879138
-0.21420376 -0.69119483 0.24089126
-0.02996180 -0.84478879 0.21714766
0.85642183 0.16481595 0.14608818
0.40265352 0.55207086 -0.13152249
-0.27854055 0.11171874 0.72211355
0.07694022 0.01662628 -0.97096896
0.45031554 0.32345280 0.37991005
-0.30802724 0.38230550 0.46358946
0.82735562 -0.23139535 -0.06858175
0.27267331 0.14146477 0.74173760
-0.32320702 0.14090560 -0.63133520
0.11459202 -0.26935855 0.74775344
-0.43425143 -0.44005486 -0.22508861
-0.19462417 0.67823964 -0.26194018
-0.26965865 -0.04400273 0.75451201
-0.40339020 0.20744807 0.49429378
0.37220821 -0.31118304 -0.46343929
0.26012689 0.67647803 -0.21688738
-0.03184665 -0.51273203 0.45887476
0.93590772 -0.02442507 0.14903332
0.31911179 -0.61141080 0.20969246
-0.93921816 -0.09697160 0.07623614
0.04935673 -0.47316167 0.48656058
0.21423216 0.06022257 -0.83892131
-0.29771367 0.69354188 -0.10692322
-0.35240558 -0.34326425 0.43699679
-0.43628234 0.23008019 -0.44231129
0.01611640 0.51259160 -0.44780311
-0.26217076 0.38711870 0.49027747
0.50744218 0.42067078 0.17368186
-0.37895426 -0.30142701 0.45537031
-0.26761055 -0.43468174 -0.41954100
-0.26537785 -0.08544731 -0.73526639
-0.14321569 0.72507799 -0.25884795
-0.01146544 0.86533940 0.21405816
0.84323674 -0.20604123 -0.10342356
-0.14402694 -0.24780715 -0.72553051
0.26941040 0.62915653 0.26860034
-0.89264750 -0.16612643 0.01728287
0.66989315 0.29913449 -0.16380316
0.15622573 -0.59529036 0.35626766
-0.45846993 0.40680990 0.27518392
-0.02773778 0.95490986 -0.11256251
-0.30871129 -0.00500990 0.69867641
-0.74515498 0.22739328 0.16416511
0.59041542 -0.00047361 0.39117149
-0.29512131 -0.63873744 -0.18698740
0.70219779 0.32178569 -0.02700743
-0.38174707 0.58081943 -0.06135004
0.31287357 0.44756278 0.38896587
0.36463454 -0.61719036 -0.08785386
0.19169737 0.03588542 0.89065868
-0.24890077 -0.53918415 0.33845332
0.74160993 0.27977753 0.11833899
0.95403278 -0.12602738 0.01067978
0.08021706 0.56646448 0.40865111
0.18606898 -0.19655277 -0.79052192
0.26325393 0.35757294 -0.51422310
-0.32461369 -0.14488357 -0.62745780
-0.32891738 -0.11071500 0.64278847
-0.47307816 0.01189460 0.47733006
-0.15798725 0.21349572 0.78718644
-0.30509222 0.20816086 -0.61964947
0.86897308 -0.11050920 -0.17810127
-0.45110387 -0.34163344 0.33858785
0.42859054 -0.45072696 -0.24525718
-0.06096529 0.89387268 -0.16409865
0.48454306 0.33663034 -0.32390225
0.08356855 -0.77004707 0.25851637
0.07924145 -0.39019772 -0.54837865
-0.20723736 0.63534117 -0.28971687
0.22178048 0.25379097 0.68937945
-0.28221795 0.73156923 0.09263340
-0.19966212 -0.37497741 0.52533162
0.17317764 -0.29294121 0.67499179
0.02463223 0.67375273 0.34287673
0.10022721 -0.95428514 -0.06507602
-0.81250393 0.21458304 0.10892780
0.24348998 -0.81460017 0.07949983
-0.29069909 -0.68913162 -0.09623506
-0.15439393 0.19463567 0.81877410
0.13296898 -0.91699272 -0.08094149
-0.34765497 -0.30620548 0.47711459
0.61995983 -0.12563725 -0.33978435
0.48152578 0.39162591 0.26535985
0.57701147 0.23887384 -0.31911278
-0.31866574 0.64932281 0.09908449
-0.41226161 -0.15450542 -0.50213426
-0.14708009 -0.62269396 -0.32642525
0.59994632 0.37483987 0.14525345
-0.83068228 -0.03466519 -0.20672745
0.64294738 -0.12270854 -0.32431939
-0.19303416 -0.12282503 0.82686377
-0.64578694 0.36426294 0.02765096
0.22389250 -0.10007810 -0.81576931
-0.37222525 -0.09706099 0.59247041
-0.40820518 0.30047521 -0.42033172
0.57231367 -0.39359778 -0.06865195
-0.46607447 -0.40203455 0.25186732
-0.80913252 0.11078438 -0.21106896
-0.83084315 0.01942866 -0.21523739
0.65784460 0.00798198 -0.33878997
0.21498406 -0.80071872 0.13877931
-0.23708506 0.25198463 0.66582906
-0.16739826 -0.62891221 -0.30480689
0.39178494 0.21057981 -0.51577771
-0.62513721 -0.13708562 0.34211120
0.35919720 -0.06133340 -0.62668455
0.14343762 -0.15989552 0.85451967
0.51542580 -0.35940501 -0.24591927
-0.36886922 0.32355222 -0.44552892
0.63005894 0.36321270 -0.07714567
0.51308864 -0.06134891 0.45162383
0.21871127 -0.14652716 -0.78735584
-0.32932392 -0.02141324 -0.65865391
-0.10958066 0.56663764 0.40176946
0.75322127 -0.22958602 -0.13529256
0.25346941 0.56891817 0.32875580
-0.11784253 -0.73182464 0.27277374
-0.08781387 0.71199453 0.30709663
0.29180977 0.32100347 0.54036897
-0.90793443 -0.00188522 0.16689895
0.54957038 -0.17793661 -0.37663144
0.09378259 0.78982782 0.25459620
-0.20419106 0.74944401 -0.19254740
0.67641747 -0.32067958 -0.05732109
0.52398652 0.45114601 -0.00693931
0.41300100 0.07311193 -0.55939364
0.38612404 0.60150743 0.05016233
-0.47463688 0.25442246 -0.38249943
-0.27093595 -0.22809292 -0.62626892
-0.75237453 0.25635353 0.14677803
-0.60799897 0.35959989 0.06726440
0.70995313 0.29167715 0.12705213
0.30227849 -0.09944510 0.70067590
-0.01372166 0.73740155 -0.28165025
0.05793530 0.39480895 -0.57936847
0.03517310 0.42434463 0.55943680
-0.39668655 0.00063593 0.56586367
0.36845818 0.03062447 -0.61911094
0.62773305 -0.33826679 0.15150000
0.13699490 0.35001364 0.62443942
-0.68927723 0.11074101 0.30431089
0.31763133 0.08547436 0.69422984
-0.32121265 -0.43333918 0.38085145
0.34328705 0.44803149 0.35699406
0.18669617 -0.87584949 -0.07272480
-0.03787151 0.19471481 -0.85159415
0.36988944 0.59113735 0.14549418
0.05680262 0.10342890 0.96422189
0.26991373 0.26163170 0.62818235
0.97876137 0.06040316 -0.05341180
0.90080166 0.18376569 -0.00149641
-0.24396750 0.77635437 0.12986621
-0.43391013 0.33229777 -0.36213857
0.13126519 -0.73087752 -0.26214197
0.82977468 -0.23803303 0.03708303
0.25635219 0.14337185 -0.74171793
-0.94552171 0.10443370 -0.05344358
0.31789145 0.12310222 0.68278837
0.86479920 -0.00472905 0.20233984
0.07180164 -0.89100444 -0.15663561
0.30897072 0.22886543 0.61565548
-0.08296940 -0.66835546 0.32540342
-0.03774669 0.42723486 -0.53125775
0.48862541 0.42301854 -0.19556206
-0.47386160 0.46653461 -0.10651754
0.55823404 -0.22084433 -0.33984202
-0.25823060 -0.47772253 0.38796628
-0.21145038 0.40035838 -0.49405339
0.77167392 -0.22236224 0.17931890
-0.04794612 0.13487813 -0.91607904
-0.70018429 0.22874497 -0.21720760
0.43801078 -0.09052608 0.52888077
0.48252660 0.20588376 -0.42374378
-0.81979960 -0.12050711 0.18977676
0.19154438 0.84019077 -0.10787699
0.34811458 0.61700380 -0.13711710
-0.33165586 0.52610618 0.26897025
0.04707640 0.76839352 0.28177366
-0.22958069 -0.44089976 0.44191277
-0.37860444 -0.54202110 0.15622841
-0.04282804 0.80984223 -0.23893018
0.28270653 0.06495720 0.76260477
-0.41273367 0.43247396 0.29292890
-0.66256344 -0.24261096 0.23872286
-0.28536227 -0.11427783 -0.69597286
-0.74460429 -0.00717028 0.29033479
0.70450431 0.31333151 -0.07049281
0.00854430 -0.09196155 -0.95743835
-0.17356613 0.84991276 0.13444170
-0.51040429 0.45119542 0.03536921
0.27451655 -0.25716820 -0.60989004
-0.27303189 0.19843684 -0.65372783
0.26906267 -0.01970078 -0.77034968
0.54650569 0.29421046 -0.29824409
0.11570574 0.56806767 -0.39070126
-0.25712815 0.76580095 0.02590256
0.54139364 -0.15350658 -0.39059868
0.28298676 0.67602128 -0.18332998
0.12449399 -0.73049861 0.28499281
0.31137988 -0.11804689 0.68013054
-0.33791530 0.60578501 -0.15360388
-0.51375020 0.13588709 0.42470312
-0.50483751 0.30568781 0.33621398
0.26049516 -0.63417387 0.26394334
-0.05324125 -0.49750710 -0.44994950
0.39787969 0.10641418 -0.55943787
-0.19907346 0.62128365 -0.31096196
-0.53854799 0.37605959 -0.17903258
-0.35566288 -0.39452317 0.38426122
-0.25140545 0.51060897 -0.35995796
0.55696094 0.37564126 0.18463948
-0.67474902 0.17868288 0.28383160
-0.43956774 -0.05383176 0.51728314
-0.44021699 0.30072635 -0.38794470
-0.01346898 -0.97362214 0.07988615
-0.62707490 -0.03294808 -0.34103045
-0.30553773 -0.47344589 0.35458687
0.10221965 -0.56075329 0.39800110
0.64084822 0.32194594 0.18072912
0.88004661 -0.15115659 -0.12676419
-0.30099452 0.62707460 -0.18761265
-0.48113459 0.21560796 0.41485420
0.38104317 0.55242848 -0.16829982
-0.17332160 -0.49188855 0.42691660
-0.52474844 0.23747483 -0.35884279
0.22002928 0.06526525 0.84507388
0.32019860 0.68817717 0.07467687
0.57206917 -0.40417781 0.09828572
0.36301473 0.40091938 -0.37280914
0.72899795 0.30813235 -0.01748841
-0.59072411 0.39185825 0.03724468
0.31076646 -0.48806500 0.34691176
-0.10064689 -0.84201181 0.19475691
-0.08980569 0.37501842 0.61003965
0.31398788 0.13684696 -0.66223782
0.30970934 -0.69302154 0.12119574
1.00001895 -0.03125820 0.00086115
0.36428714 -0.53596795 0.23528999
0.63440037 0.19463074 0.31783953
0.22269993 0.23571205 -0.70060843
0.46143278 0.28037336 -0.38346455
0.29997706 0.35597154 -0.48424694
0.67984921 -0.31015503 0.13773513
-0.53886473 -0.37888840 -0.16720809
0.55277592 -0.42226961 -0.04016212
-0.14721729 0.39298630 -0.54285640
-0.55472887 -0.08109157 0.40277568
-0.06574196 0.70314437 0.32022795
0.22714844 -0.36948958 0.53347772
0.48892525 0.37244552 -0.27181020
-0.72035205 0.10798052 0.28145844
0.14172283 0.20676535 -0.79878920
0.91242903 -0.17549597 0.00413969
-0.78696924 0.08187614 0.23952585
0.38005221 0.60168916 0.07818145
0.86581093 -0.01108518 -0.19993439
-0.34489995 0.64662760 -0.02110673
-0.38264138 -0.12885824 -0.55576503
0.43260258 0.30737224 -0.40342361
-0.47077128 -0.45153379 0.16918941
0.37021899 -0.63603693 0.01943772
-0.02188196 0.88297039 -0.18400514
-0.38444278 -0.19907445 -0.51077420
-0.35631472 -0.06675349 -0.61362612
0.41661641 -0.54774147 -0.09279323
-0.27751222 -0.73982704 -0.01444810
-0.14396341 0.49780744 -0.43505311
0.31810799 0.70872653 0.01206695
0.27664930 0.60343981 0.28150395
-0.69686085 -0.08573503 -0.29369816
0.24990550 -0.62323803 -0.27562410
-0.01837097 -0.28627110 0.74614149
-0.85571307 0.08943223 -0.18211320
-0.18939430 -0.50992543 0.40657172
-0.03601213 -0.68573773 -0.32285258
-0.31601423 -0.19597913 0.61532700
-0.00824932 0.33663732 0.68336016
0.19414304 -0.50840569 0.41300756
-0.77910668 0.26222742 0.02231718
0.53166151 0.36500776 -0.24562404
0.61294001 0.04621242 0.37187442
0.13250768 -0.87247890 -0.13250414
-0.39673793 0.52691996 -0.15490918
-0.12953806 -0.32803777 -0.62646741
0.20595703 0.87259901 0.02464347
-0.07769645 0.28218430 -0.72982353
0.39348966 -0.39498758 0.35363227
0.06111449 -0.63404274 -0.33888951
-0.05681945 0.30292082 0.72363275
0.44180292 -0.24908118 -0.41954741
0.28090295 -0.40171933 0.46196410
0.88560265 -0.10694865 0.16248558
0.47478804 0.44798702 -0.17602618
-0.10560913 -0.68836087 0.29571256
-0.13038772 -0.23710577 -0.76036793
-0.55850405 -0.17291659 -0.36645901
-0.77747899 -0.23445529 0.10593086
-0.57586157 0.24647483 0.32176265
0.98514307 0.01667456 -0.06233723
-0.29877469 0.16208646 0.66420615
-0.08150166 0.21397975 -0.83070815
0.42559570 -0.46299118 0.24042369
-0.76443028 0.20048898 -0.19266166
-0.52813709 -0.21742573 -0.36343235
0.14140686 -0.85723627 0.16866662
0.31024921 -0.36653674 0.46803245
-0.32353210 0.38018063 0.41975641
-0.11312287 0.11997743 -0.90255165
-0.28612211 0.73405331 0.04792824
0.66686070 -0.20333852 0.28017932
0.10285476 -0.80840880 0.22757246
0.15055320 0.91235226 -0.07513128
-0.62582660 -0.28231451 0.23277883
-0.71179819 -0.21720497 -0.21149237
0.47388047 -0.45453843 0.18096413
-0.42723581 0.34128246 0.36265138
0.83751506 0.15051652 -0.16889602
-0.19822310 -0.41364983 0.49216849
-0.15488476 0.49970472 0.43573916
0.27556920 0.76105618 -0.05813643
-0.27894428 -0.18589133 -0.65322441
-0.34631327 0.50745541 -0.26616150
-0.04222759 -0.92426538 -0.13055976
-0.15865700 -0.18419826 -0.79929680
0.66638881 0.33971483 0.01804277
-0.08369398 -0.24782285 0.78803807
-0.36667436 -0.01904457 0.61567479
0.02751610 0.82665938 0.23527478
0.06351367 -0.20828454 0.84110838
0.83325952 0.23299412 0.02952891
-0.58317584 -0.27882364 0.27115470
-0.33063188 -0.60534090 -0.17217323
0.18197747 0.49369502 0.43555266
0.23705420 0.40025088 -0.48199698
0.16094139 -0.73942566 0.25129414
0.04188971 0.65361410 -0.34222695
0.68762505 0.21533237 -0.25209779
0.26362222 0.63983512 -0.25590801
0.10992131 -0.60952127 -0.34368443
